ply
format ascii 1.0
element vertex 1207
property float x
property float y
property float z
property uchar diffuse_red
property uchar diffuse_green
property uchar diffuse_blue
end_header
0.25815 0.17635 0.0885132 255 255 255
0.258896 0.176232 0.0888065 255 255 255
0.259643 0.176114 0.0890997 255 255 255
0.260452 0.175972 0.0895015 255 255 255
0.261136 0.175878 0.0896861 255 255 255
0.261883 0.17576 0.0899793 255 255 255
0.262567 0.175666 0.0901639 255 255 255
0.263251 0.175571 0.0903485 255 255 255
0.263809 0.175524 0.0903157 255 255 255
0.264493 0.17543 0.0905003 255 255 255
0.265052 0.175383 0.0904676 255 255 255
0.265673 0.175312 0.0905434 255 255 255
0.266294 0.175241 0.0906194 255 255 255
0.266852 0.175194 0.0905868 255 255 255
0.267474 0.175123 0.0906627 255 255 255
0.268032 0.175076 0.0906299 255 255 255
0.268591 0.175029 0.0905972 255 255 255
0.269149 0.174982 0.0905645 255 255 255
0.269645 0.174958 0.0904231 255 255 255
0.27014 0.174935 0.0902818 255 255 255
0.270636 0.174911 0.0901404 255 255 255
0.271195 0.174864 0.0901078 255 255 255
0.271816 0.174793 0.0901836 255 255 255
0.272437 0.174722 0.0902596 255 255 255
0.272996 0.174675 0.0902269 255 255 255
0.273617 0.174605 0.0903028 255 255 255
0.274175 0.174557 0.0902701 255 255 255
0.274734 0.17451 0.0902373 255 255 255
0.275292 0.174463 0.0902047 255 255 255
0.275851 0.174416 0.0901719 255 255 255
0.276346 0.174392 0.0900306 255 255 255
0.276842 0.174369 0.0898892 255 255 255
0.277338 0.174345 0.0897479 255 255 255
0.277896 0.174298 0.0897151 255 255 255
0.278392 0.174274 0.0895738 255 255 255
0.278888 0.174251 0.0894324 255 255 255
0.279321 0.174251 0.0891824 255 255 255
0.279816 0.174227 0.089041 255 255 255
0.280249 0.174227 0.088791 255 255 255
0.28062 0.174251 0.0884324 255 255 255
0.281053 0.174251 0.0881824 255 255 255
0.28136 0.174298 0.0877151 255 255 255
0.281731 0.174322 0.0873564 255 255 255
0.282038 0.174369 0.0868892 255 255 255
0.282408 0.174392 0.0865306 255 255 255
0.282842 0.174392 0.0862806 255 255 255
0.283275 0.174392 0.0860306 255 255 255
0.28377 0.174369 0.0858892 255 255 255
0.284203 0.174369 0.0856392 255 255 255
0.284699 0.174345 0.0854979 255 255 255
0.285132 0.174345 0.0852479 255 255 255
0.285565 0.174345 0.0849979 255 255 255
0.285998 0.174345 0.0847479 255 255 255
0.286431 0.174345 0.0844979 255 255 255
0.286927 0.174322 0.0843564 255 255 255
0.287423 0.174298 0.0842151 255 255 255
0.287856 0.174298 0.0839651 255 255 255
0.288289 0.174298 0.0837151 255 255 255
0.288784 0.174274 0.0835738 255 255 255
0.289217 0.174274 0.0833238 255 255 255
0.28965 0.174274 0.0830738 255 255 255
0.290083 0.174274 0.0828238 255 255 255
0.290454 0.174298 0.0824651 255 255 255
0.290887 0.174298 0.0822151 255 255 255
0.291257 0.174322 0.0818564 255 255 255
0.291627 0.174345 0.0814979 255 255 255
0.291997 0.174369 0.0811392 255 255 255
0.292305 0.174416 0.0806719 255 255 255
0.292675 0.17444 0.0803133 255 255 255
0.292983 0.174487 0.079846 255 255 255
0.29329 0.174534 0.0793787 255 255 255
0.293535 0.174605 0.0788028 255 255 255
0.29378 0.174675 0.0782269 255 255 255
0.294025 0.174746 0.0776509 255 255 255
0.294395 0.17477 0.0772923 255 255 255
0.294766 0.174793 0.0769337 255 255 255
0.295199 0.174793 0.0766836 255 255 255
0.295694 0.17477 0.0765423 255 255 255
0.296127 0.17477 0.0762923 255 255 255
0.296623 0.174746 0.0761509 255 255 255
0.297119 0.174722 0.0760096 255 255 255
0.297615 0.174699 0.0758682 255 255 255
0.298173 0.174652 0.0758355 255 255 255
0.298731 0.174605 0.0758028 255 255 255
0.299164 0.174605 0.0755528 255 255 255
0.299597 0.174605 0.0753028 255 255 255
0.299968 0.174628 0.0749441 255 255 255
0.300401 0.174628 0.0746941 255 255 255
0.300771 0.174652 0.0743355 255 255 255
0.301204 0.174652 0.0740855 255 255 255
0.3017 0.174628 0.0739441 255 255 255
0.302133 0.174628 0.0736941 255 255 255
0.302629 0.174605 0.0735528 255 255 255
0.30325 0.174534 0.0736287 255 255 255
0.303745 0.17451 0.0734873 255 255 255
0.304241 0.174487 0.073346 255 255 255
0.304612 0.17451 0.0729873 255 255 255
0.305045 0.17451 0.0727373 255 255 255
0.305478 0.17451 0.0724873 255 255 255
0.305848 0.174534 0.0721287 255 255 255
0.306281 0.174534 0.0718787 255 255 255
0.306777 0.17451 0.0717373 255 255 255
0.307335 0.174463 0.0717047 255 255 255
0.307956 0.174392 0.0717806 255 255 255
0.308766 0.174251 0.0721824 255 255 255
0.309638 0.174086 0.0726929 255 255 255
0.310572 0.173897 0.073312 255 255 255
0.311256 0.173803 0.0734966 255 255 255
0.312172 0.173614 0.074082 255 255 255
0.312899 0.173495 0.0743415 255 255 255
0.313803 0.173306 0.0749068 255 255 255
0.314471 0.173211 0.0750644 255 255 255
0.315257 0.173069 0.0754258 255 255 255
0.315984 0.172951 0.0756853 255 255 255
0.316711 0.172832 0.0759448 255 255 255
0.317262 0.172785 0.0758986 255 255 255
0.317871 0.172714 0.0759543 255 255 255
0.31854 0.172619 0.076112 255 255 255
0.319149 0.172548 0.0761676 255 255 255
0.3197 0.172501 0.0761214 255 255 255
0.320251 0.172454 0.0760753 255 255 255
0.320801 0.172406 0.076029 255 255 255
0.321352 0.172359 0.0759828 255 255 255
0.321903 0.172311 0.0759367 255 255 255
0.322453 0.172264 0.0758904 255 255 255
0.322945 0.17224 0.0757423 255 255 255
0.323437 0.172217 0.0755942 255 255 255
0.323988 0.172169 0.0755481 255 255 255
0.32448 0.172146 0.0754 255 255 255
0.324971 0.172122 0.0752518 255 255 255
0.325463 0.172098 0.0751037 255 255 255
0.325955 0.172075 0.0749556 255 255 255
0.326447 0.172051 0.0748076 255 255 255
0.326939 0.172027 0.0746595 255 255 255
0.327372 0.172027 0.0744095 255 255 255
0.327805 0.172027 0.0741595 255 255 255
0.328179 0.172051 0.0738076 255 255 255
0.328553 0.172075 0.0734556 255 255 255
0.328927 0.172098 0.0731037 255 255 255
0.32936 0.172098 0.0728537 255 255 255
0.329911 0.172051 0.0728076 255 255 255
0.330403 0.172027 0.0726595 255 255 255
0.330895 0.172004 0.0725114 255 255 255
0.331328 0.172004 0.0722614 255 255 255
0.33182 0.17198 0.0721132 255 255 255
0.332253 0.17198 0.0718632 255 255 255
0.332686 0.17198 0.0716132 255 255 255
0.333119 0.17198 0.0713632 255 255 255
0.333493 0.172004 0.0710114 255 255 255
0.333926 0.172004 0.0707614 255 255 255
0.3343 0.172027 0.0704095 255 255 255
0.334733 0.172027 0.0701595 255 255 255
0.335048 0.172075 0.0697057 255 255 255
0.335481 0.172075 0.0694557 255 255 255
0.335914 0.172075 0.0692056 255 255 255
0.336289 0.172098 0.0688537 255 255 255
0.336663 0.172122 0.0685018 255 255 255
0.337096 0.172122 0.0682518 255 255 255
0.337588 0.172098 0.0681037 255 255 255
0.337903 0.172146 0.06765 255 255 255
0.338336 0.172146 0.0674 255 255 255
0.33871 0.172169 0.0670481 255 255 255
0.339143 0.172169 0.0667981 255 255 255
0.339576 0.172169 0.0665481 255 255 255
0.33995 0.172193 0.0661962 255 255 255
0.340383 0.172193 0.0659462 255 255 255
0.340758 0.172217 0.0655942 255 255 255
0.341132 0.17224 0.0652423 255 255 255
0.341506 0.172264 0.0648904 255 255 255
0.341939 0.172264 0.0646404 255 255 255
0.342313 0.172288 0.0642885 255 255 255
0.342687 0.172311 0.0639367 255 255 255
0.34312 0.172311 0.0636867 255 255 255
0.343495 0.172335 0.0633348 255 255 255
0.343869 0.172359 0.0629828 255 255 255
0.344302 0.172359 0.0627328 255 255 255
0.344676 0.172382 0.0623809 255 255 255
0.34505 0.172406 0.062029 255 255 255
0.345424 0.17243 0.0616771 255 255 255
0.345798 0.172454 0.0613253 255 255 255
0.346173 0.172477 0.0609734 255 255 255
0.346547 0.172501 0.0606214 255 255 255
0.346921 0.172525 0.0602695 255 255 255
0.347295 0.172548 0.0599176 255 255 255
0.347669 0.172572 0.0595657 255 255 255
0.347985 0.172619 0.059112 255 255 255
0.3483 0.172667 0.0586581 255 255 255
0.348615 0.172714 0.0582043 255 255 255
0.348872 0.172785 0.0576486 255 255 255
0.349011 0.172903 0.0568891 255 255 255
0.349326 0.172951 0.0564353 255 255 255
0.349641 0.172998 0.0559815 255 255 255
0.349957 0.173045 0.0555276 255 255 255
0.350272 0.173093 0.0550739 255 255 255
0.35047 0.173187 0.0544162 255 255 255
0.350726 0.173259 0.0538606 255 255 255
0.35063 0.173472 0.0526934 255 255 255
0.350828 0.173566 0.0520359 255 255 255
0.351084 0.173637 0.0514801 255 255 255
0.351517 0.173637 0.0512301 255 255 255
0.35195 0.173637 0.0509801 255 255 255
0.352442 0.173614 0.050832 255 255 255
0.352875 0.173614 0.050582 255 255 255
0.353308 0.173614 0.050332 255 255 255
0.353741 0.173614 0.050082 255 255 255
0.354115 0.173637 0.0497301 255 255 255
0.354489 0.173661 0.0493783 255 255 255
0.354864 0.173685 0.0490264 255 255 255
0.355179 0.173732 0.0485725 255 255 255
0.355486 0.173779 0.0481052 255 255 255
0.355794 0.173826 0.047638 255 255 255
0.356039 0.173897 0.047062 255 255 255
0.356346 0.173944 0.0465948 255 255 255
0.356528 0.174039 0.0459102 255 255 255
0.356773 0.174109 0.0453342 255 255 255
0.357018 0.17418 0.0447583 255 255 255
0.357138 0.174298 0.0439651 255 255 255
0.357257 0.174416 0.0431719 255 255 255
0.357502 0.174487 0.042596 255 255 255
0.357747 0.174557 0.0420201 255 255 255
0.358054 0.174605 0.0415528 255 255 255
0.358424 0.174628 0.0411941 255 255 255
0.358795 0.174652 0.0408355 255 255 255
0.359165 0.174675 0.0404769 255 255 255
0.359535 0.174699 0.0401182 255 255 255
0.359906 0.174722 0.0397596 255 255 255
0.360213 0.17477 0.0392923 255 255 255
0.360521 0.174817 0.038825 255 255 255
0.36064 0.174935 0.0380318 255 255 255
0.360885 0.175005 0.0374559 255 255 255
0.361004 0.175123 0.0366627 255 255 255
0.361061 0.175265 0.0357608 255 255 255
0.361243 0.175359 0.0350762 255 255 255
0.361237 0.175524 0.0340657 255 255 255
0.361356 0.175642 0.0332725 255 255 255
0.361413 0.175784 0.0323707 255 255 255
0.361344 0.175972 0.0312515 255 255 255
0.361526 0.176067 0.030567 255 255 255
0.361646 0.176185 0.0297738 255 255 255
0.361703 0.176326 0.0288719 255 255 255
0.361696 0.176491 0.0278613 255 255 255
0.36169 0.176656 0.0268509 255 255 255
0.361684 0.176821 0.0258404 255 255 255
0.361678 0.176986 0.0248299 255 255 255
0.361547 0.177199 0.0236021 255 255 255
0.361478 0.177387 0.022483 255 255 255
0.361597 0.177505 0.0216898 255 255 255
0.361529 0.177694 0.0205706 255 255 255
0.36146 0.177882 0.0194515 255 255 255
0.361266 0.178118 0.018115 255 255 255
0.361071 0.178354 0.0167787 255 255 255
0.361003 0.178543 0.0156595 255 255 255
0.355847 0.180807 0.00472982 255 255 255
0.243447 0.179924 0.0795472 255 255 255
0.245134 0.179451 0.0814696 255 255 255
0.246194 0.179214 0.0823058 255 255 255
0.24738 0.17893 0.0833592 255 255 255
0.248189 0.178788 0.0837609 255 255 255
0.249124 0.178599 0.0843799 255 255 255
0.249996 0.178434 0.0848902 255 255 255
0.250868 0.178268 0.0854005 255 255 255
0.251489 0.178197 0.0854764 255 255 255
0.252236 0.178079 0.0857695 255 255 255
0.253296 0.177842 0.0866057 255 255 255
0.25398 0.177747 0.0867902 255 255 255
0.254726 0.177629 0.0870833 255 255 255
0.255535 0.177487 0.087485 255 255 255
0.256345 0.177345 0.0878868 255 255 255
0.257091 0.177227 0.0881798 255 255 255
0.257901 0.177085 0.0885816 255 255 255
0.258647 0.176967 0.0888746 255 255 255
0.259394 0.176848 0.0891678 255 255 255
0.26014 0.17673 0.0894609 255 255 255
0.260824 0.176636 0.0896453 255 255 255
0.261633 0.176494 0.0900471 255 255 255
0.262255 0.176423 0.0901229 255 255 255
0.263001 0.176304 0.090416 255 255 255
0.263622 0.176233 0.0904919 255 255 255
0.264243 0.176162 0.0905677 255 255 255
0.264865 0.176091 0.0906436 255 255 255
0.265486 0.17602 0.0907195 255 255 255
0.266044 0.175973 0.0906867 255 255 255
0.266665 0.175902 0.0907626 255 255 255
0.267286 0.175831 0.0908384 255 255 255
0.267908 0.17576 0.0909143 255 255 255
0.268466 0.175713 0.0908815 255 255 255
0.269024 0.175666 0.0908487 255 255 255
0.26952 0.175642 0.0907074 255 255 255
0.270016 0.175618 0.090566 255 255 255
0.270512 0.175595 0.0904247 255 255 255
0.271007 0.175571 0.0902832 255 255 255
0.271566 0.175524 0.0902505 255 255 255
0.272187 0.175453 0.0903264 255 255 255
0.272745 0.175405 0.0902935 255 255 255
0.273304 0.175358 0.0902608 255 255 255
0.273925 0.175287 0.0903367 255 255 255
0.274483 0.17524 0.0903039 255 255 255
0.275042 0.175192 0.0902712 255 255 255
0.275663 0.175122 0.090347 255 255 255
0.276159 0.175098 0.0902057 255 255 255
0.276654 0.175074 0.0900643 255 255 255
0.27715 0.175051 0.0899229 255 255 255
0.277709 0.175003 0.0898901 255 255 255
0.278204 0.174979 0.0897488 255 255 255
0.2787 0.174956 0.0896073 255 255 255
0.279196 0.174932 0.089466 255 255 255
0.279629 0.174932 0.089216 255 255 255
0.280125 0.174909 0.0890746 255 255 255
0.280558 0.174909 0.0888246 255 255 255
0.280928 0.174932 0.088466 255 255 255
0.281298 0.174956 0.0881073 255 255 255
0.281668 0.174979 0.0877488 255 255 255
0.282039 0.175003 0.0873901 255 255 255
0.282409 0.175027 0.0870315 255 255 255
0.282842 0.175027 0.0867815 255 255 255
0.283338 0.175003 0.0866401 255 255 255
0.283771 0.175003 0.0863901 255 255 255
0.284204 0.175003 0.0861401 255 255 255
0.284637 0.175003 0.0858901 255 255 255
0.28507 0.175003 0.0856401 255 255 255
0.28544 0.175027 0.0852815 255 255 255
0.285873 0.175027 0.0850315 255 255 255
0.286306 0.175027 0.0847815 255 255 255
0.286739 0.175027 0.0845315 255 255 255
0.287172 0.175027 0.0842815 255 255 255
0.287605 0.175027 0.0840315 255 255 255
0.288038 0.175027 0.0837815 255 255 255
0.288471 0.175027 0.0835315 255 255 255
0.288967 0.175003 0.0833901 255 255 255
0.2894 0.175003 0.0831401 255 255 255
0.289833 0.175003 0.0828901 255 255 255
0.290266 0.175003 0.0826401 255 255 255
0.290636 0.175027 0.0822815 255 255 255
0.291069 0.175027 0.0820315 255 255 255
0.29144 0.175051 0.0816729 255 255 255
0.29181 0.175074 0.0813143 255 255 255
0.29218 0.175098 0.0809557 255 255 255
0.292488 0.175145 0.0804884 255 255 255
0.292795 0.175192 0.0800212 255 255 255
0.29304 0.175263 0.0794453 255 255 255
0.293348 0.175311 0.078978 255 255 255
0.293593 0.175382 0.0784022 255 255 255
0.2939 0.175429 0.077935 255 255 255
0.294271 0.175453 0.0775764 255 255 255
0.294704 0.175453 0.0773263 255 255 255
0.295137 0.175453 0.0770764 255 255 255
0.29557 0.175453 0.0768263 255 255 255
0.296003 0.175453 0.0765764 255 255 255
0.296436 0.175453 0.0763264 255 255 255
0.296869 0.175453 0.0760764 255 255 255
0.297427 0.175405 0.0760435 255 255 255
0.297923 0.175382 0.0759022 255 255 255
0.298544 0.175311 0.0759781 255 255 255
0.29904 0.175287 0.0758367 255 255 255
0.299473 0.175287 0.0755867 255 255 255
0.299906 0.175287 0.0753367 255 255 255
0.300339 0.175287 0.0750867 255 255 255
0.300709 0.175311 0.074728 255 255 255
0.301142 0.175311 0.0744781 255 255 255
0.301701 0.175263 0.0744453 255 255 255
0.302134 0.175263 0.0741953 255 255 255
0.302629 0.17524 0.0740539 255 255 255
0.30325 0.175169 0.0741298 255 255 255
0.303746 0.175145 0.0739884 255 255 255
0.304179 0.175145 0.0737384 255 255 255
0.304612 0.175145 0.0734884 255 255 255
0.304982 0.175169 0.0731298 255 255 255
0.305353 0.175192 0.0727712 255 255 255
0.305786 0.175192 0.0725212 255 255 255
0.306219 0.175192 0.0722712 255 255 255
0.306652 0.175192 0.0720212 255 255 255
0.307148 0.175169 0.0718798 255 255 255
0.307706 0.175122 0.071847 255 255 255
0.308264 0.175074 0.0718143 255 255 255
0.309136 0.174909 0.0723246 255 255 255
0.309883 0.17479 0.0726177 255 255 255
0.31088 0.174577 0.0733453 255 255 255
0.311564 0.174483 0.0735298 255 255 255
0.312362 0.17434 0.0739113 255 255 255
0.313148 0.174198 0.0742725 255 255 255
0.313934 0.174056 0.0746338 255 255 255
0.314602 0.17396 0.0747914 255 255 255
0.315388 0.173818 0.0751526 255 255 255
0.316233 0.173652 0.0756158 255 255 255
0.316901 0.173557 0.0757733 255 255 255
0.31751 0.173485 0.075829 255 255 255
0.31812 0.173414 0.0758847 255 255 255
0.318729 0.173343 0.0759403 255 255 255
0.319339 0.173272 0.0759959 255 255 255
0.31989 0.173224 0.0759497 255 255 255
0.320499 0.173153 0.0760054 255 255 255
0.32105 0.173105 0.0759591 255 255 255
0.321542 0.173082 0.075811 255 255 255
0.322151 0.17301 0.0758667 255 255 255
0.322702 0.172963 0.0758204 255 255 255
0.323194 0.172939 0.0756723 255 255 255
0.323744 0.172892 0.0756261 255 255 255
0.324236 0.172868 0.0754779 255 255 255
0.324728 0.172844 0.0753298 255 255 255
0.325278 0.172797 0.0752836 255 255 255
0.325712 0.172797 0.0750336 255 255 255
0.326203 0.172773 0.0748854 255 255 255
0.326695 0.172749 0.0747373 255 255 255
0.327187 0.172725 0.0745892 255 255 255
0.32762 0.172725 0.0743392 255 255 255
0.328053 0.172725 0.0740892 255 255 255
0.328427 0.172749 0.0737373 255 255 255
0.328801 0.172773 0.0733854 255 255 255
0.329234 0.172773 0.0731354 255 255 255
0.329667 0.172773 0.0728854 255 255 255
0.330159 0.172749 0.0727373 255 255 255
0.330651 0.172725 0.0725892 255 255 255
0.331143 0.172702 0.0724411 255 255 255
0.331576 0.172702 0.0721911 255 255 255
0.332068 0.172678 0.072043 255 255 255
0.332501 0.172678 0.071793 255 255 255
0.332934 0.172678 0.071543 255 255 255
0.333308 0.172702 0.0711911 255 255 255
0.333741 0.172702 0.0709411 255 255 255
0.334174 0.172702 0.0706911 255 255 255
0.334548 0.172725 0.0703392 255 255 255
0.334922 0.172749 0.0699873 255 255 255
0.335355 0.172749 0.0697373 255 255 255
0.33573 0.172773 0.0693854 255 255 255
0.336163 0.172773 0.0691354 255 255 255
0.336537 0.172797 0.0687836 255 255 255
0.33697 0.172797 0.0685336 255 255 255
0.337344 0.17282 0.0681817 255 255 255
0.337777 0.17282 0.0679317 255 255 255
0.338151 0.172844 0.0675798 255 255 255
0.338584 0.172844 0.0673298 255 255 255
0.339017 0.172844 0.0670798 255 255 255
0.339391 0.172868 0.0667279 255 255 255
0.339766 0.172892 0.0663761 255 255 255
0.340199 0.172892 0.0661261 255 255 255
0.340573 0.172915 0.0657742 255 255 255
0.340888 0.172963 0.0653204 255 255 255
0.341262 0.172987 0.0649685 255 255 255
0.341695 0.172987 0.0647185 255 255 255
0.342128 0.172987 0.0644685 255 255 255
0.342503 0.17301 0.0641167 255 255 255
0.342877 0.173034 0.0637647 255 255 255
0.343251 0.173058 0.0634129 255 255 255
0.343625 0.173082 0.063061 255 255 255
0.344058 0.173082 0.062811 255 255 255
0.344374 0.173129 0.0623572 255 255 255
0.344807 0.173129 0.0621072 255 255 255
0.345181 0.173153 0.0617554 255 255 255
0.345496 0.1732 0.0613016 255 255 255
0.345929 0.1732 0.0610516 255 255 255
0.346362 0.1732 0.0608016 255 255 255
0.346678 0.173248 0.0603478 255 255 255
0.347052 0.173272 0.0599959 255 255 255
0.347485 0.173272 0.0597459 255 255 255
0.3478 0.173319 0.0592922 255 255 255
0.348116 0.173367 0.0588384 255 255 255
0.34849 0.173391 0.0584865 255 255 255
0.348746 0.173462 0.0579309 255 255 255
0.348944 0.173557 0.0572733 255 255 255
0.3492 0.173628 0.0567177 255 255 255
0.349575 0.173652 0.0563658 255 255 255
0.34989 0.173699 0.0559121 255 255 255
0.350205 0.173747 0.0554583 255 255 255
0.350462 0.173818 0.0549026 255 255 255
0.350601 0.173937 0.0541432 255 255 255
0.35074 0.174056 0.0533838 255 255 255
0.350702 0.174245 0.0523188 255 255 255
0.3509 0.17434 0.0516613 255 255 255
0.351274 0.174364 0.0513094 255 255 255
0.351707 0.174364 0.0510594 255 255 255
0.35214 0.174364 0.0508094 255 255 255
0.352632 0.17434 0.0506613 255 255 255
0.353065 0.17434 0.0504113 255 255 255
0.353498 0.17434 0.0501613 255 255 255
0.353931 0.17434 0.0499113 255 255 255
0.354305 0.174364 0.0495594 255 255 255
0.354679 0.174388 0.0492075 255 255 255
0.355054 0.174412 0.0488556 255 255 255
0.355361 0.174459 0.0483884 255 255 255
0.355669 0.174506 0.0479212 255 255 255
0.355976 0.174554 0.0474539 255 255 255
0.356221 0.174625 0.046878 255 255 255
0.356466 0.174696 0.0463022 255 255 255
0.356711 0.174767 0.0457263 255 255 255
0.356893 0.174861 0.0450418 255 255 255
0.357075 0.174956 0.0443573 255 255 255
0.357257 0.175051 0.0436729 255 255 255
0.35744 0.175145 0.0429884 255 255 255
0.357747 0.175192 0.0425212 255 255 255
0.357992 0.175263 0.0419453 255 255 255
0.358362 0.175287 0.0415867 255 255 255
0.358733 0.175311 0.0412281 255 255 255
0.35904 0.175358 0.0407609 255 255 255
0.359473 0.175358 0.0405109 255 255 255
0.359844 0.175382 0.0401522 255 255 255
0.360089 0.175453 0.0395764 255 255 255
0.360396 0.1755 0.0391092 255 255 255
0.360641 0.175571 0.0385332 255 255 255
0.360823 0.175666 0.0378487 255 255 255
0.361068 0.175737 0.0372729 255 255 255
0.361062 0.175902 0.0362626 255 255 255
0.361244 0.175997 0.0355781 255 255 255
0.361364 0.176115 0.034785 255 255 255
0.36142 0.176257 0.0338832 255 255 255
0.361477 0.176399 0.0329816 255 255 255
0.361534 0.176541 0.0320798 255 255 255
0.361528 0.176706 0.0310695 255 255 255
0.36171 0.176801 0.030385 255 255 255
0.361641 0.17699 0.0292661 255 255 255
0.361698 0.177132 0.0283643 255 255 255
0.361818 0.177251 0.0275713 255 255 255
0.361623 0.177487 0.026235 255 255 255
0.36168 0.177629 0.0253333 255 255 255
0.361549 0.177842 0.0241057 255 255 255
0.36148 0.178031 0.0229868 255 255 255
0.3616 0.17815 0.0221937 255 255 255
0.361468 0.178363 0.0209661 255 255 255
0.361337 0.178575 0.0197385 255 255 255
0.361268 0.178765 0.0186196 255 255 255
0.361137 0.178978 0.0173919 255 255 255
0.36088 0.179238 0.0159471 255 255 255
0.3556 0.181556 0.00480237 255 255 255
0.24345 0.180574 0.0800527 255 255 255
0.244698 0.180265 0.0812144 255 255 255
0.246072 0.179909 0.0825934 255 255 255
0.247069 0.179696 0.0833208 255 255 255
0.248129 0.179458 0.0841568 255 255 255
0.248938 0.179316 0.0845583 255 255 255
0.24981 0.17915 0.0850685 255 255 255
0.250619 0.179007 0.0854701 255 255 255
0.251366 0.178889 0.0857631 255 255 255
0.252112 0.17877 0.086056 255 255 255
0.253047 0.17858 0.0866749 255 255 255
0.253793 0.178462 0.0869678 255 255 255
0.254477 0.178367 0.0871523 255 255 255
0.255224 0.178248 0.0874452 255 255 255
0.256033 0.178106 0.0878468 255 255 255
0.256779 0.177987 0.0881398 255 255 255
0.257589 0.177844 0.0885414 255 255 255
0.258335 0.177726 0.0888344 255 255 255
0.259082 0.177607 0.0891274 255 255 255
0.259765 0.177512 0.0893117 255 255 255
0.260512 0.177394 0.0896048 255 255 255
0.261259 0.177275 0.0898977 255 255 255
0.262005 0.177156 0.0901907 255 255 255
0.262689 0.177061 0.0903751 255 255 255
0.263373 0.176966 0.0905595 255 255 255
0.264056 0.176871 0.0907439 255 255 255
0.264615 0.176824 0.0907111 255 255 255
0.265236 0.176753 0.0907869 255 255 255
0.265857 0.176682 0.0908627 255 255 255
0.266415 0.176634 0.0908299 255 255 255
0.267037 0.176563 0.0909056 255 255 255
0.26772 0.176468 0.0910901 255 255 255
0.268279 0.17642 0.0910572 255 255 255
0.268837 0.176373 0.0910245 255 255 255
0.269396 0.176326 0.0909917 255 255 255
0.269891 0.176302 0.0908503 255 255 255
0.270387 0.176278 0.0907088 255 255 255
0.27082 0.176278 0.0904588 255 255 255
0.271316 0.176254 0.0903175 255 255 255
0.271874 0.176207 0.0902846 255 255 255
0.272495 0.176136 0.0903604 255 255 255
0.273054 0.176088 0.0903277 255 255 255
0.273612 0.176041 0.0902948 255 255 255
0.27417 0.175993 0.090262 255 255 255
0.274792 0.175922 0.0903378 255 255 255
0.27535 0.175875 0.090305 255 255 255
0.275908 0.175827 0.0902722 255 255 255
0.276404 0.175803 0.0901308 255 255 255
0.276963 0.175756 0.090098 255 255 255
0.277458 0.175732 0.0899566 255 255 255
0.278017 0.175685 0.0899238 255 255 255
0.278512 0.175661 0.0897824 255 255 255
0.279008 0.175637 0.089641 255 255 255
0.279441 0.175637 0.089391 255 255 255
0.279937 0.175614 0.0892496 255 255 255
0.28037 0.175614 0.0889996 255 255 255
0.280803 0.175614 0.0887496 255 255 255
0.281173 0.175637 0.088391 255 255 255
0.281606 0.175637 0.088141 255 255 255
0.282039 0.175637 0.087891 255 255 255
0.28241 0.175661 0.0875324 255 255 255
0.282905 0.175637 0.087391 255 255 255
0.283338 0.175637 0.087141 255 255 255
0.283771 0.175637 0.086891 255 255 255
0.284204 0.175637 0.086641 255 255 255
0.284637 0.175637 0.086391 255 255 255
0.28507 0.175637 0.086141 255 255 255
0.285441 0.175661 0.0857824 255 255 255
0.285811 0.175685 0.0854238 255 255 255
0.286244 0.175685 0.0851738 255 255 255
0.286614 0.175709 0.0848152 255 255 255
0.286985 0.175732 0.0844566 255 255 255
0.287418 0.175732 0.0842066 255 255 255
0.287851 0.175732 0.0839566 255 255 255
0.288221 0.175756 0.083598 255 255 255
0.288717 0.175732 0.0834566 255 255 255
0.289087 0.175756 0.083098 255 255 255
0.28952 0.175756 0.082848 255 255 255
0.289953 0.175756 0.082598 255 255 255
0.290386 0.175756 0.082348 255 255 255
0.290819 0.175756 0.082098 255 255 255
0.291189 0.17578 0.0817394 255 255 255
0.29156 0.175803 0.0813808 255 255 255
0.29193 0.175827 0.0810222 255 255 255
0.292238 0.175875 0.080555 255 255 255
0.292482 0.175946 0.0799792 255 255 255
0.29279 0.175993 0.079512 255 255 255
0.293098 0.176041 0.0790448 255 255 255
0.293405 0.176088 0.0785777 255 255 255
0.293776 0.176112 0.078219 255 255 255
0.294209 0.176112 0.077969 255 255 255
0.294579 0.176136 0.0776104 255 255 255
0.295075 0.176112 0.077469 255 255 255
0.295445 0.176136 0.0771104 255 255 255
0.295878 0.176136 0.0768604 255 255 255
0.296311 0.176136 0.0766104 255 255 255
0.296744 0.176136 0.0763604 255 255 255
0.297177 0.176136 0.0761104 255 255 255
0.297735 0.176088 0.0760777 255 255 255
0.298294 0.176041 0.0760448 255 255 255
0.298852 0.175993 0.076012 255 255 255
0.299348 0.17597 0.0758706 255 255 255
0.299844 0.175946 0.0757292 255 255 255
0.300277 0.175946 0.0754792 255 255 255
0.30071 0.175946 0.0752292 255 255 255
0.301143 0.175946 0.0749792 255 255 255
0.301638 0.175922 0.0748378 255 255 255
0.302134 0.175898 0.0746964 255 255 255
0.302693 0.175851 0.0746636 255 255 255
0.303188 0.175827 0.0745222 255 255 255
0.303684 0.175803 0.0743808 255 255 255
0.30418 0.17578 0.0742394 255 255 255
0.30455 0.175803 0.0738808 255 255 255
0.304983 0.175803 0.0736308 255 255 255
0.305353 0.175827 0.0732722 255 255 255
0.305786 0.175827 0.0730222 255 255 255
0.306157 0.175851 0.0726636 255 255 255
0.30659 0.175851 0.0724136 255 255 255
0.30696 0.175875 0.072055 255 255 255
0.307456 0.175851 0.0719136 255 255 255
0.308014 0.175803 0.0718808 255 255 255
0.308635 0.175732 0.0719566 255 255 255
0.309319 0.175637 0.072141 255 255 255
0.310191 0.175471 0.0726511 255 255 255
0.311063 0.175305 0.0731613 255 255 255
0.311809 0.175186 0.0734543 255 255 255
0.312611 0.175044 0.0738425 255 255 255
0.313338 0.174925 0.0741017 255 255 255
0.314124 0.174782 0.0744629 255 255 255
0.314792 0.174686 0.0746203 255 255 255
0.315637 0.17452 0.0750834 255 255 255
0.316423 0.174377 0.0754446 255 255 255
0.317091 0.174281 0.075602 255 255 255
0.3177 0.17421 0.0756576 255 255 255
0.31831 0.174138 0.0757132 255 255 255
0.318919 0.174067 0.0757688 255 255 255
0.319529 0.173995 0.0758244 255 255 255
0.320138 0.173924 0.07588 255 255 255
0.320689 0.173876 0.0758337 255 255 255
0.321239 0.173829 0.0757874 255 255 255
0.32179 0.173781 0.0757412 255 255 255
0.32234 0.173733 0.0756949 255 255 255
0.32295 0.173662 0.0757505 255 255 255
0.323442 0.173638 0.0756023 255 255 255
0.323992 0.17359 0.075556 255 255 255
0.324484 0.173567 0.0754079 255 255 255
0.324976 0.173543 0.0752598 255 255 255
0.325468 0.173519 0.0751117 255 255 255
0.32596 0.173495 0.0749635 255 255 255
0.326452 0.173471 0.0748154 255 255 255
0.326943 0.173447 0.0746672 255 255 255
0.327376 0.173447 0.0744172 255 255 255
0.327868 0.173424 0.0742691 255 255 255
0.328301 0.173424 0.0740191 255 255 255
0.328675 0.173447 0.0736672 255 255 255
0.329108 0.173447 0.0734172 255 255 255
0.329541 0.173447 0.0731672 255 255 255
0.329974 0.173447 0.0729172 255 255 255
0.330407 0.173447 0.0726672 255 255 255
0.330899 0.173424 0.0725191 255 255 255
0.331391 0.1734 0.072371 255 255 255
0.331824 0.1734 0.072121 255 255 255
0.332257 0.1734 0.071871 255 255 255
0.33269 0.1734 0.071621 255 255 255
0.333123 0.1734 0.071371 255 255 255
0.333556 0.1734 0.071121 255 255 255
0.333989 0.1734 0.070871 255 255 255
0.334422 0.1734 0.070621 255 255 255
0.334796 0.173424 0.0702691 255 255 255
0.335171 0.173447 0.0699172 255 255 255
0.335545 0.173471 0.0695654 255 255 255
0.335978 0.173471 0.0693154 255 255 255
0.336352 0.173495 0.0689635 255 255 255
0.336785 0.173495 0.0687135 255 255 255
0.337218 0.173495 0.0684635 255 255 255
0.337592 0.173519 0.0681117 255 255 255
0.337966 0.173543 0.0677598 255 255 255
0.338399 0.173543 0.0675098 255 255 255
0.338832 0.173543 0.0672598 255 255 255
0.339207 0.173567 0.0669079 255 255 255
0.339581 0.17359 0.066556 255 255 255
0.339955 0.173614 0.0662042 255 255 255
0.340388 0.173614 0.0659542 255 255 255
0.340703 0.173662 0.0655005 255 255 255
0.341078 0.173686 0.0651486 255 255 255
0.341511 0.173686 0.0648986 255 255 255
0.341885 0.17371 0.0645467 255 255 255
0.342259 0.173733 0.0641949 255 255 255
0.342633 0.173757 0.063843 255 255 255
0.343008 0.173781 0.0634912 255 255 255
0.343382 0.173805 0.0631393 255 255 255
0.343756 0.173829 0.0627874 255 255 255
0.34413 0.173852 0.0624355 255 255 255
0.344504 0.173876 0.0620837 255 255 255
0.344879 0.1739 0.0617319 255 255 255
0.345253 0.173924 0.06138 255 255 255
0.345627 0.173948 0.0610281 255 255 255
0.346001 0.173972 0.0606762 255 255 255
0.346434 0.173972 0.0604262 255 255 255
0.346808 0.173995 0.0600744 255 255 255
0.347183 0.174019 0.0597225 255 255 255
0.347557 0.174043 0.0593707 255 255 255
0.347931 0.174067 0.0590188 255 255 255
0.348246 0.174115 0.0585651 255 255 255
0.348562 0.174162 0.0581114 255 255 255
0.348818 0.174234 0.0575558 255 255 255
0.349075 0.174305 0.0570002 255 255 255
0.349449 0.174329 0.0566484 255 255 255
0.349764 0.174377 0.0561946 255 255 255
0.35008 0.174424 0.0557409 255 255 255
0.350336 0.174496 0.0551853 255 255 255
0.350534 0.174591 0.0545279 255 255 255
0.350673 0.17471 0.0537685 255 255 255
0.350695 0.174877 0.0528055 255 255 255
0.350716 0.175044 0.0518425 255 255 255
0.351031 0.175091 0.0513887 255 255 255
0.351464 0.175091 0.0511387 255 255 255
0.351897 0.175091 0.0508887 255 255 255
0.352389 0.175068 0.0507406 255 255 255
0.352822 0.175068 0.0504906 255 255 255
0.353314 0.175044 0.0503425 255 255 255
0.353688 0.175068 0.0499906 255 255 255
0.354121 0.175068 0.0497406 255 255 255
0.354495 0.175091 0.0493887 255 255 255
0.354928 0.175091 0.0491387 255 255 255
0.355173 0.175163 0.0485629 255 255 255
0.355544 0.175186 0.0482043 255 255 255
0.355851 0.175234 0.0477371 255 255 255
0.356159 0.175281 0.04727 255 255 255
0.356404 0.175352 0.0466942 255 255 255
0.356586 0.175447 0.0460098 255 255 255
0.356831 0.175519 0.045434 255 255 255
0.357013 0.175614 0.0447496 255 255 255
0.357258 0.175685 0.0441738 255 255 255
0.35744 0.17578 0.0434894 255 255 255
0.357685 0.175851 0.0429136 255 255 255
0.357993 0.175898 0.0424464 255 255 255
0.3583 0.175946 0.0419792 255 255 255
0.358608 0.175993 0.041512 255 255 255
0.358978 0.176017 0.0411534 255 255 255
0.359349 0.176041 0.0407948 255 255 255
0.359656 0.176088 0.0403277 255 255 255
0.359964 0.176136 0.0398604 255 255 255
0.360209 0.176207 0.0392846 255 255 255
0.360516 0.176254 0.0388175 255 255 255
0.360699 0.176349 0.038133 255 255 255
0.360943 0.17642 0.0375572 255 255 255
0.361 0.176563 0.0366556 255 255 255
0.361183 0.176658 0.0359713 255 255 255
0.361365 0.176753 0.0352869 255 255 255
0.361422 0.176895 0.0343853 255 255 255
0.361541 0.177014 0.0335923 255 255 255
0.361598 0.177156 0.0326907 255 255 255
0.361592 0.177322 0.0316806 255 255 255
0.361649 0.177465 0.030779 255 255 255
0.361768 0.177583 0.0299859 255 255 255
0.3617 0.177773 0.0288672 255 255 255
0.361757 0.177916 0.0279656 255 255 255
0.361813 0.178058 0.027064 255 255 255
0.361557 0.178319 0.0256194 255 255 255
0.361551 0.178485 0.0246093 255 255 255
0.361482 0.178675 0.0234905 255 255 255
0.361602 0.178794 0.0226975 255 255 255
0.361408 0.179031 0.0213615 255 255 255
0.361339 0.179221 0.0202427 255 255 255
0.361396 0.179363 0.0193412 255 255 255
0.361202 0.179601 0.0180052 255 255 255
0.360883 0.179886 0.016452 255 255 255
0.36025 0.180289 0.0143558 255 255 255
0.355849 0.182282 0.00473363 255 255 255
0.243516 0.181199 0.0806667 255 255 255
0.244638 0.180938 0.081611 255 255 255
0.245949 0.180604 0.082881 255 255 255
0.247072 0.180342 0.0838254 255 255 255
0.247943 0.180176 0.0843353 255 255 255
0.248753 0.180033 0.0847368 255 255 255
0.249624 0.179866 0.0852468 255 255 255
0.250496 0.179699 0.0857569 255 255 255
0.25118 0.179604 0.0859412 255 255 255
0.251989 0.179461 0.0863426 255 255 255
0.252736 0.179342 0.0866355 255 255 255
0.253545 0.1792 0.087037 255 255 255
0.254228 0.179104 0.0872212 255 255 255
0.254975 0.178985 0.0875141 255 255 255
0.255721 0.178866 0.087807 255 255 255
0.25653 0.178723 0.0882085 255 255 255
0.257214 0.178628 0.0883928 255 255 255
0.258086 0.178461 0.0889028 255 255 255
0.25877 0.178366 0.0890871 255 255 255
0.259516 0.178247 0.0893799 255 255 255
0.2602 0.178152 0.0895643 255 255 255
0.260946 0.178033 0.0898571 255 255 255
0.26163 0.177938 0.0900415 255 255 255
0.262377 0.177819 0.0903343 255 255 255
0.263123 0.1777 0.0906272 255 255 255
0.263744 0.177628 0.090703 255 255 255
0.264365 0.177557 0.0907786 255 255 255
0.265049 0.177462 0.090963 255 255 255
0.26567 0.17739 0.0910387 255 255 255
0.266228 0.177343 0.0910058 255 255 255
0.266849 0.177271 0.0910816 255 255 255
0.267471 0.1772 0.0911573 255 255 255
0.268092 0.177128 0.091233 255 255 255
0.26865 0.177081 0.0912002 255 255 255
0.269208 0.177033 0.0911673 255 255 255
0.269767 0.176985 0.0911345 255 255 255
0.270262 0.176962 0.090993 255 255 255
0.270695 0.176962 0.090743 255 255 255
0.271128 0.176962 0.090493 255 255 255
0.271687 0.176914 0.0904602 255 255 255
0.272183 0.17689 0.0903188 255 255 255
0.272741 0.176843 0.0902859 255 255 255
0.273299 0.176795 0.090253 255 255 255
0.27392 0.176724 0.0903288 255 255 255
0.274479 0.176676 0.0902959 255 255 255
0.2751 0.176605 0.0903716 255 255 255
0.275658 0.176557 0.0903389 255 255 255
0.276154 0.176533 0.0901974 255 255 255
0.276712 0.176485 0.0901645 255 255 255
0.277208 0.176462 0.0900231 255 255 255
0.277766 0.176414 0.0899903 255 255 255
0.278262 0.17639 0.0898489 255 255 255
0.278821 0.176343 0.089816 255 255 255
0.279254 0.176343 0.089566 255 255 255
0.279749 0.176319 0.0894246 255 255 255
0.280182 0.176319 0.0891746 255 255 255
0.280678 0.176295 0.0890331 255 255 255
0.281111 0.176295 0.0887831 255 255 255
0.281481 0.176319 0.0884246 255 255 255
0.281914 0.176319 0.0881746 255 255 255
0.28241 0.176295 0.0880331 255 255 255
0.282843 0.176295 0.0877831 255 255 255
0.283276 0.176295 0.0875331 255 255 255
0.283709 0.176295 0.0872831 255 255 255
0.284205 0.176271 0.0871417 255 255 255
0.284575 0.176295 0.0867831 255 255 255
0.285008 0.176295 0.0865331 255 255 255
0.285378 0.176319 0.0861746 255 255 255
0.285811 0.176319 0.0859246 255 255 255
0.286119 0.176366 0.0854574 255 255 255
0.286489 0.17639 0.0850989 255 255 255
0.28686 0.176414 0.0847403 255 255 255
0.28723 0.176438 0.0843817 255 255 255
0.2876 0.176462 0.0840231 255 255 255
0.287971 0.176485 0.0836645 255 255 255
0.288341 0.176509 0.083306 255 255 255
0.288837 0.176485 0.0831645 255 255 255
0.289207 0.176509 0.082806 255 255 255
0.28964 0.176509 0.082556 255 255 255
0.290073 0.176509 0.082306 255 255 255
0.290506 0.176509 0.082056 255 255 255
0.290876 0.176533 0.0816974 255 255 255
0.291247 0.176557 0.0813389 255 255 255
0.291617 0.176581 0.0809802 255 255 255
0.291987 0.176605 0.0806216 255 255 255
0.292232 0.176676 0.0800459 255 255 255
0.292603 0.1767 0.0796874 255 255 255
0.292973 0.176724 0.0793288 255 255 255
0.293343 0.176747 0.0789703 255 255 255
0.293714 0.176771 0.0786116 255 255 255
0.294147 0.176771 0.0783616 255 255 255
0.29458 0.176771 0.0781116 255 255 255
0.29495 0.176795 0.0777531 255 255 255
0.295383 0.176795 0.077503 255 255 255
0.295753 0.176819 0.0771445 255 255 255
0.296124 0.176843 0.0767859 255 255 255
0.296557 0.176843 0.0765359 255 255 255
0.297052 0.176819 0.0763945 255 255 255
0.297548 0.176795 0.076253 255 255 255
0.298106 0.176747 0.0762203 255 255 255
0.298665 0.1767 0.0761874 255 255 255
0.29916 0.176676 0.0760459 255 255 255
0.299656 0.176652 0.0759045 255 255 255
0.300215 0.176605 0.0758716 255 255 255
0.300648 0.176605 0.0756216 255 255 255
0.301143 0.176581 0.0754802 255 255 255
0.301639 0.176557 0.0753389 255 255 255
0.302135 0.176533 0.0751974 255 255 255
0.302693 0.176485 0.0751645 255 255 255
0.303189 0.176462 0.0750231 255 255 255
0.303622 0.176462 0.0747731 255 255 255
0.304118 0.176438 0.0746317 255 255 255
0.304488 0.176462 0.0742731 255 255 255
0.304921 0.176462 0.0740231 255 255 255
0.305291 0.176485 0.0736645 255 255 255
0.305661 0.176509 0.073306 255 255 255
0.306032 0.176533 0.0729474 255 255 255
0.306465 0.176533 0.0726974 255 255 255
0.306835 0.176557 0.0723389 255 255 255
0.307268 0.176557 0.0720889 255 255 255
0.307764 0.176533 0.0719474 255 255 255
0.308322 0.176485 0.0719145 255 255 255
0.308881 0.176438 0.0718817 255 255 255
0.309564 0.176343 0.072066 255 255 255
0.310374 0.1762 0.0724675 255 255 255
0.311183 0.176057 0.0728689 255 255 255
0.311992 0.175914 0.0732703 255 255 255
0.312801 0.175771 0.0736718 255 255 255
0.313528 0.175652 0.073931 255 255 255
0.314314 0.175508 0.074292 255 255 255
0.314923 0.175437 0.0743476 255 255 255
0.315827 0.175245 0.0749124 255 255 255
0.316554 0.175126 0.0751716 255 255 255
0.317281 0.175006 0.0754308 255 255 255
0.31789 0.174935 0.0754863 255 255 255
0.318441 0.174887 0.0754399 255 255 255
0.31905 0.174815 0.0754955 255 255 255
0.319718 0.17472 0.0756529 255 255 255
0.320328 0.174648 0.0757084 255 255 255
0.320819 0.174624 0.0755603 255 255 255
0.32137 0.174576 0.075514 255 255 255
0.321921 0.174528 0.0754676 255 255 255
0.32253 0.174457 0.0755231 255 255 255
0.323081 0.174409 0.0754768 255 255 255
0.323631 0.174361 0.0754306 255 255 255
0.324182 0.174313 0.0753842 255 255 255
0.324674 0.174289 0.0752361 255 255 255
0.325224 0.174242 0.0751897 255 255 255
0.325657 0.174242 0.0749397 255 255 255
0.326149 0.174218 0.0747916 255 255 255
0.326641 0.174194 0.0746434 255 255 255
0.327074 0.174194 0.0743935 255 255 255
0.327625 0.174146 0.0743471 255 255 255
0.328058 0.174146 0.0740971 255 255 255
0.328549 0.174122 0.0739489 255 255 255
0.328924 0.174146 0.0735971 255 255 255
0.329357 0.174146 0.0733471 255 255 255
0.32979 0.174146 0.0730971 255 255 255
0.330223 0.174146 0.0728471 255 255 255
0.330656 0.174146 0.0725971 255 255 255
0.331147 0.174122 0.0724489 255 255 255
0.33158 0.174122 0.0721989 255 255 255
0.332013 0.174122 0.0719489 255 255 255
0.332446 0.174122 0.0716989 255 255 255
0.33288 0.174122 0.0714489 255 255 255
0.333371 0.174098 0.0713008 255 255 255
0.333804 0.174098 0.0710508 255 255 255
0.334179 0.174122 0.0706989 255 255 255
0.334612 0.174122 0.0704489 255 255 255
0.335045 0.174122 0.0701989 255 255 255
0.335419 0.174146 0.0698471 255 255 255
0.335793 0.17417 0.0694953 255 255 255
0.336167 0.174194 0.0691434 255 255 255
0.3366 0.174194 0.0688934 255 255 255
0.337033 0.174194 0.0686435 255 255 255
0.337407 0.174218 0.0682916 255 255 255
0.337782 0.174242 0.0679397 255 255 255
0.338215 0.174242 0.0676897 255 255 255
0.338589 0.174265 0.0673379 255 255 255
0.339022 0.174265 0.0670879 255 255 255
0.339396 0.174289 0.0667361 255 255 255
0.33977 0.174313 0.0663842 255 255 255
0.340145 0.174337 0.0660324 255 255 255
0.340519 0.174361 0.0656806 255 255 255
0.340952 0.174361 0.0654306 255 255 255
0.341326 0.174385 0.0650787 255 255 255
0.3417 0.174409 0.0647268 255 255 255
0.342074 0.174433 0.064375 255 255 255
0.342449 0.174457 0.0640231 255 255 255
0.342823 0.174481 0.0636714 255 255 255
0.343138 0.174528 0.0632176 255 255 255
0.343512 0.174552 0.0628658 255 255 255
0.343828 0.1746 0.0624121 255 255 255
0.344202 0.174624 0.0620603 255 255 255
0.344576 0.174648 0.0617084 255 255 255
0.344951 0.174672 0.0613566 255 255 255
0.345325 0.174696 0.0610048 255 255 255
0.345699 0.17472 0.0606529 255 255 255
0.346132 0.17472 0.0604029 255 255 255
0.346565 0.17472 0.0601529 255 255 255
0.346939 0.174743 0.059801 255 255 255
0.347313 0.174767 0.0594492 255 255 255
0.347688 0.174791 0.0590974 255 255 255
0.348062 0.174815 0.0587455 255 255 255
0.348318 0.174887 0.0581899 255 255 255
0.348575 0.174959 0.0576344 255 255 255
0.348891 0.175006 0.0571808 255 255 255
0.349265 0.17503 0.0568289 255 255 255
0.349639 0.175054 0.0564771 255 255 255
0.349896 0.175126 0.0559216 255 255 255
0.350211 0.175174 0.0554678 255 255 255
0.350409 0.175269 0.0548105 255 255 255
0.350548 0.175389 0.0540513 255 255 255
0.350569 0.175556 0.0530884 255 255 255
0.350591 0.175723 0.0521255 255 255 255
0.350843 0.175795 0.0515632 255 255 255
0.351214 0.175819 0.0512047 255 255 255
0.351647 0.175819 0.0509547 255 255 255
0.352142 0.175795 0.0508132 255 255 255
0.352575 0.175795 0.0505632 255 255 255
0.353071 0.175771 0.0504218 255 255 255
0.353504 0.175771 0.0501718 255 255 255
0.353937 0.175771 0.0499218 255 255 255
0.354307 0.175795 0.0495632 255 255 255
0.35474 0.175795 0.0493132 255 255 255
0.355048 0.175843 0.0488461 255 255 255
0.355418 0.175866 0.0484875 255 255 255
0.355726 0.175914 0.0480203 255 255 255
0.356034 0.175962 0.0475532 255 255 255
0.356216 0.176057 0.0468689 255 255 255
0.356524 0.176105 0.0464017 255 255 255
0.356769 0.176176 0.045826 255 255 255
0.357014 0.176247 0.0452503 255 255 255
0.357196 0.176343 0.044566 255 255 255
0.357441 0.176414 0.0439903 255 255 255
0.357623 0.176509 0.043306 255 255 255
0.357931 0.176557 0.0428389 255 255 255
0.358238 0.176605 0.0423716 255 255 255
0.358546 0.176652 0.0419045 255 255 255
0.358854 0.1767 0.0414374 255 255 255
0.359224 0.176724 0.0410788 255 255 255
0.359532 0.176771 0.0406116 255 255 255
0.359839 0.176819 0.0401445 255 255 255
0.360147 0.176866 0.0396774 255 255 255
0.360329 0.176962 0.038993 255 255 255
0.360574 0.177033 0.0384173 255 255 255
0.360819 0.177104 0.0378416 255 255 255
0.360939 0.177223 0.0370487 255 255 255
0.361121 0.177319 0.0363644 255 255 255
0.361303 0.177414 0.0356801 255 255 255
0.361423 0.177533 0.0348872 255 255 255
0.36148 0.177676 0.0339858 255 255 255
0.361599 0.177795 0.0331929 255 255 255
0.361719 0.177914 0.0324 255 255 255
0.36165 0.178104 0.0312814 255 255 255
0.361833 0.1782 0.0305971 255 255 255
0.361889 0.178342 0.0296957 255 255 255
0.361821 0.178533 0.0285771 255 255 255
0.361753 0.178723 0.0274585 255 255 255
0.361496 0.178985 0.0260141 255 255 255
0.361553 0.179128 0.0251126 255 255 255
0.361547 0.179295 0.0241026 255 255 255
0.361541 0.179461 0.0230926 255 255 255
0.361535 0.179628 0.0220826 255 255 255
0.361342 0.179866 0.0207468 255 255 255
0.361336 0.180033 0.0197368 255 255 255
0.361079 0.180295 0.0182925 255 255 255
0.361074 0.180461 0.0172825 255 255 255
0.360629 0.180795 0.0155124 255 255 255
0.355477 0.18308 0.0045892 255 255 255
0.243394 0.181896 0.0809548 255 255 255
0.244516 0.181634 0.0818989 255 255 255
0.245764 0.181323 0.0830601 255 255 255
0.246824 0.181084 0.0838956 255 255 255
0.247695 0.180917 0.0844055 255 255 255
0.248567 0.18075 0.0849154 255 255 255
0.249376 0.180607 0.0853167 255 255 255
0.25031 0.180416 0.0859351 255 255 255
0.250994 0.18032 0.0861193 255 255 255
0.251803 0.180177 0.0865206 255 255 255
0.25255 0.180057 0.0868134 255 255 255
0.253296 0.179938 0.0871061 255 255 255
0.25398 0.179842 0.0872904 255 255 255
0.254726 0.179723 0.0875831 255 255 255
0.25541 0.179627 0.0877674 255 255 255
0.256219 0.179484 0.0881687 255 255 255
0.256965 0.179365 0.0884614 255 255 255
0.257774 0.179221 0.0888627 255 255 255
0.258458 0.179126 0.089047 255 255 255
0.259204 0.179006 0.0893397 255 255 255
0.259825 0.178935 0.0894154 255 255 255
0.260634 0.178791 0.0898167 255 255 255
0.261255 0.17872 0.0898923 255 255 255
0.262064 0.178577 0.0902937 255 255 255
0.262748 0.178481 0.0904779 255 255 255
0.263432 0.178385 0.0906621 255 255 255
0.264116 0.17829 0.0908464 255 255 255
0.264799 0.178194 0.0910306 255 255 255
0.26542 0.178123 0.0911061 255 255 255
0.265979 0.178075 0.0910733 255 255 255
0.2666 0.178003 0.0911489 255 255 255
0.267283 0.177908 0.0913331 255 255 255
0.267842 0.17786 0.0913003 255 255 255
0.268463 0.177788 0.0913759 255 255 255
0.269021 0.177741 0.091343 255 255 255
0.26958 0.177693 0.0913102 255 255 255
0.270075 0.177669 0.0911687 255 255 255
0.270571 0.177645 0.0910273 255 255 255
0.271004 0.177645 0.0907773 255 255 255
0.2715 0.177621 0.0906358 255 255 255
0.271995 0.177597 0.0904944 255 255 255
0.272491 0.177573 0.0903529 255 255 255
0.272987 0.17755 0.0902115 255 255 255
0.273608 0.177478 0.0902871 255 255 255
0.274166 0.17743 0.0902542 255 255 255
0.274787 0.177358 0.0903299 255 255 255
0.275345 0.177311 0.090297 255 255 255
0.275904 0.177263 0.0902641 255 255 255
0.276399 0.177239 0.0901226 255 255 255
0.276958 0.177191 0.0900897 255 255 255
0.277454 0.177167 0.0899483 255 255 255
0.278012 0.17712 0.0899154 255 255 255
0.278508 0.177096 0.089774 255 255 255
0.279066 0.177048 0.0897411 255 255 255
0.279499 0.177048 0.0894911 255 255 255
0.279995 0.177024 0.0893497 255 255 255
0.28049 0.177 0.0892082 255 255 255
0.280923 0.177 0.0889582 255 255 255
0.281356 0.177 0.0887082 255 255 255
0.281789 0.177 0.0884582 255 255 255
0.282285 0.176976 0.0883167 255 255 255
0.282718 0.176976 0.0880667 255 255 255
0.283151 0.176976 0.0878167 255 255 255
0.283584 0.176976 0.0875667 255 255 255
0.284017 0.176976 0.0873167 255 255 255
0.284513 0.176952 0.0871753 255 255 255
0.284883 0.176976 0.0868167 255 255 255
0.285316 0.176976 0.0865667 255 255 255
0.285686 0.177 0.0862082 255 255 255
0.285994 0.177048 0.0857411 255 255 255
0.286364 0.177072 0.0853825 255 255 255
0.286672 0.17712 0.0849154 255 255 255
0.287042 0.177144 0.0845569 255 255 255
0.28735 0.177191 0.0840897 255 255 255
0.28772 0.177215 0.0837312 255 255 255
0.288153 0.177215 0.0834812 255 255 255
0.288586 0.177215 0.0832312 255 255 255
0.28902 0.177215 0.0829812 255 255 255
0.289453 0.177215 0.0827312 255 255 255
0.289886 0.177215 0.0824812 255 255 255
0.290319 0.177215 0.0822312 255 255 255
0.290689 0.177239 0.0818726 255 255 255
0.291059 0.177263 0.0815141 255 255 255
0.29143 0.177287 0.0811555 255 255 255
0.291863 0.177287 0.0809055 255 255 255
0.29217 0.177335 0.0804384 255 255 255
0.292541 0.177358 0.0800799 255 255 255
0.292911 0.177382 0.0797213 255 255 255
0.293281 0.177406 0.0793628 255 255 255
0.293652 0.17743 0.0790042 255 255 255
0.294085 0.17743 0.0787542 255 255 255
0.294518 0.17743 0.0785042 255 255 255
0.294888 0.177454 0.0781457 255 255 255
0.295258 0.177478 0.0777871 255 255 255
0.295629 0.177502 0.0774285 255 255 255
0.295999 0.177526 0.07707 255 255 255
0.296432 0.177526 0.07682 255 255 255
0.296865 0.177526 0.07657 255 255 255
0.297361 0.177502 0.0764285 255 255 255
0.297919 0.177454 0.0763957 255 255 255
0.298415 0.17743 0.0762542 255 255 255
0.299036 0.177358 0.0763299 255 255 255
0.299531 0.177335 0.0761884 255 255 255
0.300027 0.177311 0.076047 255 255 255
0.300523 0.177287 0.0759055 255 255 255
0.301081 0.177239 0.0758726 255 255 255
0.301577 0.177215 0.0757312 255 255 255
0.302073 0.177191 0.0755897 255 255 255
0.302568 0.177167 0.0754483 255 255 255
0.303127 0.17712 0.0754154 255 255 255
0.30356 0.17712 0.0751654 255 255 255
0.303993 0.17712 0.0749154 255 255 255
0.304426 0.17712 0.0746654 255 255 255
0.304796 0.177144 0.0743069 255 255 255
0.305166 0.177167 0.0739483 255 255 255
0.305537 0.177191 0.0735897 255 255 255
0.30597 0.177191 0.0733397 255 255 255
0.306403 0.177191 0.0730897 255 255 255
0.306773 0.177215 0.0727312 255 255 255
0.307206 0.177215 0.0724812 255 255 255
0.307639 0.177215 0.0722312 255 255 255
0.308072 0.177215 0.0719812 255 255 255
0.30863 0.177167 0.0719483 255 255 255
0.309126 0.177144 0.0718069 255 255 255
0.309747 0.177072 0.0718825 255 255 255
0.310431 0.176976 0.0720667 255 255 255
0.311303 0.176809 0.0725766 255 255 255
0.312174 0.176642 0.0730865 255 255 255
0.312983 0.176499 0.0734878 255 255 255
0.313718 0.176379 0.0737603 255 255 255
0.314504 0.176235 0.0741213 255 255 255
0.315054 0.176187 0.0740749 255 255 255
0.31584 0.176043 0.0744359 255 255 255
0.316743 0.175852 0.0750005 255 255 255
0.317412 0.175756 0.0751578 255 255 255
0.318021 0.175684 0.0752133 255 255 255
0.31863 0.175612 0.0752687 255 255 255
0.31924 0.17554 0.0753241 255 255 255
0.319908 0.175444 0.0754814 255 255 255
0.320459 0.175396 0.0754351 255 255 255
0.321009 0.175348 0.0753888 255 255 255
0.32156 0.1753 0.0753424 255 255 255
0.322051 0.175276 0.0751943 255 255 255
0.32272 0.17518 0.0753516 255 255 255
0.32327 0.175132 0.0753052 255 255 255
