ply
format ascii 1.0
element vertex 1737
property float x
property float y
property float z
end_header
0.29321 0.202769 0.108586
0.293773 0.202755 0.108334
0.294502 0.202702 0.108176
0.295478 0.202591 0.108159
0.296322 0.202511 0.108067
0.297092 0.202449 0.107933
0.297712 0.202421 0.107713
0.298327 0.202394 0.107489
0.298871 0.202384 0.107226
0.299397 0.202378 0.106952
0.299846 0.202389 0.106634
0.300214 0.202421 0.10627
0.300582 0.202452 0.105906
0.300958 0.202479 0.105547
0.301551 0.202458 0.105311
0.302205 0.202423 0.10511
0.30286 0.202387 0.10491
0.303474 0.20236 0.104687
0.304031 0.202346 0.10443
0.304599 0.202331 0.104181
0.305107 0.202329 0.103896
0.305627 0.202325 0.103619
0.306089 0.202333 0.103309
0.306509 0.202352 0.102974
0.30696 0.202363 0.102658
0.307321 0.202395 0.10229
0.30771 0.202421 0.101938
0.3081 0.202447 0.101586
0.30849 0.202472 0.101234
0.308816 0.202513 0.100846
0.30914 0.202554 0.100458
0.30946 0.202596 0.100066
0.309758 0.202642 0.0996619
0.310031 0.202695 0.0992438
0.310311 0.202746 0.098829
0.310608 0.202793 0.0984243
0.310914 0.202838 0.0980251
0.311269 0.202871 0.0976537
0.311624 0.202905 0.0972821
0.311999 0.202934 0.0969223
0.312378 0.202962 0.0965642
0.312742 0.202994 0.0961979
0.313217 0.203 0.0958953
0.313617 0.203022 0.0955494
0.314002 0.20305 0.0951948
0.314412 0.203071 0.0948548
0.314847 0.203085 0.0945288
0.315255 0.203106 0.0941878
0.315654 0.20313 0.0938414
0.316067 0.20315 0.0935028
0.316473 0.203172 0.0931604
0.3169 0.20319 0.09283
0.317247 0.203224 0.0924542
0.317698 0.203236 0.0921377
0.318113 0.203256 0.0918001
0.318562 0.203268 0.0914822
0.319005 0.203281 0.0911611
0.319548 0.203271 0.090897
0.320022 0.203277 0.0905937
0.320596 0.203259 0.0903472
0.321025 0.203276 0.0900177
0.321511 0.20328 0.0897211
0.322057 0.203269 0.0894587
0.322482 0.203287 0.0891276
0.322997 0.203283 0.0888474
0.323458 0.203292 0.0885362
0.323935 0.203297 0.0882345
0.324374 0.203311 0.0879109
0.324853 0.203316 0.0876101
0.325364 0.203314 0.0873277
0.325863 0.203314 0.0870385
0.326304 0.203328 0.0867165
0.326819 0.203324 0.0864359
0.327336 0.20332 0.0861575
0.327811 0.203326 0.0858544
0.328334 0.203321 0.0855786
0.328813 0.203326 0.0852778
0.329339 0.203319 0.0850045
0.329803 0.203328 0.0846949
0.330312 0.203326 0.0844113
0.330756 0.203339 0.0840907
0.331229 0.203345 0.0837866
0.331687 0.203355 0.0834742
0.332153 0.203363 0.0831659
0.332614 0.203371 0.0828551
0.333016 0.203394 0.0825101
0.333408 0.20342 0.08216
0.333782 0.203449 0.0817991
0.334149 0.20348 0.0814345
0.334459 0.203524 0.0810377
0.334687 0.203587 0.0805937
0.334848 0.203665 0.0801109
0.335027 0.20374 0.0796391
0.335304 0.203792 0.0792231
0.335578 0.203845 0.0788055
0.335815 0.203905 0.0783665
0.336107 0.203953 0.0779591
0.336345 0.204014 0.0775205
0.336593 0.204073 0.0770883
0.336805 0.204139 0.0766347
0.337011 0.204207 0.0761782
0.337167 0.204288 0.075693
0.337289 0.204375 0.0751886
0.337382 0.20447 0.0746674
0.337466 0.204566 0.0741411
0.337385 0.204701 0.0735206
0.337319 0.204832 0.072909
0.337421 0.204925 0.0723931
0.337621 0.204995 0.0719328
0.337809 0.205067 0.0714659
0.337921 0.205157 0.0709554
0.338005 0.205253 0.070429
0.338071 0.205354 0.069893
0.338143 0.205454 0.0693595
0.338202 0.205556 0.0688188
0.338233 0.205661 0.0682476
0.338226 0.205775 0.0676506
0.338064 0.205923 0.0669595
0.338022 0.206045 0.0663413
0.338089 0.206141 0.0657895
0.338213 0.206226 0.0652723
0.338254 0.206328 0.064705
0.338299 0.206431 0.0641393
0.338317 0.206538 0.0635582
0.338265 0.206662 0.0629337
0.338238 0.20678 0.0623246
0.338143 0.206914 0.0616743
0.338049 0.207047 0.0610252
0.337909 0.20719 0.0603472
0.337763 0.207335 0.059666
0.337692 0.207463 0.0590299
0.3377 0.207573 0.0584426
0.337681 0.20769 0.0578386
0.337661 0.207806 0.0572337
0.337686 0.207913 0.0566565
0.337521 0.208062 0.0559634
0.337372 0.208207 0.0552802
0.337193 0.208359 0.0545793
0.336827 0.208553 0.0537639
0.336656 0.208704 0.0530675
0.336501 0.208851 0.052381
0.336276 0.209013 0.0516518
0.336188 0.209144 0.0510055
0.335972 0.209305 0.0502815
0.334321 0.210124 0.0469079
0.334225 0.210257 0.046257
0.334124 0.210392 0.045603
0.333999 0.210532 0.0449345
0.333722 0.210706 0.044174
0.333503 0.210867 0.043448
0.333218 0.211043 0.0426822
0.332885 0.21123 0.0418874
0.332678 0.211388 0.0411693
0.332644 0.211508 0.0405562
0.33256 0.211638 0.0399125
0.332445 0.211776 0.0392499
0.368008 0.205252 0.0531101
0.368838 0.205176 0.0530101
0.369589 0.205118 0.0528648
0.370779 0.204958 0.0529707
0.371763 0.204845 0.0529582
0.372461 0.2048 0.0527827
0.372974 0.204796 0.0525015
0.373388 0.204816 0.0521637
0.373813 0.204834 0.0518322
0.374178 0.204865 0.051466
0.374494 0.204908 0.0510726
0.374736 0.204967 0.0506361
0.374951 0.205034 0.0501853
0.375085 0.205119 0.0496872
0.3753 0.205185 0.0492355
0.375485 0.205258 0.0487673
0.375719 0.20532 0.0483268
0.375997 0.205371 0.0479113
0.376316 0.205413 0.0475187
0.376616 0.20546 0.047116
0.376921 0.205505 0.0467159
0.377226 0.20555 0.0463163
0.37753 0.205594 0.045911
0.377779 0.205651 0.0454699
0.37807 0.205698 0.0450546
0.387085 0.205807 0.0392745
0.387439 0.205839 0.0388973
0.387898 0.205849 0.0385834
0.388414 0.205845 0.038305
0.389056 0.205812 0.038102
0.389682 0.205785 0.0378905
0.390425 0.205731 0.0377491
0.391157 0.205678 0.0376017
0.391868 0.20563 0.0374412
0.392492 0.205604 0.0372281
0.39307 0.205585 0.0369864
0.393509 0.205599 0.0366606
0.393971 0.205607 0.0363487
0.394415 0.205621 0.0360266
0.394827 0.20564 0.0356843
0.395243 0.205659 0.0353445
0.395588 0.205694 0.0349614
0.395891 0.205738 0.0345531
0.396136 0.205794 0.0341096
0.396332 0.205863 0.0336358
0.396459 0.205947 0.0331205
0.396656 0.206014 0.0326477
0.396914 0.206068 0.032212
0.397234 0.206109 0.0318139
0.397614 0.206136 0.0314528
0.398046 0.206151 0.0311221
0.39846 0.206171 0.0307813
0.398983 0.206165 0.0305066
0.399534 0.206154 0.030249
0.400144 0.206129 0.0300275
0.400682 0.206121 0.0297615
0.401141 0.20613 0.0294482
0.401595 0.206141 0.0291318
0.402005 0.20616 0.0287884
0.402434 0.206177 0.0284561
0.402814 0.206203 0.0280948
0.403264 0.206214 0.0277758
0.403687 0.206232 0.02744
0.40415 0.20624 0.0271288
0.404579 0.206256 0.0267972
0.404997 0.206274 0.0264585
0.405455 0.206284 0.0261444
0.405907 0.206295 0.0258267
0.406438 0.206287 0.0255569
0.406923 0.206291 0.0252591
0.407398 0.206296 0.0249549
0.407789 0.206321 0.0246
0.408216 0.206337 0.0242673
0.408621 0.206359 0.023921
0.40897 0.206392 0.0235405
0.409251 0.206442 0.0231188
0.409507 0.206497 0.0226819
0.409672 0.206571 0.0221895
0.409786 0.206658 0.0216662
0.409873 0.206751 0.0211263
0.409906 0.206855 0.0205539
0.409897 0.206969 0.0199557
0.409884 0.207085 0.0193552
0.409798 0.207216 0.0187105
0.376433 0.221788 -0.0387806
0.376659 0.221851 -0.0392458
0.376899 0.221912 -0.0397009
0.377076 0.221987 -0.0401972
0.377186 0.222078 -0.0407367
0.377232 0.222184 -0.0413168
0.375983 0.222823 -0.0439481
0.376313 0.222862 -0.0443457
0.376866 0.22285 -0.0446005
0.377401 0.222842 -0.0448669
0.377899 0.222842 -0.0451564
0.378314 0.222861 -0.0455002
0.378753 0.222876 -0.0458278
0.379177 0.222894 -0.0461654
0.379546 0.222924 -0.0465379
0.379876 0.222964 -0.0469362
0.380204 0.223004 -0.0473352
0.380442 0.223065 -0.0477921
0.380611 0.223142 -0.0482932
0.378149 0.224537 -0.0541854
0.378433 0.224588 -0.0546198
0.278781 0.20554 0.106767
0.279417 0.205509 0.106557
0.280087 0.205469 0.106365
0.28463 0.204528 0.108385
0.285588 0.204421 0.108358
0.286419 0.204345 0.108258
0.28741 0.20423 0.10825
0.288888 0.204003 0.10852
0.290268 0.203798 0.108734
0.291306 0.203673 0.108752
0.292333 0.20355 0.108764
0.293164 0.203473 0.108665
0.293754 0.203452 0.108427
0.294329 0.203435 0.108182
0.295116 0.203368 0.108057
0.296012 0.203276 0.107994
0.296919 0.203181 0.107938
0.297627 0.203133 0.107768
0.298214 0.203113 0.107529
0.298818 0.203088 0.1073
0.299354 0.203079 0.107032
0.299866 0.203077 0.10675
0.30029 0.203095 0.106418
0.300684 0.20312 0.106069
0.301017 0.203158 0.105685
0.301457 0.203172 0.105362
0.302057 0.203149 0.10513
0.302762 0.203101 0.104959
0.303388 0.203071 0.104742
0.30396 0.203055 0.104494
0.304554 0.203033 0.104259
0.305089 0.203025 0.103991
0.305619 0.203018 0.103719
0.306108 0.203021 0.103424
0.306569 0.203029 0.103113
0.307011 0.203043 0.102791
0.307431 0.203062 0.102457
0.307841 0.203083 0.102117
0.308254 0.203103 0.101778
0.308634 0.203131 0.101422
0.308974 0.203168 0.101041
0.309374 0.203192 0.100696
0.309741 0.203222 0.100331
0.310059 0.203264 0.0999384
0.310373 0.203308 0.0995431
0.310664 0.203356 0.0991354
0.310967 0.203402 0.0987342
0.311285 0.203445 0.0983418
0.311624 0.203482 0.0979613
0.311943 0.203524 0.0975691
0.312319 0.203553 0.0972094
0.312725 0.203575 0.096867
0.313115 0.203601 0.0965156
0.31352 0.203623 0.0961725
0.313942 0.203641 0.0958394
0.31431 0.203672 0.0954753
0.314698 0.203698 0.0951229
0.315122 0.203715 0.0947905
0.315527 0.203737 0.094448
0.315927 0.203761 0.0941023
0.31637 0.203774 0.0937808
0.316784 0.203794 0.0934428
0.317204 0.203812 0.0931084
0.317627 0.203831 0.0927761
0.318045 0.203849 0.0924404
0.318528 0.203854 0.0921421
0.318906 0.203882 0.0917837
0.319451 0.203871 0.0915207
0.319922 0.203878 0.0912156
0.320421 0.203878 0.0909266
0.320913 0.20388 0.0906334
0.321376 0.203889 0.0903234
0.321903 0.203883 0.0900503
0.322409 0.203882 0.0897646
0.322855 0.203894 0.0894453
0.323354 0.203894 0.0891557
0.323853 0.203894 0.0888666
0.324297 0.203907 0.0885459
0.324774 0.203912 0.0882445
0.325227 0.203924 0.0879287
0.325721 0.203925 0.0876369
0.326174 0.203936 0.0873213
0.32665 0.203941 0.0870189
0.32713 0.203946 0.0867189
0.327637 0.203945 0.0864339
0.328081 0.203958 0.0861132
0.328577 0.203959 0.0858225
0.32904 0.203967 0.0855125
0.329508 0.203975 0.0852057
0.329974 0.203983 0.0848975
0.330461 0.203985 0.0846015
0.330913 0.203997 0.0842855
0.331342 0.204013 0.0839563
0.331763 0.204032 0.0836223
0.332219 0.204042 0.0833086
0.33265 0.204058 0.0829805
0.33304 0.204084 0.0826291
0.333433 0.204109 0.082279
0.333806 0.204138 0.0819181
0.334133 0.204178 0.0815305
0.334412 0.20423 0.0811159
0.334639 0.204293 0.0806713
0.334799 0.204372 0.0801884
0.334948 0.204455 0.079699
0.335208 0.20451 0.0792738
0.335479 0.204563 0.0788537
0.335724 0.204623 0.0784198
0.335952 0.204686 0.0779755
0.336189 0.204747 0.0775368
0.336428 0.204808 0.0770991
0.336614 0.204881 0.0766314
0.336777 0.204959 0.0761503
0.336958 0.205033 0.0756789
0.337105 0.205116 0.0751887
0.337181 0.205214 0.0746584
0.337204 0.205325 0.074097
0.33708 0.205471 0.0734519
0.337133 0.205574 0.0729079
0.337293 0.205653 0.0724253
0.337449 0.205734 0.0719399
0.337606 0.205814 0.0714558
0.337742 0.205898 0.0709593
0.337822 0.205996 0.0704304
0.33786 0.206103 0.0698781
0.337882 0.206215 0.0693166
0.337922 0.20632 0.0687537
0.337922 0.206431 0.0681607
0.337927 0.206543 0.0675713
0.337771 0.20669 0.066884
0.337754 0.206806 0.0662812
0.337864 0.206894 0.0657556
0.338002 0.206975 0.0652472
0.33803 0.207082 0.0646715
0.338053 0.207189 0.0640929
0.338019 0.207309 0.06348
0.337999 0.207426 0.0628751
0.33792 0.207556 0.0622352
0.337823 0.20769 0.0615835
0.337622 0.207848 0.0608686
0.33748 0.207991 0.0601901
0.337377 0.208127 0.0595352
0.337396 0.208236 0.0589538
0.33739 0.208349 0.0583575
0.337332 0.208474 0.0577301
0.337297 0.208594 0.0571163
0.337206 0.208728 0.0564684
0.3371 0.208863 0.0558119
0.336797 0.209044 0.0550348
0.336639 0.209192 0.0543463
0.3363 0.209381 0.053548
0.336099 0.209539 0.0528334
0.336 0.209672 0.052181
0.335801 0.20983 0.0514676
0.335678 0.20997 0.0508
0.335611 0.210097 0.0501669
0.334051 0.210785 0.0474415
0.333995 0.21091 0.0468148
0.333877 0.211048 0.0461511
0.333711 0.211198 0.0454577
0.333455 0.211368 0.0447095
0.332982 0.211587 0.0438297
0.332669 0.21177 0.0430472
0.332445 0.211933 0.0423182
0.33235 0.212067 0.041668
0.332217 0.212208 0.040995
0.332148 0.212336 0.0403601
0.331829 0.212521 0.0395742
0.368706 0.205907 0.0530404
0.369556 0.205825 0.0529521
0.370736 0.205666 0.0530514
0.371687 0.205562 0.0530204
0.37246 0.205498 0.0528877
0.373044 0.205479 0.052647
0.373448 0.205502 0.0523032
0.373901 0.205512 0.0519877
0.374275 0.205542 0.051627
0.374606 0.205581 0.0512423
0.374875 0.205635 0.0508215
0.375116 0.205695 0.0503848
0.375286 0.205772 0.0499078
0.375469 0.205845 0.0494382
0.375646 0.205921 0.048965
0.375857 0.205987 0.0485109
0.376157 0.206034 0.0481084
0.376467 0.206079 0.0477115
0.376769 0.206124 0.0473092
0.377048 0.206176 0.0468945
0.377316 0.20623 0.0464731
0.377566 0.206287 0.0460356
0.377754 0.206357 0.0455572
0.378047 0.206403 0.0451426
0.38747 0.206533 0.0390188
0.387834 0.206564 0.0386473
0.388304 0.20657 0.0383407
0.388871 0.206556 0.0380928
0.389498 0.206527 0.0378809
0.390167 0.206489 0.0376951
0.390921 0.206432 0.0375607
0.391629 0.206385 0.0373987
0.39234 0.206338 0.0372378
0.393024 0.206297 0.0370611
0.393495 0.206303 0.0367548
0.39401 0.2063 0.0364752
0.394488 0.206305 0.0361734
0.394918 0.20632 0.0358422
0.395363 0.206333 0.0355203
0.395767 0.206354 0.0351732
0.396105 0.20639 0.034786
0.396425 0.20643 0.034388
0.396688 0.206484 0.0339554
0.396836 0.206563 0.0334528
0.397002 0.206639 0.0329609
0.397225 0.2067 0.0325039
0.397474 0.206757 0.0320627
0.39783 0.206789 0.0316868
0.398213 0.206815 0.0313269
0.398569 0.206848 0.0309504
0.398995 0.206865 0.030617
0.399464 0.206871 0.0303092
0.400025 0.206858 0.0300578
0.400649 0.20683 0.0298442
0.401147 0.20683 0.0295548
0.401658 0.206828 0.0292728
0.402085 0.206844 0.0289397
0.402524 0.206858 0.0286142
0.402878 0.206891 0.0282368
0.403329 0.206902 0.0279181
0.403747 0.206921 0.0275793
0.404185 0.206934 0.0272534
0.404633 0.206946 0.0269327
0.405088 0.206956 0.0266167
0.405536 0.206968 0.0262968
0.405982 0.20698 0.0259753
0.406513 0.206973 0.0257053
0.407005 0.206975 0.0254116
0.407486 0.206979 0.0251116
0.407881 0.207003 0.024759
0.408318 0.207017 0.0244323
0.408738 0.207035 0.0240946
0.409068 0.207073 0.0237031
0.409354 0.207121 0.0232841
0.409615 0.207175 0.0228503
0.409785 0.207249 0.0223611
0.409916 0.207332 0.0218484
0.410003 0.207425 0.0213084
0.410008 0.207536 0.0207194
0.410023 0.207645 0.0201355
0.409994 0.207764 0.0195253
0.409887 0.2079 0.0188678
0.409764 0.20804 0.018201
0.37671 0.222584 -0.0391073
0.376899 0.222656 -0.0395955
0.377095 0.222727 -0.0400795
0.377237 0.22281 -0.0405979
0.375412 0.223585 -0.0435993
0.375914 0.223585 -0.0438864
0.37638 0.223593 -0.0441973
0.376976 0.22357 -0.0444237
0.377514 0.223561 -0.0446883
0.378053 0.223552 -0.0449522
0.378524 0.223559 -0.0452593
0.378957 0.223575 -0.0455909
0.379368 0.223595 -0.0459368
0.379737 0.223626 -0.0463096
0.380059 0.223667 -0.0467125
0.380388 0.223707 -0.0471111
0.380639 0.223765 -0.0475596
0.380843 0.223834 -0.0480384
0.381038 0.223905 -0.0485232
0.381151 0.223995 -0.0490598
0.378094 0.225181 -0.0534942
0.378373 0.225233 -0.0539313
0.37876 0.22526 -0.0542961
0.379106 0.225298 -0.0546889
0.278799 0.206242 0.106884
0.279486 0.206199 0.106702
0.280085 0.206177 0.10647
0.284254 0.20532 0.108276
0.285444 0.205159 0.108381
0.286313 0.205073 0.108303
0.287111 0.205004 0.108185
0.288349 0.204831 0.108317
0.289899 0.204587 0.108628
0.290997 0.204447 0.108681
0.292074 0.204313 0.108722
0.292989 0.204216 0.10867
0.293722 0.204161 0.108514
0.294252 0.204154 0.108243
0.29486 0.204129 0.108016
0.295554 0.204084 0.107838
0.296556 0.203966 0.107836
0.297442 0.203877 0.107768
0.298093 0.203841 0.107565
0.298711 0.203814 0.107344
0.299249 0.203804 0.107077
0.299819 0.203789 0.106828
0.300306 0.203791 0.106532
0.30073 0.20381 0.1062
0.30109 0.203842 0.105832
0.301463 0.203872 0.10547
0.30192 0.203882 0.105157
0.302624 0.203834 0.104985
0.303295 0.203795 0.104794
0.303856 0.20378 0.10454
0.304455 0.203757 0.104308
0.305014 0.203743 0.104053
0.305583 0.203727 0.103804
0.306092 0.203725 0.10352
0.306578 0.203728 0.103224
0.307045 0.203736 0.102916
0.307485 0.20375 0.102593
0.30793 0.203763 0.102273
0.308353 0.203781 0.10194
0.308764 0.203802 0.101601
0.309132 0.203833 0.101237
0.309548 0.203852 0.1009
0.309934 0.203878 0.100546
0.310291 0.203912 0.100176
0.310599 0.203957 0.0997777
0.31095 0.203992 0.099404
0.3113 0.204026 0.0990298
0.311645 0.204063 0.0986523
0.311998 0.204097 0.0982796
0.312345 0.204132 0.0979038
0.312748 0.204155 0.0975599
0.313133 0.204183 0.0972052
0.313553 0.204201 0.0968709
0.313931 0.204229 0.0965124
0.314289 0.204263 0.0961431
0.31469 0.204285 0.0957979
0.315091 0.204308 0.0954524
0.315503 0.204329 0.0951136
0.315887 0.204356 0.0947589
0.316299 0.204377 0.0944196
0.316736 0.204391 0.0940953
0.317163 0.204409 0.0937649
0.317561 0.204432 0.0934179
0.318055 0.204434 0.0931255
0.318483 0.204451 0.092796
0.318954 0.204457 0.0924909
0.319429 0.204463 0.0921878
0.319909 0.204467 0.0918876
0.320349 0.204481 0.0915646
0.320845 0.204482 0.0912736
0.321324 0.204488 0.0909732
0.32177 0.2045 0.0906535
0.322324 0.204488 0.0903957
0.322774 0.204499 0.0900782
0.323241 0.204507 0.089771
0.32374 0.204507 0.0894816
0.324177 0.204522 0.0891569
0.324647 0.204529 0.0888512
0.325084 0.204544 0.0885264
0.32557 0.204547 0.0882299
0.326003 0.204562 0.0879032
0.326469 0.20457 0.0875948
0.326909 0.204584 0.0872722
0.32737 0.204593 0.0869612
0.327865 0.204595 0.0866695
0.328295 0.204611 0.0863412
0.328742 0.204623 0.086022
0.329199 0.204634 0.0857087
0.329618 0.204652 0.0853738
0.330101 0.204656 0.0850752
0.330562 0.204665 0.0847645
0.330981 0.204684 0.0844297
0.331406 0.204701 0.0840979
0.331832 0.204719 0.0837674
0.332254 0.204737 0.083434
0.332656 0.20476 0.0830895
0.333009 0.204795 0.082717
0.333405 0.204818 0.082369
0.333742 0.204856 0.0819871
0.334038 0.204904 0.0815817
0.334301 0.204959 0.081158
0.334513 0.205027 0.0807045
0.334644 0.205113 0.0802055
0.334803 0.205192 0.0797217
0.335024 0.205257 0.0792742
0.335292 0.205311 0.0788528
0.335544 0.205369 0.0784227
0.335764 0.205434 0.077974
0.335992 0.205498 0.0775303
0.336215 0.205563 0.0770833
0.336378 0.205641 0.0766019
0.336562 0.205715 0.0761328
0.336727 0.205793 0.0756528
0.336862 0.205878 0.0751559
0.336895 0.205988 0.0746006
0.336851 0.206114 0.0740015
0.336777 0.206248 0.073385
0.336935 0.206328 0.0729013
0.337146 0.206395 0.0724474
0.337277 0.206482 0.0719478
0.337379 0.206574 0.0714321
0.337478 0.206668 0.0709141
0.337538 0.20677 0.0703743
0.337562 0.206882 0.069814
0.337578 0.206992 0.0692396
0.337596 0.207101 0.068658
0.337558 0.207222 0.0680425
0.337421 0.207366 0.067367
0.337381 0.207487 0.0667502
0.337517 0.207569 0.0662403
0.337615 0.20766 0.0657074
0.337678 0.207758 0.0651531
0.337693 0.207868 0.0645701
0.337676 0.207984 0.0639675
0.337629 0.208107 0.0633464
0.337556 0.208236 0.0627091
0.337461 0.208371 0.0620595
0.337268 0.208527 0.0613495
0.337099 0.208677 0.0606541
0.336995 0.208813 0.0599985
0.33698 0.20893 0.0593974
0.337053 0.209025 0.0588493
0.337014 0.209147 0.0582328
0.336898 0.209286 0.0575702
0.336732 0.209436 0.0568765
0.336611 0.209575 0.056211
0.336423 0.209731 0.055504
0.336144 0.209906 0.0547422
0.33595 0.210063 0.0540319
0.33577 0.210216 0.0533303
0.335583 0.210371 0.052624
0.335528 0.210495 0.051998
0.335371 0.210644 0.0513101
0.333556 0.211391 0.0484303
0.333703 0.21147 0.0479273
0.333591 0.211608 0.047267
0.333359 0.211773 0.0465335
0.333268 0.211906 0.0458852
0.332888 0.212104 0.0450625
0.332467 0.212312 0.0442141
0.332279 0.212467 0.0435072
0.332098 0.21262 0.0428048
0.331931 0.21277 0.0421111
0.331906 0.212889 0.0415033
0.32751 0.215118 0.0323157
0.327433 0.215249 0.0316764
0.368488 0.206665 0.0530218
0.369557 0.206533 0.0530586
0.370662 0.206391 0.0531154
0.371614 0.206286 0.0530843
0.372425 0.206213 0.0529733
0.373047 0.206185 0.0527542
0.373501 0.206196 0.0524397
0.373962 0.206205 0.0521286
0.374362 0.206228 0.0517826
0.374722 0.206261 0.0514142
0.375004 0.206312 0.0510014
0.375276 0.206365 0.0505823
0.375471 0.206436 0.0501192
0.375659 0.206509 0.0496524
0.375825 0.206587 0.0491729
0.376042 0.206653 0.0487228
0.376308 0.206708 0.0483005
0.376604 0.206755 0.0478954
0.376904 0.206802 0.0474928
0.377173 0.206855 0.047072
0.377395 0.20692 0.0466245
0.377581 0.206991 0.0461474
0.377774 0.20706 0.045672
0.387846 0.20727 0.0387574
0.38825 0.207291 0.0384107
0.388721 0.207298 0.0381047
0.389363 0.207266 0.037902
0.389967 0.207243 0.0376763
0.390639 0.207204 0.037492
0.39134 0.207159 0.0373258
0.392072 0.207106 0.037178
0.392845 0.207045 0.0370549
0.393472 0.207016 0.0368438
0.394029 0.207003 0.0365899
0.394516 0.207006 0.036293
0.394955 0.20702 0.0359672
0.395431 0.207025 0.0356639
0.39585 0.207043 0.0353265
0.396255 0.207065 0.0349797
0.396637 0.207091 0.0346197
0.39695 0.207134 0.0342174
0.39723 0.207183 0.0337949
0.397457 0.207244 0.0333401
0.397602 0.207324 0.0328361
0.397804 0.207392 0.032366
0.398083 0.207441 0.0319432
0.398401 0.207483 0.0315441
0.398714 0.207525 0.0311419
0.399102 0.20755 0.0307847
0.399507 0.207572 0.0304387
0.399958 0.207582 0.0301203
0.400542 0.207563 0.0298827
0.401104 0.207549 0.0296316
0.401693 0.20753 0.0293972
0.402157 0.207538 0.0290863
0.402597 0.207551 0.0287614
0.402953 0.207583 0.028385
0.403369 0.207602 0.0280454
0.403797 0.207619 0.0277131
0.404217 0.207637 0.0273756
0.404694 0.207642 0.0270733
0.405186 0.207643 0.0267796
0.40562 0.207658 0.0264506
0.40609 0.207665 0.0261441
0.40662 0.207658 0.0258733
0.407072 0.20767 0.0255554
0.407544 0.207676 0.0252501
0.407962 0.207695 0.0249113
0.408398 0.207709 0.024584
0.408803 0.20773 0.0242374
0.409115 0.207772 0.0238347
0.409407 0.207819 0.0234197
0.409662 0.207874 0.0229817
0.409848 0.207945 0.0225023
0.409997 0.208024 0.0220003
0.410076 0.208119 0.0214559
0.410091 0.208228 0.0208729
0.410106 0.208338 0.0202893
0.410089 0.208454 0.0196866
0.409978 0.208592 0.0190269
0.409886 0.208725 0.0183786
0.376842 0.223422 -0.0395262
0.376971 0.223509 -0.040053
0.375 0.224437 -0.0437573
0.375764 0.224376 -0.043876
0.376315 0.224364 -0.0441322
0.376965 0.224329 -0.0443248
0.377509 0.224318 -0.0445851
0.378072 0.224303 -0.0448332
0.37861 0.224295 -0.0450974
0.379043 0.224311 -0.0454293
0.379495 0.224322 -0.0457487
0.379862 0.224352 -0.0461227
0.380175 0.224396 -0.0465317
0.380503 0.224436 -0.0469307
0.380788 0.224487 -0.0473573
0.380963 0.224562 -0.047855
0.381191 0.224626 -0.0483183
0.381308 0.224716 -0.0488526
0.378676 0.225922 -0.0536233
0.378955 0.225974 -0.0540611
0.379238 0.226027 -0.0544958
0.379434 0.2261 -0.0549892
0.379497 0.226205 -0.0555727
0.279522 0.206898 0.106828
0.280102 0.206879 0.106585
0.280743 0.206846 0.106377
0.28525 0.205909 0.108376
0.28617 0.20581 0.108327
0.286968 0.205741 0.108208
0.287896 0.205641 0.108164
0.289109 0.205475 0.108283
0.290608 0.20524 0.108565
0.291712 0.205099 0.108621
0.292717 0.204981 0.10862
0.293593 0.204893 0.108546
0.294204 0.204867 0.108321
0.294769 0.204853 0.108069
0.295331 0.204837 0.107816
0.296072 0.204781 0.107665
0.297096 0.204659 0.107675
0.29786 0.204597 0.107538
0.298535 0.204556 0.107348
0.299126 0.204534 0.107112
0.299689 0.20452 0.106859
0.300216 0.204514 0.106586
0.300708 0.204516 0.106293
0.301152 0.204529 0.105972
0.301521 0.20456 0.105608
0.301889 0.20459 0.105245
0.30239 0.20459 0.104956
0.303093 0.204542 0.104784
0.30371 0.204515 0.104562
0.304306 0.204493 0.104328
0.304897 0.204472 0.104091
0.305498 0.204448 0.10386
0.306023 0.204442 0.103586
0.306525 0.204442 0.103298
0.307054 0.204435 0.103026
0.307505 0.204446 0.10271
0.307959 0.204457 0.102395
0.308411 0.204468 0.102078
0.308838 0.204485 0.101748
0.309257 0.204504 0.101413
0.309662 0.204526 0.10107
0.310046 0.204554 0.100715
0.310442 0.204577 0.100367
0.310783 0.204614 0.0999882
0.311161 0.204644 0.0996297
0.311537 0.204673 0.0992701
0.311937 0.204696 0.0989242
0.3123 0.204728 0.0985575
0.31267 0.204758 0.0981946
0.313111 0.204772 0.0978721
0.313491 0.204801 0.0975152
0.313931 0.204815 0.0971919
0.314291 0.204847 0.0968237
0.314696 0.204869 0.0964807
0.315107 0.204889 0.0961413
0.315537 0.204906 0.0958123
0.315941 0.204929 0.0954692
0.316275 0.204968 0.0950855
0.316726 0.204979 0.0947691
0.317175 0.204991 0.0944513
0.317587 0.205012 0.0941121
0.318032 0.205024 0.0937921
0.318508 0.20503 0.0934901
0.318941 0.205045 0.0931628
0.319406 0.205054 0.0928541
0.319861 0.205065 0.0925398
0.320304 0.205078 0.0922186
0.320777 0.205084 0.0919144
0.321276 0.205084 0.0916251
0.321726 0.205096 0.0913078
0.322155 0.205112 0.0909787
0.322677 0.205107 0.0907029
0.323117 0.205121 0.0903797
0.323579 0.20513 0.0900697
0.324044 0.205139 0.0897606
0.324494 0.20515 0.0894435
0.324939 0.205164 0.0891235
0.32539 0.205175 0.0888068
0.325851 0.205184 0.0884958
0.326247 0.205209 0.0881478
0.326689 0.205222 0.0878262
0.327129 0.205236 0.0875033
0.327542 0.205256 0.0871648
0.327989 0.205268 0.0868457
0.32845 0.205277 0.0865347
0.328881 0.205294 0.086207
0.329343 0.205303 0.0858964
0.329741 0.205327 0.0855497
0.330196 0.205337 0.0852353
0.33063 0.205352 0.0849089
0.331019 0.205379 0.084557
0.331457 0.205393 0.0842326
0.331854 0.205416 0.083885
0.332217 0.205449 0.0835183
0.332622 0.205471 0.0831751
0.332956 0.20551 0.0827923
0.333304 0.205545 0.0824166
0.333603 0.205593 0.0820132
0.333881 0.205645 0.0815975
0.334124 0.205705 0.081162
0.334335 0.205772 0.0807088
0.334454 0.205862 0.0802022
0.334596 0.205945 0.0797094
0.334768 0.206021 0.0792336
0.335067 0.206069 0.07883
0.335351 0.206119 0.0784178
0.335565 0.206186 0.077966
0.33574 0.206262 0.0774919
0.335958 0.206328 0.0770423
0.336153 0.206399 0.0765795
0.336295 0.206483 0.0760862
0.336411 0.206573 0.0755785
0.336498 0.20667 0.0750538
0.336449 0.206797 0.0744515
0.336395 0.206927 0.0738471
0.336504 0.207019 0.0733349
0.336695 0.207091 0.0728698
0.336915 0.207156 0.0724215
0.33702 0.207249 0.0719075
0.337093 0.207348 0.0713745
0.337141 0.207454 0.0708277
0.337181 0.207562 0.0702769
0.337203 0.207672 0.0697069
0.337237 0.207777 0.0691355
0.337211 0.207896 0.0685274
0.337 0.208056 0.0678065
0.336962 0.208178 0.0671913
0.337083 0.208264 0.0666722
0.337243 0.208341 0.0661769
0.337341 0.208432 0.0656439
0.337322 0.208548 0.0650402
0.337279 0.208671 0.0644214
0.337248 0.208791 0.0638101
0.337174 0.208921 0.0631731
0.337076 0.209056 0.062521
0.336748 0.209243 0.0617298
0.336592 0.209391 0.061042
0.336508 0.209523 0.0603989
0.33653 0.209631 0.0598197
0.336467 0.209758 0.0591889
0.336389 0.209889 0.0585494
0.336376 0.210005 0.0579493
0.336265 0.210143 0.0572891
0.336209 0.210268 0.0566626
0.336022 0.210423 0.0559571
0.335772 0.210592 0.0552128
0.335568 0.210752 0.0544964
0.335428 0.210897 0.0538188
0.335315 0.211035 0.0531581
0.335194 0.211175 0.0524918
0.333505 0.211783 0.0502809
0.333356 0.211929 0.049598
0.333126 0.212094 0.0488658
0.333158 0.2122 0.048293
0.333174 0.212309 0.0477104
0.333131 0.212432 0.0470923
0.332638 0.212656 0.0462003
0.332329 0.212839 0.0454198
0.332024 0.213021 0.0446423
0.331924 0.213157 0.0439892
0.331775 0.213303 0.0433063
0.331689 0.213435 0.0426613
0.331381 0.213618 0.0418819
0.327287 0.215672 0.033471
0.327225 0.215798 0.0328414
0.327237 0.215909 0.032256
0.327121 0.216048 0.0315933
0.357984 0.209642 0.047379
0.35866 0.209601 0.0471973
0.369599 0.20723 0.0531881
0.370516 0.207132 0.0531379
0.371535 0.207012 0.0531454
0.372335 0.206941 0.0530279
0.373071 0.206886 0.0528743
0.373565 0.206887 0.0525817
0.374034 0.206894 0.0522754
0.374447 0.206916 0.0519371
0.374829 0.206943 0.0515811
0.375135 0.206988 0.0511818
0.375453 0.207031 0.050789
0.375662 0.207099 0.0503346
0.375868 0.207168 0.0498781
0.376044 0.207243 0.0494039
0.376247 0.207313 0.0489456
0.376478 0.207376 0.0485037
0.376761 0.207427 0.048091
0.377041 0.207478 0.047677
0.377277 0.20754 0.0472375
0.377462 0.207614 0.046769
0.377575 0.207701 0.0462468
0.388269 0.207996 0.0385249
0.388663 0.20802 0.038172
0.389227 0.208005 0.0379221
0.389824 0.207984 0.0376925
0.390432 0.207959 0.0374696
0.3911 0.207921 0.0372829
0.391854 0.207864 0.0371484
0.392545 0.207821 0.0369755
0.393325 0.207757 0.0368569
0.39398 0.207722 0.0366629
0.394517 0.207714 0.0363964
0.395005 0.207717 0.0361003
0.395474 0.207724 0.035793
0.395914 0.207737 0.0354679
0.396339 0.207754 0.0351337
0.396776 0.207769 0.0348065
0.397155 0.207796 0.0344445
0.397508 0.207829 0.0340663
0.397805 0.207874 0.0336547
0.398005 0.207942 0.0331836
0.398189 0.208014 0.032703
0.398383 0.208083 0.0322284
0.398643 0.208137 0.0317941
0.398931 0.208185 0.0313767
0.399297 0.208216 0.0310064
0.399642 0.208251 0.0306237
0.400023 0.208277 0.0302628
0.400482 0.208286 0.0299493
0.401016 0.208279 0.0296814
0.401647 0.208249 0.0294721
0.402166 0.208245 0.029195
0.402653 0.208248 0.028898
0.40303 0.208276 0.0285346
0.403434 0.208298 0.028188
0.403898 0.208306 0.0278773
0.40435 0.208317 0.0275595
0.404818 0.208323 0.0272512
0.405289 0.20833 0.0269451
0.40574 0.208342 0.0266266
0.406235 0.208342 0.0263349
0.406725 0.208345 0.02604
0.407183 0.208354 0.0257257
0.407635 0.208365 0.0254083
0.408038 0.208387 0.0250607
0.408476 0.208401 0.0247342
0.408847 0.20843 0.0243673
0.409156 0.208473 0.0239627
0.409444 0.208521 0.0235448
0.409662 0.208585 0.023085
0.409871 0.208651 0.0226195
0.410027 0.208728 0.0221217
0.410118 0.20882 0.0215851
0.410149 0.208927 0.0210112
0.410129 0.209044 0.0204066
0.410139 0.209155 0.0198205
0.410038 0.209291 0.019167
0.409904 0.209433 0.0184927
0.409822 0.209565 0.0178508
0.374907 0.225215 -0.0437102
0.375495 0.225195 -0.0439425
0.376198 0.225148 -0.0441009
0.376858 0.225109 -0.0442866
0.377483 0.22508 -0.0444952
0.378017 0.225073 -0.0447618
0.378596 0.225054 -0.0450003
0.379018 0.225072 -0.0453387
0.379485 0.22508 -0.0456483
0.379898 0.2251 -0.0459928
0.380223 0.225142 -0.0463944
0.380571 0.225177 -0.0467802
0.380855 0.225228 -0.0472079
0.381079 0.225293 -0.0476738
0.381297 0.225359 -0.0481431
0.381425 0.225446 -0.0486709
0.381509 0.225544 -0.0492266
0.37898 0.22661 -0.0533142
0.379093 0.226703 -0.0538637
0.379335 0.226766 -0.0543266
0.379556 0.226832 -0.0548028
0.37972 0.226913 -0.0553181
0.27956 0.207596 0.106956
0.28009 0.207589 0.106685
0.28069 0.207565 0.106453
0.284923 0.20669 0.108295
0.285974 0.206561 0.108321
0.286806 0.206484 0.108222
0.287602 0.206414 0.108102
0.288568 0.206304 0.108079
0.290006 0.206085 0.108326
0.291191 0.205924 0.108428
0.292381 0.205762 0.108534
0.293322 0.205659 0.108497
0.294117 0.205589 0.108376
0.294706 0.205569 0.108139
0.295186 0.205574 0.107838
0.295751 0.205559 0.107587
0.29657 0.205483 0.10748
0.297519 0.205378 0.107448
0.298288 0.205315 0.107313
0.298926 0.205283 0.107103
0.299539 0.205256 0.106879
0.300071 0.205248 0.106609
0.3006 0.205242 0.106336
0.301125 0.205236 0.106062
0.301531 0.205258 0.10572
0.301875 0.205294 0.105342
0.302257 0.205323 0.104986
0.302882 0.205294 0.104768
0.303594 0.205243 0.104601
0.304159 0.205228 0.104349
0.304746 0.205208 0.10411
0.305368 0.20518 0.103891
0.305902 0.205172 0.103622
0.306439 0.205163 0.103354
0.307012 0.205145 0.103107
0.30749 0.20515 0.102806
0.307955 0.205159 0.102498
0.308404 0.205171 0.10218
0.308866 0.20518 0.101869
0.309294 0.205196 0.10154
0.309738 0.20521 0.101219
0.310137 0.205233 0.100872
0.310543 0.205256 0.10053
0.310931 0.205282 0.100178
0.31132 0.205308 0.0998256
0.311722 0.205331 0.0994812
0.312133 0.205352 0.0991413
0.312525 0.205377 0.0987914
0.312939 0.205397 0.0984538
0.313345 0.205419 0.0981114
0.313734 0.205445 0.0977594
0.314198 0.205453 0.0974499
0.314581 0.205481 0.0970943
0.314998 0.2055 0.0967582
0.315418 0.205519 0.096424
0.315843 0.205536 0.0960926
0.316258 0.205557 0.0957553
0.316643 0.205583 0.095401
0.317115 0.20559 0.0950963
0.317534 0.205609 0.0947615
0.317965 0.205626 0.0944335
0.318422 0.205635 0.0941201
0.318866 0.205649 0.0937995
0.319315 0.20566 0.093482
0.319761 0.205673 0.0931622
0.320219 0.205683 0.0928495
0.320644 0.205701 0.092518
0.32113 0.205704 0.0922213
0.321574 0.205717 0.0919008
0.322042 0.205725 0.0915937
0.322461 0.205743 0.091259
0.322951 0.205746 0.0909642
0.32339 0.20576 0.0906411
0.323854 0.205769 0.0903318
0.324295 0.205782 0.0900093
0.324716 0.205801 0.0896756
0.325136 0.20582 0.0893414
0.325574 0.205834 0.0890175
0.326044 0.205841 0.0887116
0.326448 0.205863 0.0883682
0.326868 0.205883 0.0880338
0.327293 0.205901 0.0877023
0.327691 0.205924 0.0873555
0.328113 0.205942 0.0870221
0.328583 0.205949 0.0867164
0.329013 0.205966 0.0863878
0.329417 0.205988 0.0860439
0.329815 0.206013 0.0856971
0.330258 0.206025 0.0853762
0.33068 0.206044 0.0850426
0.331049 0.206075 0.0846796
0.331455 0.206097 0.0843371
0.331819 0.206128 0.0839707
0.332171 0.206163 0.0835977
0.332516 0.206199 0.0832203
0.332839 0.206241 0.0828308
0.333145 0.206287 0.0824312
0.333424 0.206339 0.0820163
0.333688 0.206393 0.0815932
0.333892 0.206463 0.0811351
0.334023 0.20655 0.080636
0.334143 0.206638 0.0801306
0.334345 0.206709 0.0796715
0.334584 0.20677 0.0792343
0.334873 0.206819 0.0788247
0.335155 0.206871 0.078412
0.335336 0.206945 0.0779411
0.335499 0.207024 0.0774601
0.335689 0.207097 0.0769946
0.335841 0.207178 0.0765073
0.335985 0.207262 0.0760153
0.336043 0.207365 0.0754739
0.336001 0.207492 0.074876
0.335929 0.207627 0.0742606
0.336052 0.207715 0.0737569
0.336255 0.207784 0.0732987
0.336466 0.207852 0.0728449
0.33657 0.207945 0.0723302
0.336695 0.208033 0.0718277
0.336782 0.208129 0.0713034
0.336824 0.208237 0.070753
0.336808 0.208356 0.0701625
0.33682 0.208467 0.069577
0.336784 0.208588 0.0689631
0.336619 0.208739 0.0682706
0.336576 0.208862 0.0676522
0.336676 0.208953 0.0671202
0.336802 0.209037 0.0666042
0.336902 0.209128 0.0660728
0.336896 0.209243 0.0654767
0.336872 0.209361 0.0648697
0.336825 0.209485 0.0642492
0.336702 0.209626 0.0635822
0.336626 0.209757 0.0629436
0.336225 0.20996 0.0621073
0.335972 0.210131 0.0613615
0.336002 0.210237 0.0607874
0.335965 0.210359 0.0601725
0.335792 0.210512 0.0594752
0.33576 0.210632 0.0588636
0.3357 0.210758 0.0582346
0.335615 0.210891 0.0575905
0.335557 0.211018 0.0569629
0.335495 0.211145 0.0563328
0.33533 0.211296 0.0556402
0.335135 0.211453 0.0549295
0.335062 0.211582 0.0542929
0.33489 0.211735 0.0535961
0.333398 0.212413 0.0509129
0.333241 0.212561 0.0502255
0.333048 0.212717 0.0495155
0.332908 0.212863 0.0488383
0.332701 0.213023 0.0481199
0.332568 0.213167 0.047447
0.332398 0.213318 0.0467513
0.332044 0.213511 0.0459439
0.331798 0.213681 0.0452026
0.331671 0.213822 0.0445329
0.331602 0.213951 0.0438989
0.330411 0.214447 0.0419904
0.330331 0.214579 0.0413497
0.326744 0.216523 0.0332477
0.326817 0.21662 0.0326996
0.326683 0.216763 0.0320259
0.357839 0.210275 0.047987
0.358561 0.210224 0.047833
0.359343 0.21016 0.0477154
0.360173 0.210086 0.0476275
0.370385 0.207871 0.0531689
0.371369 0.207757 0.0531562
0.372188 0.207683 0.0530498
0.373062 0.207595 0.0529748
0.373636 0.207578 0.0527281
0.374102 0.207586 0.0524203
0.374541 0.2076 0.052097
0.374936 0.207625 0.0517481
0.375273 0.207663 0.0513661
0.37562 0.207699 0.0509906
0.375879 0.207755 0.0505643
0.376117 0.207817 0.0501261
0.376294 0.207893 0.049653
0.376499 0.207962 0.0491961
0.376685 0.208035 0.048728
0.376951 0.208091 0.0483056
0.377189 0.208151 0.0478672
0.37741 0.208217 0.0474197
0.377575 0.208296 0.0469397
0.377739 0.208372 0.046449
0.38836 0.208684 0.0386835
0.388654 0.208731 0.0382695
0.389148 0.208732 0.0379773
0.389758 0.208707 0.0377555
0.390316 0.208694 0.0375019
0.390936 0.208667 0.0372858
0.391642 0.20862 0.0371228
0.392267 0.208592 0.0369097
0.393075 0.208523 0.0368085
0.393838 0.208463 0.0366789
0.394452 0.208437 0.03646
0.395028 0.20842 0.0362172
0.395502 0.208426 0.0359131
0.396001 0.208426 0.0356234
0.396423 0.208444 0.0352875
0.396858 0.208458 0.0349595
0.39729 0.208474 0.0346293
0.397687 0.208497 0.0342781
0.398044 0.208529 0.0339025
0.398295 0.208586 0.0334625
0.398553 0.20864 0.033027
0.398729 0.208714 0.0325412
0.398961 0.208775 0.0320901
0.399215 0.20883 0.0316519
0.399528 0.208872 0.0312497
0.399857 0.208911 0.0308569
0.400197 0.208948 0.0304716
0.400556 0.208979 0.0300971
0.40102 0.208987 0.0297863
0.40158 0.208974 0.029534
0.402137 0.208961 0.02928
0.402656 0.208957 0.0290033
0.403106 0.208969 0.0286843
0.403554 0.20898 0.0283637
0.404046 0.208982 0.0280703
0.404511 0.20899 0.0277604
0.404967 0.209 0.0274448
0.405427 0.209009 0.0271322
0.405884 0.209018 0.026817
0.406382 0.209019 0.0265274
0.406838 0.209029 0.0262118
0.407289 0.20904 0.0258937
0.407718 0.209056 0.0255614
0.408106 0.209081 0.0252048
0.408525 0.209099 0.0248673
0.408875 0.209134 0.0244871
0.409176 0.209179 0.0240776
0.409455 0.209229 0.0236551
0.409678 0.209292 0.0231977
0.409861 0.209364 0.0227165
0.410004 0.209444 0.0222112
0.410069 0.209543 0.0216583
0.410143 0.209639 0.0211112
0.41012 0.209757 0.0205047
0.41015 0.209864 0.0199303
0.410035 0.210004 0.0192686
0.409905 0.210146 0.0185969
0.409712 0.210303 0.0178875
0.40956 0.210451 0.0172027
0.375272 0.226004 -0.0439792
0.375953 0.225961 -0.0441514
0.376645 0.225916 -0.0443172
0.377374 0.225863 -0.0444587
0.377941 0.225847 -0.0447044
0.378548 0.225822 -0.0449241
0.378955 0.225843 -0.0452727
0.379418 0.225853 -0.0455851
0.379861 0.225865 -0.0459103
0.380234 0.225895 -0.0462802
0.380611 0.225924 -0.0466484
0.380901 0.225974 -0.0470718
0.381152 0.226032 -0.04752
0.381355 0.226102 -0.0479997
0.381513 0.226183 -0.0485075
0.381576 0.226285 -0.0490771
0.379026 0.22736 -0.0531796
0.379218 0.227435 -0.0536759
0.379458 0.227498 -0.0541395
0.379675 0.227565 -0.0546187
0.379872 0.227639 -0.0551116
0.380025 0.227723 -0.0556337
0.28007 0.208301 0.106779
0.280654 0.20828 0.106538
0.281173 0.208276 0.10626
0.285619 0.207349 0.108224
0.286639 0.207227 0.108232
0.287412 0.207163 0.108099
0.288191 0.207097 0.10797
0.289192 0.206979 0.107967
0.290689 0.206745 0.108248
0.291867 0.206585 0.108346
0.292857 0.20647 0.108337
0.293832 0.206359 0.108319
0.294581 0.2063 0.108173
0.295078 0.206301 0.107882
0.295601 0.206296 0.107607
0.296178 0.206277 0.107362
0.297092 0.20618 0.10731
0.29801 0.206082 0.10726
0.298675 0.206043 0.107065
0.299316 0.20601 0.106857
0.299867 0.205998 0.106597
0.300419 0.205986 0.106338
0.300997 0.205967 0.106094
0.301448 0.20598 0.105777
0.301861 0.205999 0.105439
0.302201 0.206037 0.105059
0.302695 0.206039 0.104767
0.303404 0.205989 0.104598
0.304011 0.205965 0.10437
0.304588 0.205946 0.104125
0.305197 0.20592 0.103899
0.305742 0.20591 0.103636
0.306314 0.205893 0.103388
0.306905 0.205872 0.103152
0.307419 0.205868 0.102871
0.30789 0.205875 0.102566
0.308337 0.205888 0.102247
0.308835 0.205888 0.101957
0.309281 0.205901 0.101638
0.309771 0.205903 0.101343
0.310206 0.205919 0.101017
0.310615 0.20594 0.100677
0.311033 0.205959 0.100341
0.311413 0.205988 0.0999839
0.311817 0.20601 0.0996405
0.312228 0.206031 0.0993012
0.312662 0.206046 0.0989745
0.313095 0.206062 0.0986476
0.313478 0.206089 0.0982925
0.313907 0.206106 0.0979628
0.314351 0.20612 0.0976428
0.314766 0.206139 0.0973054
0.315196 0.206156 0.0969766
0.31563 0.206171 0.0966505
0.316049 0.20619 0.0963155
0.316448 0.206214 0.0959693
0.316898 0.206226 0.0956517
0.317355 0.206237 0.0953385
0.317764 0.206258 0.0949982
0.318188 0.206275 0.0946661
0.318684 0.206276 0.0943747
0.319107 0.206294 0.0940421
0.319564 0.206305 0.0937295
0.319988 0.206322 0.0933973
0.320449 0.206331 0.0930861
0.320858 0.206352 0.0927456
0.321371 0.20635 0.0924646
0.321772 0.206373 0.0921189
0.322249 0.206378 0.0918174
0.322667 0.206398 0.0914817
0.323132 0.206406 0.0911735
0.323544 0.206427 0.0908345
0.324038 0.206428 0.0905422
0.324443 0.206451 0.0901991
0.324849 0.206472 0.0898572
0.325276 0.20649 0.0895265
0.325686 0.206511 0.0891866
0.326162 0.206516 0.0888843
0.326552 0.206542 0.088533
0.32697 0.206561 0.0881974
0.327391 0.20658 0.0878635
0.327798 0.206602 0.0875215
0.328195 0.206626 0.0871743
0.328642 0.206639 0.0868552
0.329095 0.206649 0.0865401
0.329447 0.206685 0.0861668
0.329857 0.206705 0.0858269
0.33024 0.206733 0.0854712
0.330668 0.20675 0.0851412
0.331027 0.206783 0.0847721
0.331385 0.206817 0.0844029
0.33171 0.206857 0.0840138
0.332058 0.206894 0.0836386
0.332368 0.206938 0.0832412
0.332671 0.206984 0.0828402
0.332922 0.207042 0.0824097
0.333186 0.207098 0.0819861
0.333457 0.207152 0.0815668
0.333543 0.20725 0.0810416
0.333657 0.20734 0.0805326
0.333844 0.207413 0.0800654
0.334108 0.207469 0.0796419
0.334403 0.207517 0.0792361
0.334647 0.207577 0.0788018
0.33487 0.207643 0.0783546
0.335024 0.207723 0.0778688
0.335202 0.2078 0.0773963
0.335393 0.207872 0.0769312
0.335473 0.20797 0.0764026
0.335457 0.208092 0.0758195
0.335333 0.208239 0.0751746
0.335403 0.20834 0.0746407
0.33558 0.208416 0.0741675
0.335771 0.208488 0.0737028
0.336022 0.208547 0.0732718
0.336141 0.208636 0.0727657
0.336231 0.208733 0.0722427
0.336349 0.208822 0.0717359
0.336416 0.208924 0.0712002
0.336415 0.20904 0.070619
0.336329 0.209173 0.069974
0.336249 0.209305 0.0693333
0.336108 0.209451 0.0686557
0.336137 0.209558 0.0680807
0.336175 0.209662 0.0675116
0.336257 0.209757 0.0669687
0.33635 0.20985 0.0664328
0.336245 0.209987 0.0657771
0.336249 0.210099 0.0651871
0.336076 0.210252 0.0644899
0.335966 0.210391 0.0638307
0.335712 0.210562 0.0630842
0.335535 0.210716 0.0623844
0.335432 0.210853 0.0617295
0.335298 0.210997 0.0610556
0.335144 0.211145 0.0603699
0.335116 0.211265 0.0597609
0.335091 0.211384 0.0591533
0.335079 0.2115 0.0585537
0.335011 0.211629 0.0579202
0.335015 0.211742 0.0573299
0.334897 0.211882 0.0566662
0.33465 0.212052 0.0559236
0.3345 0.2122 0.0552407
0.334456 0.212323 0.0546212
0.334075 0.212523 0.053798
0.333661 0.212731 0.0529542
0.333151 0.21296 0.052052
0.332969 0.213114 0.051349
0.33306 0.213207 0.0508118
0.332991 0.213336 0.0501779
0.33263 0.213532 0.0493663
0.332377 0.213702 0.0486203
0.332267 0.213841 0.0479612
0.332121 0.213988 0.0472803
0.35683 0.208592 0.0610377
0.357026 0.208663 0.0605757
0.357226 0.208734 0.0601159
0.357719 0.208736 0.0598227
0.329903 0.215286 0.0417872
0.329855 0.215411 0.0411657
0.326274 0.217359 0.0330684
0.358401 0.21086 0.0484319
0.359182 0.210796 0.0483138
0.3599 0.210747 0.0481572
0.360615 0.210698 0.0479992
0.370271 0.208605 0.0532098
0.371176 0.208511 0.0531524
0.371992 0.208436 0.0530442
0.372927 0.208334 0.0530033
0.37363 0.208287 0.0528306
0.37414 0.208284 0.052548
0.374613 0.20829 0.0522436
0.375028 0.208311 0.0519067
0.375407 0.208339 0.051549
0.375778 0.208369 0.0511865
0.376086 0.208414 0.0507883
0.376352 0.208469 0.050366
0.376564 0.208536 0.049913
0.376765 0.208607 0.0494537
0.376915 0.20869 0.0489654
0.377157 0.20875 0.0485294
0.377375 0.208816 0.0480797
0.377598 0.208881 0.047633
0.377747 0.208964 0.047144
0.365894 0.214381 0.0257359
0.388343 0.209397 0.0387759
0.388685 0.209433 0.0383909
0.389126 0.209446 0.0380665
0.389721 0.209425 0.0378359
0.390267 0.209415 0.0375748
0.390822 0.209402 0.0373196
0.391459 0.209371 0.0371141
0.392134 0.209331 0.0369318
0.392841 0.209284 0.036769
0.393575 0.209231 0.0366224
0.394303 0.20918 0.0364721
0.394965 0.209142 0.0362818
0.395499 0.209135 0.036014
0.396042 0.209125 0.0357512
0.396497 0.209135 0.0354354
0.396927 0.209151 0.0351038
0.39737 0.209164 0.0347808
0.397818 0.209175 0.0344607
0.398213 0.2092 0.0341079
0.39855 0.209237 0.0337201
0.398862 0.209279 0.0333176
0.399091 0.209341 0.0328643
0.399288 0.20941 0.0323918
0.399524 0.20947 0.0319429
0.39978 0.209525 0.0315056
0.400068 0.209574 0.0310884
0.400397 0.209612 0.0306959
0.400718 0.209652 0.0302987
0.401161 0.209666 0.029975
0.401591 0.209681 0.0296442
0.402082 0.209684 0.0293497
0.402584 0.209683 0.0290626
0.403127 0.209673 0.0287997
0.403618 0.209675 0.0285059
0.404163 0.209665 0.0282446
0.404631 0.209672 0.0279359
0.405087 0.209682 0.0276211
0.405569 0.209686 0.0273214
0.406024 0.209696 0.027005
0.406483 0.209706 0.0266914
0.406926 0.209719 0.0263682
0.407369 0.209732 0.0260448
0.407777 0.209753 0.0257006
0.408167 0.209778 0.0253449
0.408532 0.209809 0.0249742
0.408858 0.209848 0.0245799
0.409165 0.209892 0.024174
0.40941 0.20995 0.0237304
0.409601 0.21002 0.0232546
0.409772 0.210094 0.0227658
0.40993 0.210172 0.0222696
0.410022 0.210265 0.0217334
0.410055 0.210371 0.0211608
0.410073 0.21048 0.0205797
0.410044 0.2106 0.0199693
0.409965 0.210732 0.0193294
0.409824 0.210877 0.0186513
0.40973 0.211012 0.0180017
0.409574 0.211161 0.0173151
0.372816 0.227694 -0.0472769
0.373 0.227768 -0.0477686
0.373316 0.227811 -0.048175
0.378929 0.226606 -0.0451829
0.379398 0.226613 -0.0454916
0.379751 0.226648 -0.045874
0.380212 0.226657 -0.0461882
0.380581 0.226688 -0.0465607
0.380928 0.226724 -0.0469476
0.381221 0.226772 -0.0473693
0.381405 0.226847 -0.0478606
0.38155 0.226931 -0.048377
0.377336 0.228047 -0.0517116
0.377716 0.228076 -0.0520814
0.378041 0.228118 -0.0524878
0.378427 0.228146 -0.0528535
0.378915 0.228148 -0.0531501
0.379263 0.228185 -0.053541
0.379548 0.228237 -0.0539744
0.379801 0.228298 -0.0544294
0.379955 0.228381 -0.0549514
0.379943 0.228505 -0.0555847
0.280584 0.209004 0.106604
0.281074 0.209007 0.10631
0.281563 0.209009 0.106014
0.286253 0.208022 0.108117
0.287165 0.207924 0.108064
0.287918 0.207866 0.107919
0.28864 0.207814 0.107757
0.289653 0.207692 0.107762
0.291246 0.207434 0.108097
0.292382 0.207285 0.108171
0.293349 0.207175 0.108149
0.294271 0.207076 0.108101
0.294912 0.207042 0.107893
0.295425 0.20704 0.107612
0.295913 0.207042 0.107316
0.296611 0.206995 0.107141
0.297659 0.206866 0.107164
0.298335 0.206825 0.106976
0.299023 0.20678 0.106795
0.299637 0.206754 0.106572
0.300182 0.206743 0.106308
0.300787 0.206718 0.10608
0.301283 0.206719 0.105789
0.301773 0.206722 0.105494
0.302135 0.206755 0.105127
0.302511 0.206784 0.104767
0.303109 0.206761 0.104534
0.303799 0.206715 0.104354
0.304374 0.206698 0.104109
0.304981 0.206673 0.103881
0.305551 0.206656 0.103632
0.306121 0.20664 0.103383
0.3067 0.206621 0.10314
0.307265 0.206606 0.102888
0.307724 0.206616 0.102576
0.308194 0.206623 0.10227
0.308662 0.20663 0.101963
0.309186 0.206625 0.101688
0.309722 0.206616 0.10142
0.310175 0.206628 0.101105
0.310627 0.206638 0.100789
0.311034 0.20666 0.100447
0.31145 0.20668 0.10011
0.311854 0.206703 0.099767
0.312276 0.206721 0.0994336
0.312713 0.206736 0.0991089
0.313161 0.206748 0.0987908
0.313547 0.206775 0.0984372
0.313989 0.206788 0.0981153
0.314446 0.206799 0.0978019
0.314845 0.206823 0.0974555
0.315289 0.206835 0.0971352
0.315737 0.206848 0.0968165
0.316167 0.206865 0.096488
0.316568 0.206888 0.0961427
0.31705 0.206892 0.0958437
0.317458 0.206913 0.095503
0.317902 0.206927 0.0951824
0.318324 0.206945 0.0948488
0.318804 0.20695 0.0945486
0.319263 0.20696 0.0942366
0.319689 0.206977 0.0939058
0.320142 0.206988 0.0935902
0.320584 0.207002 0.0932683
0.320997 0.207023 0.0929306
0.321502 0.207021 0.0926443
0.321871 0.207052 0.0922813
0.322362 0.207055 0.091987
0.32278 0.207073 0.0916517
0.32324 0.207083 0.0913403
0.323637 0.207107 0.0909926
0.324104 0.207115 0.0906853
0.324524 0.207134 0.0903509
0.324927 0.207157 0.0900068
0.325375 0.207169 0.0896883
0.325777 0.207192 0.0893436
0.326237 0.207201 0.0890326
0.326608 0.207232 0.0886701
0.327025 0.207252 0.088334
0.327438 0.207272 0.0879958
0.327845 0.207294 0.0876537
0.328235 0.20732 0.0873026
0.328638 0.207342 0.0869586
0.329071 0.207358 0.0866317
0.329423 0.207393 0.0862586
0.329803 0.207421 0.0859011
0.330168 0.207453 0.0855355
0.330549 0.207482 0.0851788
0.330874 0.207522 0.0847905
0.331212 0.207561 0.0844095
0.331509 0.207609 0.084005
0.331812 0.207655 0.0836035
0.332111 0.207703 0.0832002
0.332408 0.20775 0.0827958
0.332638 0.207814 0.0823533
0.332843 0.207883 0.0818958
0.332943 0.207978 0.081379
0.333069 0.208066 0.080877
0.333265 0.208137 0.0804147
0.333532 0.208192 0.0799931
0.333838 0.208238 0.0795937
0.334133 0.208286 0.0791883
0.334324 0.208359 0.078723
0.334483 0.208439 0.0782398
0.334674 0.208512 0.0777746
0.334763 0.208609 0.0772513
0.334742 0.208732 0.0766656
0.334724 0.208853 0.0760812
0.334752 0.208965 0.0755228
0.334871 0.209055 0.0750169
0.33505 0.20913 0.0745452
0.33524 0.209203 0.0740796
0.335438 0.209274 0.0736184
0.335579 0.209359 0.0731249
0.335752 0.209435 0.0726494
0.33584 0.209533 0.0721258
0.335892 0.209639 0.0715813
0.335787 0.209777 0.0709326
0.335621 0.209929 0.0702392
0.335527 0.210065 0.0695899
0.335506 0.210183 0.068985
0.335471 0.210305 0.0683719
0.335467 0.21042 0.0677767
0.33558 0.210508 0.0672532
0.335468 0.210647 0.0665928
0.335412 0.210774 0.0659667
