ply
format ascii 1.0
element vertex 1309
property float x
property float y
property float z
property uchar diffuse_red
property uchar diffuse_green
property uchar diffuse_blue
end_header
0.294977 0.081702 0.0281093 68 7 2
0.294736 0.0818433 0.0281881 68 8 3
0.294428 0.0817915 0.0280717 69 8 4
0.295382 0.0809148 0.0274624 65 8 4
0.295695 0.0810841 0.0276493 66 7 3
0.295511 0.0813201 0.0278411 65 7 3
0.295769 0.0814216 0.0279454 67 7 3
0.295541 0.0816274 0.0281098 68 7 1
0.295975 0.0811885 0.0277608 67 7 3
0.318854 0.0817875 0.00803966 20 9 1
0.319161 0.0821367 0.00791457 34 8 0
0.319403 0.0826895 0.00779765 47 9 0
0.319628 0.083313 0.00769332 57 10 1
0.295639 0.0890233 -0.00862382 71 10 6
0.295386 0.0892677 -0.00822351 72 9 6
0.295471 0.0895438 -0.00790993 72 9 6
0.295132 0.0895208 -0.00779816 72 9 6
0.295556 0.0897908 -0.00761389 71 9 6
0.29522 0.0897853 -0.00749435 70 9 6
0.295644 0.0900447 -0.00730897 70 9 5
0.295308 0.0900347 -0.00719189 70 9 6
0.295982 0.0900517 -0.00741809 69 9 5
0.295889 0.0898066 -0.00772713 70 9 6
0.295803 0.0895479 -0.00803467 72 10 6
0.295715 0.0892812 -0.00833759 72 10 6
0.290007 0.0893086 -0.00547735 92 34 25
0.289776 0.0895182 -0.00504271 93 34 25
0.29009 0.0895809 -0.00518162 89 30 22
0.290409 0.0896355 -0.00531992 89 29 20
0.290173 0.0898445 -0.0048801 86 23 15
0.290496 0.0899014 -0.00502129 85 22 14
0.290264 0.0900989 -0.00457429 82 19 11
0.290579 0.0901567 -0.00471075 80 18 10
0.289858 0.0897823 -0.00474286 90 30 22
0.29081 0.0899451 -0.00515922 84 21 13
0.291228 0.090238 -0.00497661 75 13 6
0.291541 0.0902811 -0.0051156 75 12 6
0.291638 0.0905205 -0.0048021 72 10 5
0.291965 0.0905625 -0.00493087 71 10 5
0.292054 0.0907932 -0.00461589 70 10 5
0.292385 0.0908305 -0.00475335 70 9 5
0.292478 0.0910402 -0.00443069 69 9 5
0.291733 0.0907576 -0.00448671 72 10 5
0.290909 0.0902026 -0.00484063 80 17 10
0.291316 0.0904802 -0.00466574 74 10 6
0.290993 0.0904372 -0.00453919 75 12 7
0.308953 0.0862914 -0.00303402 4 0 0
0.309105 0.0863218 -0.00266424 0 0 0
0.309297 0.0862457 -0.00241599 0 0 0
0.309166 0.0866393 -0.00233233 0 0 0
0.309382 0.086623 -0.0020516 0 0 0
0.309186 0.0869897 -0.00193498 0 0 0
0.309431 0.0869238 -0.00164995 0 0 0
0.309514 0.0862339 -0.0021421 0 0 0
0.309756 0.0862064 -0.00187765 0 0 0
0.309613 0.0865858 -0.00178439 0 0 0
0.309823 0.0866735 -0.00151131 0 0 0
0.291382 0.0837508 0.0189243 57 1 0
0.298426 0.0892433 -0.00921768 72 9 6
0.298081 0.0892704 -0.009113 71 9 5
0.298518 0.089494 -0.0089151 72 9 5
0.298172 0.0895192 -0.00880986 72 9 5
0.298623 0.0897188 -0.00860132 72 10 6
0.298277 0.0897507 -0.00849402 72 10 6
0.316017 0.0843621 0.00256676 34 21 12
0.315713 0.0843359 0.0023775 26 20 11
0.291692 0.0838754 0.0184492 55 2 0
0.291162 0.0842552 0.0187426 58 2 0
0.290984 0.0841404 0.0190368 59 1 0
0.29083 0.0845957 0.0188593 64 3 0
0.290684 0.0842769 0.019264 59 2 0
0.290543 0.0847287 0.0190978 64 3 0
0.290384 0.0843826 0.0194723 64 3 0
0.290262 0.0848493 0.019307 67 4 1
0.29008 0.0844965 0.0197058 66 3 0
0.289975 0.0849554 0.0195378 69 4 0
0.289751 0.0846402 0.0199549 67 3 0
0.289629 0.0850992 0.0198052 71 5 0
0.289454 0.0847589 0.0201855 69 5 1
0.289351 0.0852216 0.0200225 71 4 0
0.289235 0.0846739 0.0204689 71 4 1
0.289053 0.0854428 0.0202807 71 6 1
0.288912 0.0847488 0.0207965 71 6 1
0.288781 0.0855661 0.020567 72 7 1
0.288581 0.0852808 0.0209348 74 7 1
0.288524 0.0855741 0.0208817 75 7 2
0.288274 0.0854941 0.0212234 76 7 2
0.288197 0.0858724 0.0211541 77 7 3
0.287984 0.0856488 0.0215271 77 7 2
0.287897 0.0862072 0.0214239 78 9 4
0.287692 0.0859798 0.0217814 77 7 3
0.287637 0.0863318 0.0217468 76 8 3
0.287391 0.0863148 0.0221272 76 7 3
0.287558 0.0867222 0.0217513 76 9 4
0.287334 0.0867267 0.0221203 77 7 3
0.287296 0.0869935 0.0221304 78 9 5
0.287103 0.0866773 0.0224974 78 8 4
0.287056 0.0870812 0.0225065 74 7 3
0.286851 0.0870263 0.0228968 77 8 4
0.287016 0.0874834 0.0225453 73 8 5
0.286803 0.0874252 0.0229369 73 7 4
0.286978 0.0878844 0.0226195 73 7 4
0.286764 0.087831 0.0230087 72 7 3
0.286977 0.0881015 0.0226653 69 7 3
0.286751 0.0882109 0.0230786 68 6 3
0.286979 0.0884859 0.0227752 65 6 3
0.286756 0.0886096 0.0231821 63 6 2
0.286984 0.0888722 0.0229098 64 5 2
0.286761 0.0890101 0.0233449 60 4 2
0.287207 0.0889787 0.0225986 62 5 2
0.287206 0.0885965 0.0224436 64 6 3
0.287206 0.08821 0.0223336 68 6 4
0.287431 0.0886956 0.02215 63 6 3
0.287432 0.088325 0.0219972 67 6 3
0.287662 0.088798 0.0218522 61 5 3
0.287665 0.0884285 0.021689 66 6 4
0.287916 0.0888898 0.0215642 61 5 3
0.287891 0.0885198 0.0213971 64 6 4
0.288147 0.0889877 0.0212672 59 4 3
0.288133 0.0886242 0.0211021 64 5 3
0.288403 0.0890683 0.0209686 58 4 3
0.288392 0.0887139 0.0207935 61 5 2
0.28867 0.0891468 0.020686 57 4 2
0.288651 0.0888203 0.0204977 62 4 3
0.288916 0.0891508 0.0203526 57 4 2
0.288906 0.0888852 0.0202093 60 5 2
0.289204 0.0892458 0.0201071 55 4 1
0.289146 0.0888928 0.0198995 60 4 2
0.289411 0.0890411 0.0196742 57 3 2
0.28939 0.0887134 0.0195014 59 5 2
0.28968 0.0891368 0.0194278 57 3 2
0.289649 0.0887985 0.0192345 57 4 2
0.289936 0.0892377 0.019175 53 2 1
0.289887 0.0888927 0.0189639 57 4 2
0.290178 0.0893206 0.0189282 54 2 1
0.290144 0.088995 0.0186999 56 4 1
0.290467 0.0894728 0.0187165 53 2 1
0.290389 0.0890901 0.0184255 56 4 2
0.290671 0.0892825 0.0182279 54 3 1
0.290498 0.0889367 0.0181668 59 4 2
0.290771 0.0890063 0.0178477 56 4 2
0.29072 0.0886914 0.0177438 58 5 3
0.291002 0.0887682 0.0174063 58 5 3
0.290705 0.0883686 0.0176358 62 7 3
0.29098 0.0884422 0.0172979 60 5 3
0.290712 0.0880372 0.0175294 68 7 3
0.29097 0.0881125 0.0172074 67 6 3
0.290742 0.0876931 0.0174424 69 7 3
0.291002 0.0877738 0.0171142 69 7 3
0.290857 0.0873372 0.0173794 75 7 3
0.291101 0.0874165 0.0170217 74 8 4
0.291014 0.0869712 0.0173182 77 7 3
0.291242 0.0870512 0.0169711 78 8 4
0.291202 0.0865964 0.0172635 78 7 3
0.291406 0.0866835 0.0169132 79 8 3
0.291369 0.0862266 0.0172078 79 8 2
0.291553 0.0863191 0.0168587 78 8 2
0.291542 0.0858636 0.0171645 78 7 1
0.291712 0.0859597 0.0167994 75 8 2
0.29184 0.0855538 0.0168593 76 8 2
0.287456 0.0890653 0.0223179 58 4 2
0.28769 0.0891659 0.0220259 59 4 2
0.287955 0.0892573 0.0217558 55 3 1
0.288202 0.0893341 0.0214562 55 4 2
0.287183 0.0862823 0.0225119 77 7 3
0.286903 0.0866286 0.0228944 77 7 3
0.287477 0.0859108 0.0221679 76 7 2
0.286648 0.0869821 0.0233341 76 7 3
0.286599 0.0873791 0.0233739 74 7 3
0.286551 0.0878431 0.0234314 71 6 3
0.286524 0.088167 0.0234923 69 6 3
0.286534 0.0885624 0.0235718 64 5 2
0.286537 0.0889656 0.0237156 62 4 2
0.286403 0.0873288 0.0238555 74 7 3
0.286367 0.0877246 0.0238838 72 7 3
0.286213 0.0875513 0.0243627 73 7 3
0.286164 0.0879567 0.0244012 71 6 3
0.286044 0.0875134 0.0248773 71 5 3
0.286 0.087923 0.0249088 70 6 3
0.285869 0.0876457 0.0254879 72 6 3
0.285822 0.0880374 0.0254688 68 5 3
0.285707 0.0877249 0.0260881 70 5 2
0.285661 0.0880979 0.0260866 69 6 3
0.285592 0.0877866 0.0266824 66 4 2
0.285544 0.0882127 0.0267346 65 5 3
0.28624 0.087283 0.0243477 74 7 3
0.286053 0.0874047 0.0248767 75 6 3
0.310743 0.0858716 -0.000831165 0 0 0
0.310565 0.0859891 -0.00106514 0 0 0
0.310515 0.0863109 -0.000896878 0 0 0
0.310412 0.0866057 -0.000676073 0 0 0
0.310044 0.0870276 -0.000720154 0 0 0
0.310305 0.086931 -0.000436689 0 0 0
0.310121 0.0872259 -0.000137567 0 0 0
0.310545 0.0868201 -0.000137283 0 0 0
0.310412 0.0871007 0.000113268 0 0 0
0.310724 0.0869728 0.000350093 0 0 0
0.310645 0.0873177 0.000551874 0 1 0
0.311002 0.0872501 0.000752675 0 3 0
0.31097 0.0875735 0.000898848 0 5 0
0.311412 0.0874819 0.00103847 0 9 0
0.311172 0.0878593 0.00104964 0 9 0
0.310653 0.0865164 -0.000363268 0 0 0
0.310757 0.0861892 -0.000561478 0 0 0
0.310777 0.085878 -0.000752967 0 0 0
0.309526 0.0874883 -0.000577384 0 0 0
0.309783 0.0873951 -0.00028835 0 0 0
0.309352 0.0877118 -0.000346807 0 0 0
0.309628 0.0875997 -2.30954e-05 0 0 0
0.309454 0.087855 0.000150172 0 0 0
0.309756 0.08783 0.000414279 0 0 0
0.309611 0.0881211 0.00058184 0 0 0
0.309935 0.0881243 0.000804722 0 1 0
0.309775 0.0884032 0.000935573 0 3 0
0.310161 0.088181 0.000929793 0 5 0
0.309961 0.0884663 0.00104236 0 6 0
0.310495 0.0882947 0.00110761 0 6 0
0.310294 0.0886081 0.00120259 0 7 0
0.31079 0.0884636 0.00117759 1 7 0
0.310429 0.0885983 0.00121614 0 7 0
0.310077 0.0888937 0.00128843 0 7 0
0.309931 0.0875531 0.000221543 0 0 0
0.310279 0.0874445 0.00036327 0 0 0
0.310254 0.0875789 0.000459048 0 0 0
0.310587 0.0876626 0.000731517 0 3 0
0.310394 0.0879154 0.000792734 0 4 0
0.310514 0.0879829 0.000901353 0 5 0
0.310786 0.0882569 0.00111562 0 8 0
0.310928 0.0879021 0.00101492 0 9 0
0.310093 0.0878672 0.000625796 0 0 0
0.309086 0.0877951 -0.000650191 0 0 0
0.308775 0.0878531 -0.000939636 0 0 0
0.308634 0.0880378 -0.000668247 0 0 0
0.308376 0.0881274 -0.0009365 0 0 0
0.308419 0.0882389 -0.000473321 0 0 0
0.308168 0.0884516 -0.000313108 0 0 0
0.308487 0.0879571 -0.00121685 0 0 0
0.308249 0.0880785 -0.00150415 0 0 0
0.308909 0.0879824 -0.000400485 0 0 0
0.309187 0.0879243 -0.000118788 0 0 0
0.308995 0.0881626 5.40377e-05 0 0 0
0.309293 0.0881199 0.000328821 0 0 0
0.309129 0.0883753 0.000509463 0 0 0
0.309445 0.0883939 0.000746502 0 0 0
0.309277 0.088659 0.000932884 0 0 0
0.309424 0.0886676 0.0010202 0 4 0
0.309225 0.088954 0.00115467 0 5 0
0.309551 0.089053 0.00130265 0 6 0
0.309785 0.0887695 0.00118067 0 6 0
0.308674 0.0882189 -0.000249137 0 0 0
0.308825 0.0883931 0.000247459 0 0 0
0.308957 0.0886271 0.000706245 0 0 0
0.309125 0.0889411 0.00110326 0 2 0
0.308946 0.0891966 0.00126532 0 5 0
0.308493 0.0884435 -4.19193e-05 0 0 0
0.308648 0.0886251 0.000455806 0 0 0
0.308803 0.0888953 0.000883963 0 0 0
0.308619 0.0891243 0.00108733 0 1 0
0.308463 0.0893943 0.00124532 0 2 0
0.308329 0.0886693 0.000168559 0 0 0
0.308479 0.0888851 0.000642404 0 0 0
0.308171 0.0889088 0.000374105 0 0 0
0.308306 0.0891179 0.000845241 0 0 0
0.308164 0.0893502 0.0010502 0 0 0
0.307904 0.0893682 0.000846508 0 0 0
0.307997 0.0891463 0.00057076 0 0 0
0.316352 0.0842804 0.00273897 37 22 12
0.316352 0.0844053 0.00272222 38 21 11
0.316051 0.0847678 0.00248973 42 17 7
0.316377 0.0847983 0.00265641 47 18 8
0.316038 0.0851613 0.00244324 51 16 6
0.316357 0.0851981 0.00263154 57 15 6
0.316315 0.0855945 0.00262068 62 15 6
0.316636 0.0856255 0.00280563 62 14 6
0.316012 0.0855636 0.00241508 58 14 5
0.316268 0.0859947 0.00261828 62 14 5
0.340692 0.0820279 -0.00202194 162 152 120
0.340576 0.082346 -0.00214788 160 149 119
0.340884 0.0824425 -0.00229139 163 150 119
0.291894 0.0840318 0.0180377 57 3 0
0.291579 0.084458 0.0180874 62 3 0
0.291378 0.0843521 0.0184148 62 2 0
0.291314 0.084857 0.0181091 66 4 0
0.291088 0.0847566 0.0184541 64 3 0
0.291061 0.0852317 0.0181442 72 6 0
0.290813 0.0851497 0.018489 70 5 0
0.290831 0.0856115 0.0181794 74 5 1
0.290577 0.0855281 0.01852 72 5 1
0.29064 0.0859861 0.0182369 74 7 2
0.290385 0.0859122 0.0185596 73 6 1
0.29046 0.0863511 0.0182806 74 7 2
0.290199 0.0862757 0.0186087 73 7 2
0.290281 0.0867239 0.0183339 71 7 2
0.290009 0.0866471 0.0186525 71 7 3
0.290115 0.0871008 0.0183853 71 8 3
0.289848 0.0870182 0.018712 70 8 3
0.289982 0.0874641 0.018449 68 7 3
0.289731 0.0873848 0.0187748 68 8 3
0.289923 0.0878056 0.0185192 67 7 4
0.289644 0.0877317 0.0188559 65 7 4
0.289748 0.0881034 0.0188044 64 7 3
0.289497 0.0880334 0.0191131 64 7 3
0.289522 0.0883685 0.0192024 62 5 2
0.289262 0.0883044 0.0194954 61 6 3
0.289131 0.0885356 0.0197341 62 5 3
0.288882 0.0885351 0.0200455 61 5 3
0.288641 0.0886331 0.0204182 63 5 3
0.289638 0.0884378 0.0190778 62 6 2
0.289767 0.0884269 0.0188985 63 6 3
0.289879 0.0885381 0.0187832 61 5 3
0.290011 0.0885009 0.0185907 61 5 3
0.290061 0.0888228 0.0186779 59 5 2
0.290164 0.0885505 0.0183952 60 5 3
0.290309 0.0888884 0.0183816 57 4 2
0.290454 0.0886216 0.0180597 59 5 3
0.2899 0.088142 0.0186174 64 7 3
0.290171 0.0882206 0.0182965 63 6 4
0.290176 0.0878845 0.0181978 65 7 4
0.290432 0.0882977 0.0179605 63 6 5
0.290452 0.0879574 0.0178629 67 6 3
0.29024 0.0875372 0.0181227 68 7 3
0.290369 0.0871739 0.0180616 72 7 3
0.290546 0.0868008 0.0179967 75 8 3
0.290734 0.0864295 0.0179494 75 7 2
0.290929 0.086072 0.0178695 77 6 2
0.291081 0.0856898 0.0178585 76 5 2
0.291282 0.08532 0.0178011 75 5 1
0.291531 0.0849419 0.0177655 68 5 0
0.29173 0.0845172 0.0178475 63 4 0
0.292048 0.0841632 0.0176238 61 5 0
0.291936 0.0846328 0.0173685 66 5 0
0.291859 0.0850984 0.0171245 71 6 0
0.291712 0.0850252 0.0174042 72 6 0
0.2915 0.0854025 0.0174537 75 6 0
0.291698 0.0854852 0.0171256 74 7 1
0.291327 0.0857776 0.0175114 76 6 1
0.29114 0.0861444 0.0175692 78 7 2
0.290969 0.0865134 0.0176171 78 7 3
0.290782 0.0868823 0.0176611 76 8 3
0.290613 0.0872534 0.017725 71 7 4
0.290504 0.0876112 0.01779 71 8 3
0.316667 0.0842735 0.00291196 47 21 11
0.316687 0.0844351 0.00288284 50 21 11
0.317009 0.0846934 0.00303354 60 17 7
0.316689 0.0848328 0.00283572 58 17 7
0.317013 0.0850819 0.00298558 65 16 7
0.316668 0.0852297 0.00281526 62 14 6
0.317019 0.0852708 0.00297091 64 16 7
0.286208 0.0893827 -0.00177383 135 89 69
0.286307 0.0895282 -0.0014943 130 78 59
0.308761 0.0867086 -0.00290509 1 0 0
0.308582 0.087059 -0.00280006 0 0 0
0.308448 0.0873484 -0.00270242 0 0 0
0.308307 0.0876066 -0.00258287 0 0 0
0.308627 0.0873289 -0.0024364 0 0 0
0.308489 0.087635 -0.00223427 0 0 0
0.308829 0.0872936 -0.00212417 0 0 0
0.308682 0.087566 -0.00192364 0 0 0
0.308982 0.0873274 -0.00175132 0 0 0
0.309005 0.0869481 -0.00227161 0 0 0
0.30881 0.0869909 -0.00251751 0 0 0
0.308969 0.0866416 -0.00264298 0 0 0
0.30808 0.0876755 -0.00283353 0 0 0
0.307568 0.0879307 -0.00324066 0 0 0
0.307183 0.0882544 -0.00327105 0 0 0
0.306757 0.0885838 -0.00330692 0 0 0
0.306302 0.0888584 -0.00334897 0 0 0
0.305963 0.0891065 -0.00331661 0 0 0
0.305381 0.0896959 -0.00329441 3 0 0
0.306129 0.0888396 -0.00350701 2 0 0
0.306302 0.0885815 -0.00372141 4 0 0
0.306557 0.0883486 -0.00381481 9 0 0
0.306863 0.0880966 -0.00384245 11 0 0
0.306874 0.0883053 -0.00353922 5 0 0
0.307253 0.087984 -0.00351585 4 0 0
0.306457 0.0885902 -0.00357645 4 0 0
0.307183 0.087811 -0.00395647 19 0 1
0.307264 0.0877085 -0.00400764 18 0 1
0.352571 0.079463 0.00297185 39 39 5
0.294883 0.0897794 -0.0073772 70 10 6
0.294555 0.0897626 -0.00726669 72 10 5
0.29497 0.0900304 -0.00707196 70 9 6
0.295209 0.0814813 0.0279536 67 7 2
0.295301 0.0817925 0.0282196 67 6 1
0.305148 0.0809669 0.0244548 27 20 8
0.305454 0.0811832 0.0244655 24 24 12
0.305252 0.0813275 0.024719 33 23 11
0.305483 0.0815672 0.0247526 33 26 14
0.3053 0.0817832 0.0249491 35 25 12
0.305692 0.0813133 0.0234727 20 30 21
0.305739 0.0814654 0.0228667 22 29 21
0.305948 0.0817465 0.0233147 15 34 29
0.305934 0.0818747 0.0226501 16 33 28
0.306305 0.0819947 0.022922 21 42 44
0.305583 0.0811964 0.0240223 20 23 12
0.305889 0.0815347 0.0239798 23 34 25
0.306234 0.0820095 0.0233812 12 41 43
0.306731 0.082083 0.0232728 22 55 65
0.30705 0.0822793 0.0233716 35 78 89
0.30573 0.0814855 0.0244715 23 30 19
0.305755 0.0819188 0.0247047 25 28 18
0.305995 0.0818596 0.024397 22 40 32
0.301256 0.0812635 0.0267756 71 8 3
0.301534 0.0816233 0.0267238 73 9 4
0.30167 0.0818361 0.0266739 73 8 4
0.301054 0.0814512 0.026993 71 8 3
0.301027 0.0818909 0.0271661 72 8 3
0.301343 0.0818317 0.0269355 72 9 4
0.301468 0.0820303 0.0268869 73 8 3
0.286983 0.0885129 0.00444896 96 31 20
0.28725 0.0885233 0.00467849 92 26 17
0.287132 0.0888264 0.00425679 91 27 17
0.287401 0.0888437 0.00448232 88 23 15
0.290862 0.0846605 0.0187839 63 3 0
0.290568 0.0850582 0.0188148 69 5 1
0.290411 0.0851781 0.0189151 70 5 1
0.290334 0.0854568 0.0188428 72 6 1
0.290119 0.0853379 0.0191359 71 5 2
0.290073 0.0853796 0.0191654 71 6 2
0.289834 0.085483 0.0194026 71 5 0
0.289865 0.0857524 0.0192228 71 6 2
0.289745 0.0858431 0.019325 72 7 2
0.289679 0.0861159 0.019272 73 7 2
0.289411 0.0860391 0.019601 73 7 2
0.289498 0.0864901 0.0193165 72 7 3
0.289232 0.0864162 0.0196457 72 8 3
0.289332 0.0868677 0.019369 72 8 4
0.289065 0.0867868 0.0196975 72 8 3
0.289192 0.0872356 0.0194346 70 8 3
0.288935 0.0871577 0.0197665 70 8 4
0.289109 0.0875797 0.0195254 67 7 4
0.28887 0.0875109 0.0198393 66 7 3
0.288989 0.0879024 0.019721 63 6 3
0.288898 0.0877719 0.0198229 66 7 3
0.288889 0.0879864 0.0198717 64 6 3
0.288643 0.0878429 0.0201594 67 7 4
0.288635 0.0880633 0.0202224 65 7 4
0.288392 0.0879565 0.0205285 66 7 3
0.288384 0.0883431 0.020625 65 6 3
0.28814 0.0882454 0.0209462 66 6 3
0.288633 0.0884314 0.0203282 64 6 3
0.288877 0.088388 0.0199909 63 6 2
0.288999 0.0882422 0.0197853 64 6 2
0.289246 0.0879633 0.0194218 65 7 3
0.289252 0.0876195 0.0193557 67 8 3
0.289447 0.0873121 0.0191184 69 9 4
0.289585 0.0869498 0.0190474 71 8 3
0.289749 0.0865681 0.0189913 73 7 3
0.289933 0.0861977 0.0189379 74 7 2
0.290123 0.0858273 0.0188938 72 6 1
0.289501 0.0876911 0.019042 67 8 3
0.289523 0.0856934 0.0196387 72 5 0
0.289234 0.0858399 0.019911 74 8 2
0.289183 0.086065 0.0198712 72 8 2
0.288982 0.0863391 0.0199881 73 7 2
0.288815 0.0867073 0.0200375 72 8 3
0.288762 0.0868395 0.0200696 70 8 3
0.288689 0.0872634 0.0200823 69 7 3
0.288446 0.0872039 0.0204074 72 8 5
0.288677 0.0873892 0.0200958 69 8 4
0.288412 0.0875574 0.0204564 68 7 4
0.288953 0.0859612 0.0202013 76 8 2
0.288854 0.0863967 0.0201218 73 7 2
0.288531 0.0867095 0.0204146 72 8 4
0.288244 0.0870511 0.0207232 72 7 4
0.288177 0.0874495 0.0207765 71 7 4
0.28795 0.0873434 0.0210971 74 8 5
0.287907 0.0877474 0.0211608 69 8 3
0.287674 0.0876326 0.0214865 73 8 4
0.287667 0.0880402 0.0215679 68 7 4
0.287443 0.0879277 0.0218919 67 6 3
0.287894 0.088146 0.0212619 66 6 4
0.288151 0.0878557 0.0208427 68 7 4
0.288725 0.0858562 0.0205181 76 8 2
0.28863 0.0862871 0.020447 73 7 2
0.288415 0.08608 0.0208033 75 8 2
0.288307 0.0865873 0.0207538 74 8 3
0.288105 0.0863819 0.0210865 73 9 4
0.288083 0.0864952 0.0210795 74 9 4
0.28786 0.0863963 0.0214067 78 9 4
0.287774 0.0868321 0.0213944 78 9 5
0.287501 0.087116 0.0217603 76 9 5
0.287251 0.0874172 0.0221638 72 7 4
0.31577 0.0809041 0.0211176 183 186 156
0.316064 0.0808534 0.0208674 173 174 145
0.316107 0.0812467 0.0211198 182 185 154
0.316366 0.0809682 0.0207074 171 172 143
0.316399 0.0813469 0.0209475 181 183 153
0.315796 0.081156 0.0212621 189 194 161
0.315488 0.0811534 0.0214509 191 197 164
0.315802 0.0816124 0.0214823 197 203 166
0.315492 0.0815752 0.021634 196 205 169
0.315799 0.0819948 0.0216117 202 206 167
0.315491 0.081957 0.0217697 203 210 170
0.315774 0.0824021 0.0217269 203 207 168
0.31547 0.0823459 0.0218817 203 207 168
0.316099 0.082155 0.0214847 203 205 168
0.316412 0.0817535 0.0211556 190 192 157
0.316107 0.0816406 0.0213052 194 196 162
0.315177 0.0815299 0.0217841 201 210 172
0.315177 0.0818882 0.0219127 202 209 172
0.314874 0.081459 0.0219252 199 207 173
0.314865 0.0818463 0.0220859 202 209 171
0.314567 0.0814035 0.0220876 199 207 173
0.314571 0.0817957 0.0222508 199 208 172
0.31485 0.0823368 0.0222476 202 208 168
0.315141 0.0826634 0.0221528 206 207 167
0.315162 0.0822665 0.0220265 203 208 168
0.288046 0.0836004 0.0272581 69 7 4
0.288285 0.0835577 0.0276258 70 9 5
0.288392 0.0836263 0.0279952 74 10 7
0.288593 0.0836569 0.0283766 74 11 6
0.28878 0.0837159 0.0287635 76 13 8
0.288948 0.083814 0.029163 77 13 8
0.289469 0.0837343 0.0293529 76 13 8
0.288423 0.0839571 0.0289967 76 12 7
0.288312 0.083876 0.0286341 73 10 7
0.288069 0.0839061 0.0283054 71 10 5
0.287856 0.083903 0.0278129 70 8 4
0.287878 0.0841613 0.028797 73 10 5
0.287347 0.0845348 0.0287921 70 8 4
0.287576 0.0842315 0.0283034 69 7 3
0.287105 0.0846772 0.0284165 69 6 2
0.287327 0.0843869 0.0278889 68 6 3
0.286891 0.0849018 0.0280768 68 6 2
0.287125 0.0845909 0.0275681 67 6 2
0.286733 0.08512 0.0277274 68 5 2
0.286955 0.0848232 0.0272898 67 6 2
0.286571 0.0853364 0.0274145 68 5 2
0.286781 0.0850406 0.0269888 67 5 2
0.286411 0.0855557 0.0270926 68 4 1
0.286624 0.0852425 0.0266239 68 5 1
0.286244 0.0857813 0.0267877 69 5 1
0.286463 0.085481 0.026314 68 5 1
0.286097 0.0860487 0.0264836 70 6 2
0.286293 0.0857484 0.0260358 71 5 2
0.285965 0.0863871 0.0262569 73 6 1
0.286162 0.086065 0.0257468 73 6 2
0.286072 0.0864034 0.0255135 76 6 3
0.286278 0.0860456 0.0250806 72 5 2
0.286221 0.0863261 0.0249038 75 6 1
0.286528 0.0857657 0.0244291 75 6 2
0.286397 0.0863139 0.0242933 77 7 3
0.285754 0.0867746 0.0267436 71 5 2
0.287563 0.0840657 0.0273833 67 6 2
0.287795 0.0837375 0.0268881 66 5 2
0.287362 0.0842627 0.0270519 67 5 1
0.287586 0.0839461 0.0265558 67 5 2
0.287175 0.0844885 0.0267577 68 5 2
0.2874 0.0841673 0.0262498 66 4 1
0.286999 0.0847106 0.026469 67 4 1
0.287234 0.0843939 0.0259759 66 4 2
0.286843 0.084921 0.0261521 69 5 1
0.287061 0.0845947 0.0256613 65 4 1
0.286664 0.0851633 0.0258403 68 5 1
0.286887 0.0848264 0.0253609 67 5 0
0.286707 0.0851396 0.025048 70 5 1
0.286602 0.0854181 0.0247561 73 5 2
0.286511 0.0854282 0.0255455 70 5 2
0.286392 0.0857259 0.0252772 71 5 2
0.286887 0.0850275 0.028938 70 6 2
0.286678 0.0852225 0.0285306 69 6 2
0.286517 0.0854265 0.0281596 68 5 2
0.286358 0.085662 0.0278521 68 5 1
0.286194 0.0858832 0.0275515 69 5 1
0.286018 0.0861584 0.0272611 69 5 2
0.285884 0.0863935 0.0269855 71 6 1
0.286461 0.085574 0.0290063 69 6 2
0.286288 0.0857903 0.0286912 69 5 2
0.286138 0.0860413 0.0284012 68 4 2
0.285964 0.0863332 0.028176 68 5 2
0.285823 0.0865897 0.0279016 69 5 1
0.285711 0.0868316 0.0276289 70 5 2
0.285591 0.0871724 0.0285674 68 5 2
0.285464 0.087829 0.0293886 68 7 3
0.285585 0.0873614 0.0295188 68 6 2
0.285547 0.08768 0.0303981 68 6 3
0.285578 0.0875386 0.0303915 68 6 3
0.285391 0.0882649 0.0293688 69 6 4
0.28534 0.0886914 0.0293577 67 7 4
0.285311 0.0889538 0.029382 65 7 4
0.285278 0.089408 0.0284296 61 6 4
0.285279 0.0893591 0.0294515 64 6 4
0.285268 0.0898157 0.028552 57 6 4
0.285264 0.0898101 0.0294882 62 7 4
0.285275 0.0900666 0.0286266 57 6 4
0.285313 0.0904306 0.028892 56 7 4
0.285428 0.0906399 0.0281643 49 5 4
0.285504 0.0909874 0.0285106 49 5 3
0.285671 0.0911257 0.0279652 46 4 3
0.285768 0.0914273 0.0283184 47 4 3
0.285982 0.091541 0.0278966 46 3 3
0.286105 0.0918451 0.0283126 46 4 3
0.286333 0.0919167 0.0279488 46 3 2
0.286444 0.0921402 0.0282956 48 4 3
0.286704 0.0922386 0.0280337 48 4 3
0.286828 0.0924971 0.0284807 49 5 4
0.287085 0.0925772 0.028228 51 5 5
0.287211 0.0927509 0.0285715 52 6 5
0.287526 0.0928206 0.0284194 60 8 6
0.287657 0.0929585 0.0287845 61 9 7
0.287848 0.0928529 0.028295 62 9 7
0.287984 0.09298 0.0286683 65 9 7
0.288186 0.0928639 0.0281822 66 9 7
0.288318 0.0929687 0.0285508 69 10 7
0.288555 0.0928488 0.0281722 67 10 7
0.288692 0.0929333 0.0285321 70 10 6
0.288498 0.0930542 0.0290194 68 10 7
0.288317 0.0931471 0.0295091 67 10 6
0.288148 0.0932051 0.0300084 66 9 6
0.287953 0.0932197 0.0304456 65 10 7
0.28813 0.093268 0.030876 65 9 6
0.287659 0.0931742 0.0306471 63 10 7
0.28779 0.0932319 0.0309691 63 9 7
0.287485 0.0931544 0.0311359 61 9 7
0.28796 0.0932754 0.0313844 64 9 6
0.287656 0.0932011 0.031527 62 9 6
0.28812 0.09329 0.0317556 65 10 6
0.287808 0.0932304 0.0318979 63 9 6
0.288283 0.0933008 0.0321322 64 10 6
0.287964 0.0932585 0.0322757 63 9 6
0.288341 0.0933008 0.0322634 64 9 6
0.288126 0.0932599 0.0326354 64 9 6
0.288497 0.0932833 0.032628 66 9 5
0.288283 0.0932613 0.0330119 67 10 5
0.288658 0.0932807 0.0329974 69 9 5
0.288449 0.0932631 0.0333944 68 10 6
0.288815 0.0932692 0.033362 68 8 4
0.288501 0.0932638 0.0334999 68 9 5
0.288664 0.0932225 0.0338604 67 10 5
0.288307 0.0931869 0.0339074 67 10 5
0.288477 0.0931544 0.0342973 69 11 5
0.287999 0.0930959 0.0340711 66 10 7
0.288168 0.0930748 0.0344439 68 10 6
0.287694 0.0929539 0.0342261 66 11 7
0.287862 0.0929505 0.034594 67 11 7
0.28755 0.0927897 0.0347353 65 11 8
0.28803 0.0929377 0.0349763 67 11 7
0.287727 0.0928113 0.0351336 66 10 7
0.288199 0.0929243 0.0353468 66 10 6
0.287896 0.0928154 0.0355046 65 10 7
0.288374 0.0929035 0.0357282 68 10 6
0.288051 0.0928185 0.0358659 67 11 7
0.288226 0.0928032 0.036232 69 11 6
0.287756 0.0926895 0.0360213 65 10 7
0.28792 0.0926935 0.0363999 68 11 7
0.287453 0.0925498 0.0361782 63 10 7
0.287618 0.0925766 0.0365562 66 10 7
0.28715 0.0923955 0.0363353 63 10 7
0.287311 0.092438 0.0367062 66 11 7
0.286937 0.0922507 0.0366944 63 11 8
0.287015 0.0922816 0.0368597 67 11 8
0.286663 0.0920738 0.0368871 63 11 7
0.286814 0.0921649 0.0372728 68 12 8
0.286735 0.0921148 0.0371647 68 12 9
0.286397 0.0918812 0.0370767 61 11 7
0.286059 0.0915787 0.0370183 53 7 5
0.285725 0.091212 0.0370117 50 6 4
0.285394 0.0908124 0.0370421 47 6 3
0.286503 0.0919615 0.0365313 59 9 7
0.286198 0.0916832 0.0365592 55 7 6
0.286123 0.091567 0.0363849 53 7 5
0.285987 0.0915028 0.0369405 53 8 5
0.285843 0.0912635 0.036534 48 5 4
0.285641 0.0910736 0.0368532 50 6 4
0.285552 0.0907827 0.0365257 47 4 2
0.285347 0.090602 0.0368377 49 5 3
0.285268 0.0903706 0.0367029 49 4 2
0.286776 0.0921742 0.0363224 61 10 7
0.28636 0.0918267 0.0361598 56 8 7
0.286626 0.0920588 0.0359382 57 9 7
0.286237 0.0916565 0.0358221 51 7 5
0.286483 0.0919277 0.0355822 55 8 6
0.286342 0.091763 0.035231 51 7 6
0.286739 0.0921611 0.0353605 57 8 7
0.286589 0.0920487 0.0350084 56 8 7
0.287003 0.0923987 0.0351523 59 10 7
0.286812 0.0922983 0.0347272 58 9 7
0.28727 0.0925949 0.0349158 61 10 7
0.287106 0.0925511 0.0345566 60 10 7
0.287373 0.0927631 0.0343367 65 11 8
0.287651 0.0929481 0.0341333 65 10 7
0.287837 0.0930872 0.0336848 65 10 7
0.288142 0.0932004 0.0335298 67 10 6
0.287448 0.092646 0.0353335 64 10 8
0.28759 0.0926705 0.0356544 63 10 7
0.287165 0.0924678 0.035524 61 9 7
0.287337 0.0925301 0.0359147 63 9 7
0.286891 0.0922639 0.0357314 59 9 7
0.287054 0.0923584 0.0361086 59 9 7
0.286036 0.0914562 0.0361858 49 5 4
0.285738 0.0909948 0.0361959 45 4 3
0.285463 0.0904873 0.0362344 50 4 3
0.285923 0.0912017 0.0358216 47 4 3
0.285637 0.0907107 0.035854 48 4 2
0.285361 0.0901433 0.0359022 53 4 3
0.287168 0.0923389 0.0372335 70 12 8
0.287473 0.0924659 0.0370814 69 12 8
0.287753 0.0925845 0.036868 68 11 7
0.288069 0.0926915 0.0367331 69 10 7
0.288387 0.0927712 0.0365893 69 10 6
0.288541 0.0928727 0.0360947 69 10 6
0.288688 0.0929622 0.0355924 67 9 5
0.288523 0.0930046 0.0352286 68 9 5
0.288876 0.0930381 0.0351573 67 8 5
0.288673 0.0931011 0.0347261 68 9 5
0.289023 0.0931109 0.0346516 68 9 4
0.288822 0.0931724 0.0342259 68 9 4
0.289165 0.0931627 0.0341406 67 8 4
0.288969 0.0932222 0.0337211 67 8 4
0.287602 0.0924807 0.0373666 70 12 7
0.287949 0.0925761 0.0372997 71 12 7
0.288233 0.0926659 0.0370964 71 11 6
0.288283 0.0932936 0.0312487 66 9 6
0.285341 0.0898355 0.027702 55 5 3
0.285482 0.0902457 0.0271867 51 4 3
0.285693 0.0905995 0.0268872 49 4 3
0.285993 0.0910381 0.026832 47 3 2
0.28631 0.0914518 0.0268557 47 4 3
0.286617 0.0916615 0.0267342 47 3 3
0.286997 0.0919892 0.0268647 51 4 3
0.287356 0.0922183 0.0269147 55 6 4
0.287789 0.0924598 0.0271097 57 7 5
0.287912 0.0926016 0.0274627 63 9 7
0.288047 0.0927425 0.0278173 64 9 7
0.288379 0.0927332 0.0276967 68 10 7
0.288419 0.0927603 0.0278113 68 10 7
0.285368 0.0902801 0.0279029 54 5 3
0.285517 0.0904823 0.0273422 50 4 3
0.28577 0.0909115 0.0271761 46 3 3
0.286094 0.0913602 0.0271926 45 3 2
0.286359 0.0915445 0.0269721 46 3 3
0.286729 0.0918934 0.0270843 48 4 3
0.287126 0.0922159 0.0272629 51 4 4
0.287468 0.0923981 0.0272488 56 7 5
0.287589 0.0925538 0.0275964 60 7 5
0.287716 0.0927112 0.0279424 59 8 6
0.285578 0.0907984 0.0276177 49 4 4
0.285866 0.0912512 0.027526 47 4 4
0.286208 0.091656 0.0275468 46 4 3
0.286584 0.09203 0.0276858 48 4 3
0.286959 0.0923561 0.0278259 48 4 4
0.287405 0.0926535 0.0280852 55 7 5
0.287257 0.0924356 0.0276595 53 5 4
0.286843 0.0921302 0.0274525 49 3 3
0.286466 0.0917798 0.0273109 48 4 3
0.28577 0.0867643 0.0287546 69 5 1
0.285724 0.0870092 0.0296531 69 5 2
0.285924 0.0864867 0.0290059 70 5 2
0.286097 0.0861943 0.0292601 69 5 2
0.289993 0.0837128 0.0295625 75 12 7
0.332485 0.0842327 -0.00132467 61 8 5
0.332162 0.0842361 -0.00117048 59 8 5
0.332382 0.0844087 -0.00148784 62 8 5
0.332076 0.0843867 -0.00131933 60 8 5
0.332706 0.0844366 -0.00163875 63 9 6
0.332805 0.0842537 -0.00148345 62 8 5
0.331843 0.0842712 -0.00101214 58 8 4
0.331761 0.084401 -0.0011367 59 8 4
0.331453 0.0844146 -0.000959136 55 6 3
0.331336 0.0845976 -0.0011449 58 7 4
0.333179 0.0841753 -0.00154416 61 8 5
0.333503 0.0842066 -0.00168371 61 8 5
0.333815 0.0842403 -0.00182578 64 8 5
0.331189 0.0843438 -0.000671233 53 5 3
0.330874 0.0843954 -0.000506343 51 6 3
0.330549 0.0844467 -0.000338853 51 5 3
0.330221 0.0845029 -0.000164508 47 3 2
0.329726 0.0847882 -0.000308935 45 3 1
0.329394 0.084885 -0.000124745 45 3 2
0.329036 0.0850289 1.52523e-05 44 3 1
0.328689 0.0851874 0.000157347 43 2 1
0.328336 0.0853531 0.000306906 41 2 2
0.328092 0.0854328 0.00065786 43 2 2
0.327913 0.0856319 0.000331569 42 2 1
0.327762 0.0855898 0.000876554 45 3 2
0.327592 0.0857762 0.000533046 45 3 2
0.327264 0.0859038 0.000725744 47 3 2
0.327379 0.0860716 0.000164051 45 2 1
0.32708 0.0861346 0.000390672 50 3 1
0.327223 0.0863681 -8.71979e-05 48 3 1
0.326912 0.0864292 0.000115156 53 3 2
0.32707 0.0867154 -0.000308519 56 4 2
0.326764 0.0867551 -0.0001244 57 4 3
0.326922 0.0870626 -0.00053284 62 4 3
0.326612 0.0870984 -0.000342548 62 5 2
0.326767 0.0874199 -0.000755829 62 6 3
0.326457 0.0874714 -0.000548911 63 6 4
0.326621 0.0878026 -0.000946507 62 7 4
0.326309 0.0878551 -0.000742936 65 7 5
0.326499 0.0881206 -0.00109569 65 7 5
0.326199 0.0881453 -0.00088644 69 8 6
0.326383 0.0885091 -0.00123482 66 8 5
0.326077 0.0885204 -0.00103585 67 9 6
0.326252 0.0889378 -0.00138301 63 7 5
0.32595 0.0889289 -0.00117887 64 7 5
0.32614 0.089308 -0.0014857 61 6 4
0.325837 0.089292 -0.00129567 63 7 4
0.326027 0.0897092 -0.00157042 61 6 3
0.325722 0.0896819 -0.00138798 63 6 4
0.325616 0.0900764 -0.00147877 64 6 3
0.325322 0.0900273 -0.00128965 64 6 3
0.325215 0.0904162 -0.00138211 64 6 3
0.324924 0.0903802 -0.00118868 64 6 3
0.324831 0.0907492 -0.00125707 64 6 3
0.324537 0.0906958 -0.00106717 67 6 3
0.324439 0.0910796 -0.00112953 67 7 3
0.324131 0.0910223 -0.000950474 69 7 3
0.324034 0.0914002 -0.00101061 69 7 4
0.323835 0.0909719 -0.000780919 68 7 4
0.323734 0.0913604 -0.000848462 70 8 4
0.323437 0.0913045 -0.000667715 70 7 4
0.323347 0.0916984 -0.00069862 71 8 5
0.323052 0.0916399 -0.000512576 72 8 5
0.323643 0.0917502 -0.000865553 68 6 3
0.32394 0.0917844 -0.00105006 67 6 3
0.324316 0.0914577 -0.0012202 67 6 3
0.324708 0.091129 -0.00134595 67 6 3
0.325103 0.0907978 -0.0014674 65 6 3
0.325508 0.090458 -0.00157113 64 6 3
0.325908 0.090125 -0.00166928 64 6 3
0.326341 0.0897347 -0.00174119 61 5 3
0.326724 0.08946 -0.00186707 59 5 3
0.326752 0.0893661 -0.00184884 59 5 3
0.327119 0.089123 -0.00198987 59 5 3
0.326856 0.0889792 -0.00176306 61 6 4
0.32715 0.0889911 -0.0019661 62 6 3
0.326962 0.088593 -0.00167216 62 6 5
0.327254 0.0886021 -0.00187994 62 7 4
0.327056 0.0882296 -0.00157027 62 8 5
0.327354 0.0882503 -0.00176906 65 8 5
0.327117 0.0880565 -0.0014974 63 7 4
0.327422 0.0880527 -0.00169731 63 8 6
0.327247 0.0877161 -0.00133228 64 7 4
0.327395 0.0873338 -0.00112276 61 6 3
0.327544 0.0870028 -0.000910738 58 5 3
0.3277 0.0866105 -0.000702552 54 4 2
0.327845 0.0862784 -0.000483682 49 3 2
0.327988 0.0859338 -0.000267227 44 2 1
0.328137 0.0856241 -9.14745e-06 40 2 1
0.328629 0.08526 5.3158e-05 42 3 2
0.330054 0.0847193 -0.000483124 47 3 2
0.330376 0.0846737 -0.000655073 52 5 3
0.3307 0.0846337 -0.000807897 54 6 4
0.331027 0.0846056 -0.00096951 58 7 4
0.327848 0.0857182 0.000219809 45 3 2
0.327686 0.0859983 -4.56236e-05 45 2 1
0.327538 0.0863102 -0.000287146 48 3 2
0.327385 0.0866671 -0.000505226 55 4 2
0.327234 0.0870404 -0.000719996 60 6 3
0.327083 0.087383 -0.000935636 64 6 3
0.326945 0.0877236 -0.0011284 65 7 4
0.326811 0.0880814 -0.00129886 65 7 6
0.326701 0.0884646 -0.00142756 63 7 4
0.326657 0.0885852 -0.00147137 63 7 5
0.326548 0.0889525 -0.0015818 63 7 4
0.326448 0.0893419 -0.001663 61 6 3
0.326946 0.0860218 0.000918506 51 4 2
0.32665 0.0861327 0.00115087 53 5 2
0.326474 0.0863053 0.000830071 54 4 1
0.326772 0.086219 0.000601641 51 3 2
0.326608 0.0864841 0.000317073 53 3 2
0.291834 0.0866257 0.0133009 1 7 2
0.29169 0.0867585 0.0129816 0 8 0
0.29177 0.0870802 0.013043 1 6 2
0.291627 0.0872417 0.0127024 1 6 1
0.291741 0.0875504 0.0128053 0 7 1
0.291557 0.0876694 0.0124338 0 5 0
0.291682 0.087996 0.0125252 0 4 0
0.291582 0.0881094 0.0121206 0 5 0
0.291809 0.0884373 0.0121961 0 4 0
0.291657 0.0885437 0.0118078 0 4 0
0.291913 0.0888626 0.0118959 0 3 0
0.29175 0.0889789 0.0115202 0 4 0
0.291971 0.0893041 0.011633 0 4 0
0.29187 0.0893757 0.0113335 0 4 0
0.291919 0.0895234 0.0110259 0 2 0
0.292013 0.0896158 0.0106759 0 1 0
0.292112 0.0896595 0.0104126 0 1 0
0.292242 0.0897832 0.0101752 0 0 0
0.292149 0.0895021 0.0102215 0 1 0
0.292252 0.0895067 0.0099459 0 0 0
0.292114 0.0892024 0.0101062 0 0 0
0.292202 0.0891881 0.00980466 0 0 0
0.29202 0.0888493 0.0098888 0 0 0
0.292108 0.0889663 0.00967703 0 0 0
0.291937 0.0888654 0.00946112 0 0 0
0.292202 0.0891755 0.00951497 0 0 0
0.292039 0.0891995 0.00924749 0 0 0
0.292372 0.0894883 0.00929636 0 0 0
0.292169 0.0894612 0.00909307 0 0 0
0.292324 0.0897113 0.00891589 0 0 0
0.291934 0.0894466 0.00886342 0 0 0
0.292093 0.0897691 0.00864392 0 0 0
0.292008 0.0888865 0.0102038 0 0 0
0.291896 0.0888933 0.0104977 0 0 0
0.292031 0.0890755 0.0103347 0 0 0
0.292009 0.0893125 0.010446 0 0 0
0.291764 0.0888308 0.0108565 0 1 0
0.291876 0.0892222 0.0107652 0 1 0
0.291776 0.0891317 0.0111238 0 4 0
0.291685 0.0887978 0.0111828 0 4 0
0.291647 0.0886376 0.0114266 0 5 0
0.291563 0.0883699 0.0114509 0 4 0
0.291488 0.0881826 0.011748 0 7 0
0.291458 0.0879097 0.0116655 0 6 0
0.291484 0.0877686 0.0120131 0 5 0
0.292347 0.0894795 0.00962951 0 0 0
0.313742 0.086364 0.0015348 17 13 1
0.313463 0.0867871 0.00144317 21 13 1
0.31382 0.0867166 0.00158116 34 14 2
0.313653 0.0871068 0.00156628 41 14 1
0.313855 0.0870612 0.00166852 42 15 1
0.313864 0.0873958 0.00177404 57 14 1
0.31409 0.0873455 0.0018644 58 15 2
0.313892 0.0877122 0.00193374 63 15 2
0.31387 0.0880112 0.00216518 70 14 3
0.314228 0.0882515 0.00248483 67 14 5
0.314627 0.0885222 0.00270311 59 9 5
0.315071 0.088816 0.00277292 56 8 5
0.313355 0.0871792 0.00141268 29 14 1
0.31367 0.0874414 0.0016668 56 14 1
0.313672 0.0877751 0.00180234 62 14 1
0.313654 0.0880746 0.00201673 67 13 2
0.313855 0.0883107 0.002396 69 13 4
0.314234 0.0885648 0.00267057 66 11 5
0.314633 0.0888394 0.00283591 58 8 5
0.314666 0.0891761 0.00293161 55 8 4
0.315106 0.0891575 0.002843 55 7 4
0.314705 0.0895024 0.00302459 55 6 3
0.31515 0.0894953 0.00293616 53 6 3
0.314741 0.0898408 0.00313345 56 7 3
0.315174 0.0898409 0.00301279 54 6 2
0.31483 0.0901713 0.00322373 55 6 2
0.315197 0.0901745 0.00309214 54 6 2
0.314852 0.090513 0.00329997 54 6 1
0.315223 0.0905178 0.00315936 54 5 2
0.31487 0.0908513 0.00338021 55 6 1
0.31524 0.0908692 0.0032234 55 6 2
0.314892 0.0911987 0.00344949 56 6 1
0.31526 0.091213 0.00328688 55 6 1
0.314912 0.0915394 0.003527 55 5 1
0.315283 0.0915549 0.00336635 57 5 1
0.315309 0.0918854 0.00347519 57 5 2
0.315688 0.0918991 0.00331789 58 4 1
0.315731 0.0922239 0.0034545 58 5 1
0.316106 0.0922341 0.00330578 61 5 2
0.316145 0.0925623 0.00343509 62 5 2
0.315657 0.0915695 0.00321735 58 5 2
0.315627 0.0912238 0.00313134 56 5 2
0.315615 0.0908771 0.00308013 56 5 2
0.315599 0.0905294 0.00301276 55 5 2
0.315582 0.0901823 0.00295659 54 4 2
0.315561 0.0898384 0.00289361 53 4 1
0.315543 0.0894919 0.00282663 54 6 3
0.332438 0.0838401 0.00186282 60 7 5
0.33295 0.0838219 0.00211382 59 7 3
0.332557 0.084045 0.00217766 60 8 4
0.33298 0.0838791 0.00219786 59 7 3
0.332669 0.0843109 0.00251105 62 7 4
0.333086 0.0841205 0.00250631 62 8 3
0.333163 0.084382 0.00279377 64 7 2
0.333585 0.0841826 0.00278028 64 7 2
0.333644 0.0844796 0.00305448 67 8 2
0.334066 0.0842832 0.00304166 66 7 2
0.334105 0.0845926 0.00327878 67 7 1
0.334506 0.0844049 0.00327591 66 7 2
0.334357 0.084697 0.00340573 66 6 2
0.334713 0.0843624 0.00330878 67 8 2
0.334709 0.0847002 0.00351916 67 7 2
0.335115 0.084613 0.00354003 66 8 2
0.335117 0.0849292 0.00372894 64 6 2
0.335521 0.0848552 0.00377879 65 9 3
0.335508 0.0851717 0.00392611 64 8 3
0.335925 0.0851111 0.00399969 64 11 5
0.335868 0.0853995 0.00410187 64 8 2
0.333397 0.0836897 0.0021759 58 7 4
0.333496 0.0839249 0.00248784 61 7 3
0.333914 0.083739 0.00246761 62 7 3
0.334001 0.0839939 0.00277325 65 8 2
0.334419 0.0838056 0.00275474 64 7 2
0.334482 0.0840916 0.00303396 66 8 2
0.334732 0.0840682 0.00311079 65 8 2
0.335117 0.084294 0.00335675 66 8 2
0.335126 0.0839769 0.00315654 67 9 2
0.334896 0.08389 0.00300741 65 8 2
0.336368 0.0850106 0.0040838 60 11 6
0.336791 0.0849756 0.00422167 60 15 9
0.337141 0.0848912 0.00429042 64 26 17
0.337483 0.0848452 0.00446486 72 39 25
0.337872 0.0847561 0.00473128 94 65 44
0.33821 0.084612 0.00505006 104 78 56
0.338466 0.0845069 0.00535975 108 86 66
0.332052 0.0840532 0.00193869 58 8 4
0.331662 0.0842654 0.00202142 60 7 3
0.331151 0.0842995 0.00177232 59 7 3
0.331283 0.0844834 0.00209491 59 6 3
0.330767 0.0844923 0.00185063 60 7 4
0.330888 0.0846897 0.00218386 60 7 3
0.330387 0.0846907 0.0019508 59 7 3
0.330511 0.0849113 0.00227604 58 7 3
0.329995 0.0848905 0.0020164 58 7 3
0.33011 0.0851276 0.00232486 57 6 2
0.329632 0.0851116 0.00208531 57 7 3
0.329728 0.0853509 0.002391 58 7 3
0.329241 0.0853199 0.00216763 57 8 3
0.329338 0.08557 0.00247446 57 7 3
0.32885 0.0855454 0.00226463 57 7 4
0.328949 0.0857828 0.00257619 58 7 4
0.328456 0.0857181 0.0023414 58 7 4
0.328566 0.0859443 0.00268612 58 7 3
0.328091 0.0858865 0.00245121 59 8 4
0.328202 0.0860947 0.00278376 59 8 4
0.327785 0.0861237 0.00274314 60 8 3
0.327826 0.0861988 0.00287738 60 8 3
0.327436 0.0862518 0.0028969 60 8 4
0.327471 0.0863052 0.00298992 60 8 4
0.327112 0.0863923 0.00311186 61 8 4
0.327585 0.0865036 0.00332737 60 8 4
0.326616 0.0863065 0.00282611 61 9 4
0.326957 0.0861863 0.00267457 62 8 4
0.326469 0.0862172 0.00247935 61 9 5
0.326811 0.0860897 0.00232742 58 7 4
0.327157 0.0859528 0.00218228 58 7 4
0.3275 0.0858187 0.0020315 56 6 3
0.327302 0.0860674 0.0025416 60 8 4
0.327656 0.0859395 0.00238026 60 7 4
0.328011 0.085759 0.00222111 58 7 4
0.328368 0.0855665 0.00209533 57 6 4
0.328732 0.0853552 0.00195232 56 6 4
0.329088 0.0851231 0.00179233 56 6 4
0.329597 0.0850456 0.00199294 57 7 3
0.329446 0.0849114 0.00166837 56 6 3
0.329869 0.084741 0.00167597 56 6 3
0.329793 0.084696 0.00151228 55 6 4
0.330246 0.084552 0.00159932 57 6 4
0.32786 0.0856403 0.00188267 57 6 3
0.328212 0.0854402 0.00174795 53 6 3
0.328576 0.0852444 0.00158752 53 5 3
0.32893 0.085048 0.00144389 54 5 3
0.329285 0.0848376 0.0012983 52 6 3
0.329628 0.0846465 0.00114775 51 5 3
0.326126 0.0863084 0.00262824 62 8 5
0.326015 0.0862876 0.00238906 60 8 5
0.326291 0.0861907 0.00210802 58 7 4
0.325831 0.0863445 0.00202315 61 7 4
0.32569 0.0863711 0.00255597 62 9 5
0.325193 0.0864592 0.00236095 63 7 4
0.325507 0.0864163 0.00219044 63 7 4
0.32534 0.0865497 0.00185486 64 7 4
0.325658 0.0864848 0.00167842 63 7 4
0.325478 0.0866867 0.00135007 65 5 2
0.325014 0.0865988 0.00201866 64 7 4
0.325163 0.0867436 0.00151848 64 8 3
0.325395 0.0867852 0.00119193 64 5 3
0.324839 0.0867815 0.00168507 64 8 3
0.325088 0.0868315 0.00138825 62 6 3
0.325226 0.087007 0.000900004 64 6 3
0.324774 0.0868616 0.00157363 64 7 3
0.32492 0.0870623 0.00109752 64 6 4
0.325072 0.087313 0.000647264 67 7 4
0.324613 0.0870814 0.00127726 64 6 3
0.324765 0.0873295 0.000829574 65 7 4
0.324911 0.087638 0.000415483 69 8 5
0.33216 0.0842814 0.00224947 60 7 3
0.33177 0.0845151 0.00233272 59 7 3
0.331378 0.0847322 0.00241349 60 6 3
0.330986 0.084955 0.00247817 59 6 2
0.330606 0.0852435 0.00260991 59 7 2
0.330193 0.0854212 0.00262245 58 6 2
0.329803 0.0856617 0.00270777 57 6 2
0.329408 0.0858708 0.00279739 58 6 2
0.329029 0.0860569 0.00290145 58 7 2
0.328659 0.086199 0.00300247 59 7 2
0.328294 0.0863076 0.00309762 60 7 3
0.327937 0.0864206 0.0032095 60 8 3
0.332263 0.0845092 0.00251989 62 7 3
0.331842 0.0847027 0.00253561 60 7 2
0.331423 0.084876 0.00255293 59 6 2
0.33101 0.0850527 0.00258269 59 6 2
0.331082 0.0853421 0.00286048 60 6 2
0.330669 0.0855217 0.00287346 60 6 2
0.331131 0.0856737 0.0031162 62 6 1
0.330719 0.0858494 0.00314573 61 5 2
0.331181 0.0860121 0.00338736 63 6 1
0.330775 0.0861812 0.00341456 62 6 1
0.331206 0.0863568 0.00361787 65 6 1
0.330801 0.0864566 0.00361379 64 6 1
0.331209 0.0867048 0.00382532 69 6 2
0.330816 0.0868007 0.00382622 66 6 1
0.331229 0.0871162 0.0040444 71 7 1
0.330841 0.087154 0.00403856 69 6 1
0.331248 0.0874723 0.00423416 72 8 2
0.330859 0.0874973 0.00423962 70 7 1
0.331254 0.0878366 0.00441411 73 8 2
0.330259 0.0857173 0.00289244 59 6 2
0.329852 0.0859027 0.00291664 58 5 2
0.329458 0.0860456 0.00296145 57 6 2
0.329107 0.0863368 0.00322042 60 6 2
0.32876 0.0865082 0.00337847 61 6 2
0.328388 0.0865649 0.00341598 60 7 3
0.328029 0.0866479 0.00353785 60 7 2
0.328478 0.0868367 0.00375865 61 6 2
0.32891 0.087052 0.0039645 64 6 2
0.329341 0.0873571 0.0041987 65 6 2
0.329751 0.0876384 0.00438262 69 6 2
0.328842 0.086772 0.00367592 61 6 2
0.329204 0.0866962 0.00360577 60 6 2
0.329274 0.0869902 0.00388244 64 6 2
0.329642 0.0869152 0.00382323 64 6 2
0.329658 0.0870103 0.00389535 64 6 1
0.330031 0.0869557 0.00386103 66 6 2
0.330079 0.0872791 0.00409968 68 6 2
0.330458 0.0872186 0.00405728 69 7 2
0.330488 0.08757 0.00427905 72 7 2
0.330122 0.0876099 0.00432703 70 6 2
0.329707 0.087329 0.00413513 67 7 1
0.33043 0.0868836 0.00383932 67 6 1
0.33039 0.0865631 0.00361478 63 6 1
0.330368 0.0863503 0.0034519 64 6 2
0.330305 0.0860342 0.00317288 61 5 2
0.329912 0.0861974 0.00320545 61 6 2
0.329519 0.0863237 0.00325358 59 6 2
0.329134 0.0864189 0.00331513 60 6 2
0.32997 0.0865032 0.00349097 62 6 2
0.329585 0.086605 0.00353798 61 6 2
0.330016 0.086825 0.00375559 64 5 2
0.299345 0.0823119 0.0281072 69 7 3
0.299617 0.0826031 0.0280969 70 8 3
0.29938 0.0828189 0.0282535 70 6 2
0.304766 0.0891411 -0.00481339 34 5 4
0.305055 0.0890572 -0.00453371 25 4 3
0.30485 0.0893107 -0.00438385 28 4 3
0.291757 0.0860024 0.0166382 75 8 3
0.291694 0.0864193 0.0164974 73 9 3
0.29157 0.08678 0.016554 76 8 3
0.291767 0.0864747 0.0163283 72 8 3
0.291701 0.0868782 0.0161931 73 9 4
0.291771 0.0869367 0.0160345 71 9 3
0.291772 0.0873118 0.0159121 70 9 5
0.291873 0.0874089 0.01573 68 9 5
0.291742 0.0876761 0.0159837 66 7 5
0.291946 0.0877862 0.0156011 63 9 5
0.291917 0.0881053 0.0157241 63 8 4
0.292129 0.0881741 0.0153225 62 8 5
0.292115 0.0885082 0.0154924 60 8 5
0.292326 0.0885685 0.0150977 56 9 5
0.292289 0.0889004 0.0153436 55 6 4
0.292511 0.0889493 0.014925 52 8 4
0.292409 0.0892426 0.0153658 49 4 2
0.292604 0.0893388 0.0150443 49 5 3
0.292506 0.0895783 0.0154786 50 4 2
0.292709 0.0896698 0.0151408 47 5 3
0.292647 0.0898805 0.0155984 47 3 2
0.292861 0.0899693 0.0152572 45 4 2
0.292846 0.090161 0.0157421 46 4 2
0.293065 0.0902519 0.0153892 48 5 3
0.293075 0.0904313 0.0158908 46 4 3
0.293292 0.0905049 0.0155242 48 5 3
0.293258 0.0905527 0.0158059 48 5 3
0.293424 0.0905454 0.0153184 47 6 5
0.293519 0.090719 0.0156301 49 6 5
0.29381 0.0908554 0.0154592 52 7 4
0.293928 0.0910285 0.0157959 54 7 5
0.294212 0.0911579 0.0156227 59 9 6
0.294339 0.0913142 0.0159652 60 9 5
0.294629 0.0914402 0.0158029 62 9 6
0.294771 0.0915691 0.0161648 63 10 5
0.295067 0.0916775 0.0159953 65 10 6
0.295217 0.0917871 0.0163781 67 10 6
0.295443 0.09184 0.0160333 65 10 5
0.295587 0.0919249 0.0164003 68 11 6
0.295905 0.0920165 0.0162547 69 11 6
0.295364 0.0918721 0.0167569 72 12 7
0.295058 0.0917814 0.0169091 69 12 7
0.294756 0.0916875 0.0170685 70 12 8
0.294454 0.0915802 0.0172193 69 12 8
0.294155 0.0914622 0.017383 65 10 8
0.293861 0.0913558 0.0175475 63 10 7
0.293569 0.0912367 0.0177161 62 10 6
0.293277 0.0911143 0.0178766 59 9 5
0.292975 0.0910136 0.0180345 58 8 5
0.292683 0.0908932 0.0181955 54 6 4
0.292442 0.090828 0.0184768 53 6 4
0.292159 0.090758 0.0186835 54 6 4
0.29186 0.090684 0.0188627 52 6 3
0.29156 0.0905921 0.0190613 51 5 4
0.291296 0.0905074 0.0192847 52 5 4
0.291017 0.0903963 0.0194832 51 4 3
0.290727 0.090307 0.0196644 51 5 3
0.290444 0.0902125 0.019856 51 4 3
0.290167 0.0901297 0.0200561 49 3 2
0.289882 0.0900406 0.0202436 51 2 2
0.289594 0.0899477 0.020444 51 2 1
0.289319 0.089856 0.0206323 50 2 1
0.289041 0.0897597 0.0208467 52 4 2
0.288764 0.0896547 0.0210659 51 3 2
0.288494 0.0895818 0.0213127 54 2 2
0.288433 0.0892505 0.0210672 54 3 2
0.288692 0.0893732 0.0208171 53 3 2
0.288967 0.0894804 0.0205806 51 3 2
0.289232 0.0895673 0.0203563 53 3 2
0.289517 0.0896716 0.0201393 51 3 1
0.289479 0.0893838 0.0198889 55 4 1
0.289724 0.0894639 0.0196611 51 1 1
0.289992 0.0895656 0.0194291 50 2 1
0.290273 0.0896568 0.0191862 51 1 0
0.289793 0.0897717 0.0199365 49 2 1
0.290072 0.0898598 0.0197214 50 2 1
0.290345 0.0899566 0.0195124 49 3 1
0.290625 0.0900551 0.0193146 49 3 2
0.290564 0.0897872 0.0190097 48 1 0
0.290809 0.0898804 0.0187836 50 2 1
0.290748 0.0895857 0.0185004 50 1 0
0.291079 0.0899844 0.0185631 47 2 1
0.291002 0.0896977 0.0182595 50 2 0
0.291355 0.090088 0.0183362 46 3 2
0.291278 0.0898163 0.0180303 47 1 1
0.291629 0.0901975 0.0181215 46 3 2
0.291531 0.0899204 0.017766 46 2 1
0.291896 0.0903069 0.017902 48 4 3
0.291792 0.0900444 0.0175267 46 3 2
0.29217 0.0904032 0.0176716 47 4 3
0.292058 0.0901477 0.0172758 46 3 2
0.292427 0.0905067 0.0174346 50 4 3
0.292315 0.0902445 0.0170455 47 3 2
0.292701 0.0905914 0.0171882 49 5 3
0.292584 0.0903659 0.0167997 48 4 2
0.292957 0.0906921 0.0169413 50 6 3
0.292841 0.0904799 0.0165707 46 4 3
0.293189 0.0907878 0.0166621 53 7 5
0.29309 0.0905937 0.01632 49 4 3
0.293467 0.0909322 0.0164771 55 7 5
0.293368 0.0907484 0.0161355 51 6 4
0.293753 0.09107 0.0162985 56 7 5
0.293643 0.0908958 0.015961 51 6 4
0.294042 0.0911978 0.0161338 57 8 5
0.292838 0.0903384 0.0162275 47 3 2
0.292588 0.0902774 0.0165585 46 4 2
0.292307 0.0901931 0.0169011 45 3 2
0.292049 0.09012 0.0172356 45 3 2
0.291834 0.0898341 0.0170886 46 2 1
0.291707 0.0897707 0.0172031 46 3 1
0.291685 0.0895366 0.0169795 50 2 1
0.291423 0.0894541 0.0173216 51 2 1
0.291587 0.0892306 0.0168605 52 3 2
0.291332 0.0891488 0.0171951 53 3 2
0.291513 0.088915 0.0167422 54 4 2
0.291255 0.0888395 0.017078 58 4 2
0.29123 0.0885231 0.0169656 61 4 3
0.291067 0.0890789 0.0175201 55 4 2
0.291173 0.0893831 0.0176424 51 2 1
0.291214 0.0895154 0.0177135 50 2 1
0.291473 0.0896348 0.0174553 48 1 1
0.290943 0.0893923 0.0179764 52 2 1
0.29088 0.0893133 0.0179743 52 2 1
0.292613 0.0900748 0.0160829 47 3 2
0.292363 0.0899945 0.0164311 48 4 2
0.292098 0.0899149 0.0167708 46 3 2
0.29243 0.0897891 0.015952 48 3 2
0.292198 0.0897005 0.016294 49 2 1
0.291956 0.0896216 0.0166352 48 2 1
0.292294 0.0894863 0.0158235 52 3 2
0.292083 0.0894024 0.0161726 52 3 2
0.291842 0.0893135 0.016521 51 3 1
0.2922 0.0891744 0.0157227 54 4 3
0.291993 0.0890911 0.0160626 53 4 2
0.291759 0.0889864 0.0164083 56 4 2
0.292091 0.0888279 0.0156903 61 7 4
0.291896 0.0887496 0.0160023 60 6 4
0.291701 0.088661 0.0163003 58 5 3
0.291478 0.0885965 0.0166265 61 4 3
0.291464 0.0882711 0.0165289 65 7 3
0.291232 0.0881896 0.0168626 63 5 3
0.291258 0.0878506 0.0167737 70 7 3
0.291903 0.0884314 0.0158438 62 7 4
0.291695 0.0883502 0.016175 62 6 4
0.291704 0.0880133 0.0160874 67 7 4
0.291474 0.087936 0.016433 67 6 3
0.291513 0.0875923 0.0163388 71 8 4
0.291309 0.0875059 0.0166902 71 7 3
0.291425 0.0871438 0.0166225 77 8 4
0.29159 0.0872404 0.0162537 72 8 4
0.290916 0.0901467 0.0191224 49 3 2
0.29119 0.0902367 0.0189154 48 3 2
0.291458 0.090355 0.018697 49 4 3
0.291727 0.0904469 0.0184755 48 4 3
0.292015 0.0905393 0.0182639 51 4 3
0.292291 0.0906326 0.018059 49 5 4
0.292572 0.0907283 0.0178549 51 6 4
0.292855 0.0908592 0.0176802 55 7 5
0.292742 0.0906812 0.0173439 50 6 3
0.29315 0.0909781 0.0175242 55 7 5
0.293034 0.0908139 0.0171748 51 6 4
0.293435 0.0911085 0.0173512 59 8 5
0.293315 0.0909484 0.0170038 56 7 5
0.293723 0.0912356 0.0171989 60 8 6
0.293595 0.0910888 0.0168307 57 7 5
0.294012 0.0913671 0.0170191 63 10 7
0.293875 0.091234 0.0166586 59 8 5
0.294312 0.0914908 0.0168567 65 11 7
0.294162 0.0913673 0.0164807 60 9 6
0.294608 0.0915962 0.0166956 65 10 6
0.294468 0.091468 0.0163208 63 9 6
0.294909 0.0916973 0.0165277 67 11 6
0.292312 0.0883067 0.015007 57 8 5
0.29248 0.0886599 0.0148602 50 10 5
0.292576 0.0887294 0.014679 45 5 2
0.336635 0.0844873 -0.00236365 80 25 13
