ply
format ascii 1.0
element vertex 1756
property float x
property float y
property float z
end_header
0.264884 0.210499 0.113634
0.265484 0.210386 0.113714
0.266084 0.210274 0.113793
0.266632 0.210192 0.113769
0.26718 0.21011 0.113745
0.267727 0.210028 0.113721
0.268223 0.209976 0.113593
0.268718 0.209924 0.113466
0.269213 0.209872 0.113338
0.269656 0.209851 0.113107
0.270152 0.209799 0.11298
0.270595 0.209778 0.112749
0.271038 0.209756 0.112519
0.271429 0.209764 0.112184
0.271819 0.209773 0.11185
0.27221 0.209783 0.111516
0.272601 0.209791 0.111182
0.272991 0.2098 0.110848
0.273382 0.209809 0.110514
0.273773 0.209817 0.11018
0.274111 0.209857 0.109742
0.274502 0.209865 0.109408
0.274945 0.209843 0.109177
0.275283 0.209882 0.10874
0.275674 0.209891 0.108406
0.276064 0.2099 0.108072
0.276403 0.209939 0.107634
0.276741 0.209977 0.107197
0.277027 0.210047 0.106656
0.277313 0.210116 0.106115
0.277599 0.210186 0.105574
0.277832 0.210285 0.10493
0.278118 0.210355 0.104389
0.278352 0.210454 0.103745
0.278585 0.210554 0.103101
0.278753 0.210684 0.102326
0.278972 0.210783 0.101655
0.279024 0.210975 0.100654
0.279188 0.211105 0.0998728
0.279184 0.211327 0.0987615
0.279236 0.211518 0.0977601
0.279344 0.211679 0.0968689
0.279508 0.211809 0.0960878
0.279671 0.211939 0.0953066
0.279947 0.212009 0.0947456
0.280278 0.212048 0.0942946
0.280553 0.212117 0.0937337
0.280885 0.212156 0.0932827
0.281272 0.212166 0.092942
0.281603 0.212205 0.092491
0.281935 0.212244 0.09204
0.28221 0.212313 0.091479
0.282541 0.212352 0.0910279
0.282817 0.212422 0.090467
0.283036 0.212522 0.0897958
0.283312 0.212591 0.0892349
0.283531 0.212692 0.0885639
0.283695 0.212822 0.0877827
0.283859 0.212952 0.0870016
0.284134 0.213022 0.0864406
0.28441 0.213092 0.0858796
0.284685 0.21316 0.0853184
0.284849 0.213291 0.0845372
0.285124 0.21336 0.0839763
0.285399 0.21343 0.0834153
0.285563 0.21356 0.0826341
0.285783 0.213661 0.0819631
0.286002 0.21376 0.081292
0.28611 0.213921 0.0804008
0.286106 0.214143 0.0792895
0.286326 0.214242 0.0786183
0.286378 0.214434 0.0776171
0.286151 0.214777 0.0760653
0.286091 0.215029 0.0748441
0.286199 0.215189 0.0739526
0.285915 0.215562 0.072291
0.285912 0.215784 0.0711795
0.28507 0.216461 0.068417
0.285401 0.2165 0.0679663
0.285732 0.216539 0.0675153
0.286064 0.216578 0.0670644
0.286451 0.216588 0.0667235
0.287006 0.216505 0.0667128
0.287337 0.216544 0.066262
0.287668 0.216584 0.0658109
0.288167 0.216531 0.0656902
0.28861 0.21651 0.0654594
0.289165 0.216428 0.0654489
0.289608 0.216406 0.065218
0.290218 0.216293 0.0653174
0.290494 0.216363 0.0647565
0.290993 0.216311 0.0646356
0.291492 0.216259 0.0645151
0.291711 0.216359 0.0638439
0.292099 0.216368 0.0635031
0.292542 0.216347 0.0632723
0.292929 0.216355 0.0629313
0.29326 0.216395 0.0624806
0.293703 0.216373 0.0622498
0.293979 0.216443 0.0616888
0.293584 0.216877 0.0598069
0.294082 0.216825 0.0596861
0.294302 0.216925 0.0590151
0.301223 0.216671 0.0549921
0.301834 0.216559 0.0550917
0.302947 0.216172 0.0561817
0.303222 0.216242 0.0556208
0.303554 0.216281 0.0551698
0.304723 0.215864 0.0563699
0.305333 0.215752 0.0564693
0.306056 0.215578 0.0567889
0.306834 0.215375 0.0572187
0.307389 0.215292 0.0572079
0.308056 0.21515 0.0574175
0.308778 0.214976 0.0577372
0.309388 0.214864 0.0578366
0.310334 0.214569 0.0585965
0.310889 0.214486 0.0585857
0.311499 0.214373 0.0586852
0.31211 0.214262 0.0587848
0.312665 0.214179 0.0587739
0.313443 0.213975 0.0592037
0.313998 0.213892 0.059193
0.314608 0.21378 0.0592925
0.315107 0.213728 0.0591719
0.315718 0.213615 0.0592712
0.316273 0.213533 0.0592606
0.316828 0.213451 0.05925
0.317438 0.213338 0.0593494
0.318049 0.213226 0.0594488
0.318548 0.213173 0.059328
0.319214 0.213031 0.0595376
0.319769 0.212949 0.0595271
0.320212 0.212927 0.0592963
0.320767 0.212844 0.0592855
0.321266 0.212793 0.0591649
0.321876 0.21268 0.0592643
0.322375 0.212628 0.0591435
0.32293 0.212546 0.0591329
0.323429 0.212494 0.0590123
0.323928 0.212442 0.0588915
0.324371 0.212421 0.0586607
0.32487 0.212368 0.0585399
0.325369 0.212317 0.0584193
0.325867 0.212265 0.0582985
0.326366 0.212212 0.0581777
0.326753 0.212222 0.057837
0.327252 0.212169 0.0577162
0.327695 0.212148 0.0574854
0.328027 0.212188 0.0570346
0.328414 0.212196 0.0566936
0.328913 0.212145 0.0565731
0.329356 0.212123 0.0563423
0.329743 0.212131 0.0560013
0.330242 0.21208 0.0558807
0.330629 0.212088 0.0555397
0.33096 0.212128 0.055089
0.331403 0.212107 0.0548582
0.331902 0.212054 0.0547374
0.332289 0.212064 0.0543966
0.332788 0.212011 0.0542758
0.333175 0.212021 0.053935
0.333618 0.211999 0.0537043
0.334062 0.211977 0.0534735
0.334504 0.211956 0.0532427
0.334948 0.211934 0.0530119
0.335391 0.211913 0.0527811
0.335778 0.211921 0.0524401
0.336221 0.211899 0.0522093
0.336608 0.211909 0.0518685
0.337051 0.211887 0.0516378
0.337494 0.211866 0.051407
0.337769 0.211935 0.050846
0.338157 0.211944 0.050505
0.338599 0.211922 0.0502743
0.338987 0.211931 0.0499335
0.339318 0.21197 0.0494825
0.339649 0.212009 0.0490314
0.340037 0.212018 0.0486907
0.340368 0.212057 0.0482397
0.340588 0.212158 0.0475688
0.340974 0.212166 0.0472278
0.341194 0.212266 0.0465568
0.341358 0.212397 0.0457757
0.341577 0.212496 0.0451044
0.341518 0.212749 0.0438831
0.341123 0.213182 0.0420012
0.341286 0.213313 0.0412201
0.341227 0.213565 0.0399986
0.341726 0.213512 0.0398778
0.342225 0.21346 0.039757
0.342612 0.213469 0.0394163
0.242613 0.218701 0.0934063
0.244005 0.218162 0.0950464
0.245621 0.217502 0.0971269
0.246511 0.217237 0.0977766
0.247122 0.217124 0.0978761
0.252424 0.214454 0.10722
0.253369 0.214159 0.10798
0.254427 0.213802 0.10896
0.255317 0.213538 0.109609
0.256095 0.213334 0.110039
0.256817 0.213159 0.110358
0.257651 0.212925 0.110898
0.258318 0.212782 0.111108
0.25904 0.212608 0.111427
0.259874 0.212373 0.111966
0.260708 0.212139 0.112506
0.261465 0.211935 0.112895
0.26217 0.211762 0.113181
0.262822 0.211619 0.113364
0.263475 0.211476 0.113546
0.264075 0.211364 0.113626
0.264675 0.211251 0.113705
0.265327 0.211108 0.113887
0.265875 0.211026 0.113863
0.266423 0.210944 0.113839
0.267023 0.210831 0.113918
0.267571 0.210749 0.113894
0.268066 0.210697 0.113767
0.268614 0.210614 0.113742
0.269057 0.210593 0.113512
0.269552 0.210542 0.113384
0.269995 0.21052 0.113154
0.27049 0.210468 0.113026
0.270934 0.210446 0.112795
0.271324 0.210455 0.112461
0.271767 0.210434 0.11223
0.272106 0.210473 0.111793
0.272549 0.210451 0.111562
0.272939 0.21046 0.111228
0.273278 0.210499 0.110791
0.273668 0.210508 0.110456
0.274006 0.210547 0.110019
0.274345 0.210586 0.109582
0.274788 0.210565 0.109351
0.275126 0.210604 0.108913
0.275465 0.210643 0.108476
0.275803 0.210682 0.108038
0.276141 0.210722 0.107601
0.276532 0.21073 0.107267
0.27687 0.21077 0.106829
0.277104 0.210869 0.106185
0.277337 0.210969 0.105541
0.277623 0.211038 0.105
0.27791 0.211108 0.10446
0.278091 0.211238 0.103712
0.278317 0.211338 0.103055
0.278537 0.211438 0.102384
0.278645 0.211599 0.101492
0.278809 0.21173 0.100711
0.278917 0.211891 0.0998201
0.279024 0.212052 0.098929
0.279021 0.212274 0.0978179
0.279128 0.212435 0.0969266
0.279236 0.212596 0.0960355
0.279512 0.212666 0.0954746
0.279732 0.212766 0.0948036
0.280063 0.212805 0.0943526
0.280394 0.212845 0.0939019
0.280726 0.212884 0.0934509
0.281113 0.212893 0.0931102
0.281444 0.212932 0.0926592
0.28172 0.213002 0.0920983
0.282051 0.213042 0.0916475
0.282382 0.213081 0.0911964
0.282658 0.213151 0.0906355
0.282933 0.21322 0.0900745
0.283153 0.213321 0.0894036
0.283372 0.213421 0.0887326
0.283592 0.213521 0.0880615
0.283812 0.213621 0.0873905
0.284031 0.213722 0.0867196
0.284251 0.213822 0.0860487
0.284526 0.213892 0.0854876
0.284802 0.213962 0.0849266
0.285021 0.214061 0.0842555
0.285297 0.214131 0.0836945
0.285461 0.214262 0.0829136
0.28568 0.214362 0.0822427
0.285844 0.214493 0.0814614
0.286064 0.214593 0.0807905
0.286116 0.214785 0.0797894
0.286224 0.214946 0.0788982
0.286332 0.215107 0.0780071
0.28616 0.21542 0.0765655
0.286045 0.215703 0.0752343
0.286153 0.215864 0.0743431
0.285814 0.216269 0.0725716
0.285866 0.21646 0.0715705
0.285248 0.217017 0.0692486
0.285467 0.217117 0.0685774
0.285631 0.217248 0.0677966
0.285851 0.217348 0.0671256
0.286015 0.217478 0.0663445
0.286123 0.217639 0.0654532
0.286566 0.217618 0.0652224
0.287064 0.217566 0.0651016
0.287452 0.217575 0.0647608
0.287616 0.217706 0.0639799
0.288114 0.217654 0.0638591
0.288502 0.217663 0.0635184
0.288945 0.217641 0.0632875
0.289388 0.21762 0.0630568
0.289551 0.21775 0.0622756
0.290274 0.217577 0.0625953
0.290828 0.217494 0.0625844
0.291439 0.217381 0.0626838
0.291435 0.217603 0.0615727
0.290817 0.21816 0.0592508
0.291651 0.217925 0.0597904
0.304778 0.217148 0.0536478
0.306115 0.216639 0.0551778
0.306893 0.216435 0.0556075
0.307727 0.216201 0.0561473
0.308393 0.216058 0.0563566
0.309115 0.215884 0.056676
0.30967 0.215802 0.0566654
0.310337 0.215658 0.0568747
0.311171 0.215424 0.0574146
0.31167 0.215372 0.0572938
0.312392 0.215198 0.0576132
0.313114 0.215024 0.0579327
0.313837 0.214851 0.0582523
0.314335 0.214799 0.0581315
0.314946 0.214686 0.0582309
0.315612 0.214542 0.0584402
0.316111 0.21449 0.0583195
0.316666 0.214408 0.058309
0.317165 0.214356 0.0581881
0.317831 0.214213 0.0583977
0.318442 0.2141 0.0584971
0.319052 0.213987 0.0585963
0.319663 0.213874 0.0586957
0.320162 0.213823 0.0585751
0.320717 0.213739 0.0585643
0.321216 0.213688 0.0584437
0.321714 0.213636 0.0583229
0.322213 0.213584 0.0582021
0.322712 0.213532 0.0580815
0.323267 0.213449 0.0580707
0.32371 0.213428 0.0578399
0.324209 0.213376 0.0577194
0.324708 0.213324 0.0575985
0.325262 0.213241 0.0575878
0.325705 0.213219 0.057357
0.326204 0.213168 0.0572365
0.326591 0.213176 0.0568954
0.326979 0.213186 0.0565547
0.327422 0.213164 0.0563239
0.327865 0.213143 0.0560931
0.328308 0.213121 0.0558623
0.328751 0.213099 0.0556315
0.329138 0.213109 0.0552907
0.329693 0.213026 0.05528
0.330024 0.213066 0.0548291
0.330467 0.213044 0.0545983
0.33091 0.213023 0.0543675
0.331353 0.213001 0.0541367
0.331852 0.212949 0.054016
0.332239 0.212958 0.0536752
0.332627 0.212967 0.0533345
0.333013 0.212975 0.0529934
0.333513 0.212924 0.0528729
0.333956 0.212902 0.0526421
0.334343 0.212911 0.0523011
0.334786 0.212889 0.0520703
0.335229 0.212868 0.0518395
0.335616 0.212877 0.0514987
0.336115 0.212825 0.0513779
0.336502 0.212834 0.0510371
0.336833 0.212873 0.0505862
0.33722 0.212882 0.0502454
0.337719 0.21283 0.0501246
0.338051 0.21287 0.0496738
0.338438 0.212878 0.0493328
0.338825 0.212887 0.0489921
0.339156 0.212926 0.0485411
0.339376 0.213026 0.0478702
0.339651 0.213096 0.0473092
0.339927 0.213166 0.0467482
0.340258 0.213206 0.0462975
0.340254 0.213427 0.0451861
0.340251 0.21365 0.044075
0.340303 0.213841 0.0430736
0.339573 0.214459 0.0405318
0.33996 0.214467 0.0401908
0.340292 0.214507 0.0397401
0.340679 0.214516 0.0393993
0.341066 0.214524 0.0390583
0.341509 0.214503 0.0388275
0.24212 0.219622 0.0929169
0.243178 0.219265 0.0938966
0.244235 0.218908 0.0948762
0.245962 0.218185 0.0971763
0.246908 0.217889 0.0979358
0.247295 0.217898 0.097595
0.252764 0.215131 0.107268
0.253653 0.214865 0.107917
0.254711 0.214509 0.108897
0.2556 0.214243 0.109547
0.256434 0.214007 0.110086
0.257156 0.213833 0.110405
0.257935 0.213629 0.110835
0.258657 0.213454 0.111154
0.259546 0.213189 0.111804
0.260436 0.212923 0.112453
0.261204 0.212719 0.112862
0.261909 0.212546 0.113148
0.262613 0.212372 0.113434
0.263213 0.212259 0.113513
0.263866 0.212116 0.113696
0.264466 0.212004 0.113775
0.265066 0.211891 0.113854
0.265666 0.211778 0.113933
0.266266 0.211665 0.114013
0.266814 0.211582 0.113988
0.267362 0.211501 0.113964
0.267909 0.211418 0.11394
0.268405 0.211367 0.113813
0.2689 0.211315 0.113685
0.269395 0.211262 0.113558
0.269838 0.211241 0.113327
0.270334 0.211189 0.1132
0.270777 0.211167 0.112969
0.27122 0.211146 0.112738
0.27161 0.211155 0.112404
0.272054 0.211133 0.112173
0.272444 0.211142 0.111839
0.272835 0.211151 0.111505
0.273226 0.211159 0.111171
0.273564 0.211199 0.110733
0.273902 0.211238 0.110296
0.274241 0.211278 0.109858
0.274579 0.211317 0.109421
0.274917 0.211356 0.108984
0.275308 0.211365 0.10865
0.275594 0.211434 0.108109
0.275932 0.211474 0.107671
0.276323 0.211482 0.107337
0.276609 0.211553 0.106796
0.276895 0.211622 0.106256
0.277129 0.211722 0.105612
0.277415 0.211792 0.105071
0.277701 0.211862 0.10453
0.277934 0.211961 0.103886
0.278157 0.212062 0.103222
0.278321 0.212193 0.102441
0.278485 0.212324 0.10166
0.278537 0.212516 0.100659
0.278701 0.212647 0.0998779
0.278753 0.212839 0.0988767
0.278805 0.213031 0.0978756
0.278913 0.213192 0.0969847
0.279077 0.213324 0.0962038
0.279241 0.213454 0.0954226
0.279517 0.213525 0.0948619
0.279792 0.213594 0.094301
0.280123 0.213633 0.0938499
0.280455 0.213673 0.0933992
0.280842 0.213682 0.0930584
0.281173 0.213721 0.0926075
0.281505 0.213761 0.0921567
0.281836 0.2138 0.0917057
0.282167 0.21384 0.091255
0.282499 0.213879 0.090804
0.282718 0.21398 0.0901331
0.282994 0.21405 0.0895724
0.283214 0.214151 0.0889014
0.283433 0.214251 0.0882305
0.283653 0.214352 0.0875594
0.283929 0.214421 0.0869985
0.284148 0.214522 0.0863275
0.284424 0.214592 0.0857666
0.284699 0.214661 0.0852056
0.284919 0.214762 0.0845347
0.285138 0.214862 0.0838638
0.285358 0.214963 0.0831928
0.285578 0.215063 0.0825219
0.285742 0.215194 0.0817409
0.285906 0.215326 0.08096
0.285958 0.215517 0.0799589
0.286121 0.215648 0.079178
0.286118 0.215871 0.0780668
0.28617 0.216063 0.0770657
0.286166 0.216285 0.0759546
0.286051 0.216569 0.0746235
0.28588 0.216883 0.0731823
0.285764 0.217167 0.0718513
0.285482 0.217542 0.0701899
0.285478 0.217764 0.0690789
0.285753 0.217834 0.0685179
0.285526 0.218178 0.0669667
0.285523 0.218401 0.0658555
0.285351 0.218715 0.0644142
0.285571 0.218815 0.0637433
0.286014 0.218794 0.0635125
0.286346 0.218834 0.0630617
0.286956 0.218721 0.0631611
0.287399 0.218699 0.0629303
0.287619 0.2188 0.0622594
0.288173 0.218717 0.0622486
0.288337 0.218848 0.0614677
0.288389 0.21904 0.0604665
0.288721 0.21908 0.0600158
0.308121 0.21708 0.0551966
0.308452 0.21712 0.0547458
0.309454 0.216793 0.0556153
0.309841 0.216802 0.0552746
0.310507 0.216659 0.0554839
0.311229 0.216484 0.0558032
0.311728 0.216432 0.0556825
0.312674 0.216136 0.0564419
0.313284 0.216023 0.0565414
0.314119 0.215788 0.0570809
0.314841 0.215614 0.0574002
0.315451 0.215501 0.0574997
0.31595 0.215449 0.0573789
0.316449 0.215396 0.0572581
0.317115 0.215253 0.0574675
0.31767 0.215171 0.0574569
0.318169 0.215119 0.0573361
0.318891 0.214944 0.0576554
0.31939 0.214893 0.0575348
0.32 0.214779 0.057634
0.320555 0.214697 0.0576234
0.32111 0.214614 0.0576126
0.321609 0.214562 0.0574917
0.322163 0.21448 0.0574812
0.322606 0.214458 0.0572504
0.323105 0.214406 0.0571296
0.32366 0.214324 0.057119
0.324159 0.214272 0.0569982
0.324546 0.214281 0.0566574
0.324989 0.214259 0.0564266
0.325544 0.214176 0.0564158
0.326043 0.214124 0.056295
0.326374 0.214164 0.0558443
0.326817 0.214142 0.0556135
0.327316 0.21409 0.0554927
0.327703 0.214099 0.0551519
0.328146 0.214078 0.0549211
0.328645 0.214026 0.0548003
0.329088 0.214004 0.0545695
0.329419 0.214044 0.0541188
0.329918 0.213991 0.053998
0.330361 0.21397 0.0537672
0.330804 0.213948 0.0535364
0.331247 0.213927 0.0533056
0.331635 0.213936 0.0529649
0.332134 0.213884 0.052844
0.332521 0.213893 0.0525033
0.332964 0.213872 0.0522725
0.333463 0.213819 0.0521517
0.333906 0.213798 0.0519209
0.334293 0.213807 0.0515801
0.334736 0.213785 0.0513494
0.335179 0.213764 0.0511186
0.335566 0.213772 0.0507775
0.335953 0.213781 0.0504368
0.33634 0.21379 0.0500961
0.336728 0.2138 0.0497553
0.337171 0.213778 0.0495245
0.337558 0.213786 0.0491835
0.337777 0.213887 0.0485126
0.337997 0.213988 0.0478419
0.338105 0.214149 0.0469507
0.338325 0.21425 0.0462798
0.338377 0.214441 0.0452787
0.338932 0.214359 0.0452681
0.338928 0.214582 0.044157
0.339148 0.214682 0.043486
0.339479 0.214721 0.043035
0.339029 0.215188 0.0410436
0.339248 0.215289 0.0403729
0.339245 0.215512 0.0392618
0.339799 0.215429 0.039251
0.339963 0.21556 0.03847
0.242295 0.220399 0.0926369
0.243575 0.219919 0.0940566
0.244911 0.219409 0.0955861
0.246359 0.218837 0.0973357
0.247193 0.218601 0.097875
0.247469 0.218672 0.0973143
0.252434 0.216174 0.105995
0.254105 0.21548 0.108185
0.25505 0.215183 0.108944
0.255884 0.214947 0.109483
0.256774 0.214682 0.110133
0.25744 0.214538 0.110342
0.25833 0.214271 0.110992
0.258996 0.214128 0.111201
0.260109 0.213739 0.11229
0.260943 0.213504 0.11283
0.261647 0.21333 0.113116
0.262352 0.213156 0.113401
0.262952 0.213043 0.11348
0.263552 0.21293 0.11356
0.264257 0.212756 0.113845
0.264805 0.212674 0.113821
0.265405 0.212561 0.1139
0.266005 0.212448 0.11398
0.266552 0.212365 0.113955
0.267152 0.212252 0.114034
0.2677 0.21217 0.11401
0.268248 0.212088 0.113986
0.268743 0.212035 0.113859
0.269186 0.212014 0.113628
0.269682 0.211962 0.1135
0.270125 0.21194 0.11327
0.27062 0.211888 0.113142
0.271063 0.211866 0.112911
0.271454 0.211876 0.112577
0.271897 0.211854 0.112346
0.272287 0.211863 0.112012
0.272678 0.211872 0.111678
0.273069 0.211881 0.111344
0.273407 0.21192 0.110907
0.273798 0.211929 0.110573
0.274084 0.211999 0.110032
0.274422 0.212039 0.109595
0.274761 0.212078 0.109157
0.275099 0.212117 0.10872
0.275438 0.212157 0.108283
0.275776 0.212196 0.107845
0.276114 0.212236 0.107408
0.276348 0.212336 0.106763
0.276686 0.212375 0.106326
0.276972 0.212445 0.105785
0.277206 0.212546 0.105141
0.277439 0.212646 0.104497
0.277722 0.212716 0.10395
0.277886 0.212847 0.103169
0.277994 0.213009 0.102278
0.278158 0.21314 0.101497
0.278322 0.213271 0.100716
0.27843 0.213433 0.0998254
0.278482 0.213626 0.0988245
0.27859 0.213788 0.0979336
0.278698 0.21395 0.0970427
0.278862 0.214081 0.0962618
0.27897 0.214243 0.0953709
0.279246 0.214313 0.0948099
0.279577 0.214353 0.0943592
0.279853 0.214422 0.0937982
0.280184 0.214462 0.0933475
0.280571 0.214471 0.0930067
0.280903 0.214511 0.092556
0.281234 0.21455 0.092105
0.281565 0.21459 0.0916542
0.281897 0.21463 0.0912035
0.282228 0.214669 0.0907525
0.28256 0.214709 0.0903018
0.282779 0.21481 0.0896308
0.283055 0.21488 0.08907
0.28333 0.21495 0.0885091
0.28355 0.215051 0.0878382
0.283826 0.215121 0.0872775
0.284101 0.215191 0.0867165
0.284321 0.215292 0.0860458
0.284596 0.215362 0.0854848
0.284761 0.215493 0.0847039
0.285036 0.215564 0.0841432
0.285311 0.215634 0.0835823
0.285475 0.215765 0.0828013
0.285583 0.215927 0.0819104
0.285803 0.216028 0.0812397
0.285911 0.21619 0.0803488
0.285963 0.216382 0.0793477
0.286127 0.216513 0.0785668
0.28618 0.216706 0.0775659
0.28612 0.21696 0.076345
0.286005 0.217244 0.075014
0.286002 0.217467 0.0739031
0.285495 0.217965 0.071802
0.285548 0.218157 0.0708009
0.285767 0.218258 0.0701302
0.285596 0.218573 0.0686891
0.285202 0.21901 0.0668079
0.284249 0.219753 0.0638267
0.284525 0.219823 0.0632658
0.284856 0.219863 0.062815
0.285132 0.219932 0.062254
0.285463 0.219972 0.0618033
0.285292 0.220287 0.0603622
0.285847 0.220204 0.0603515
0.287012 0.220008 0.06044
0.31223 0.217472 0.0538408
0.312897 0.217329 0.0540503
0.31334 0.217307 0.0538195
0.314118 0.217102 0.0542488
0.315677 0.21647 0.0562186
0.316232 0.216387 0.0562077
0.316898 0.216243 0.0564171
0.317509 0.21613 0.0565162
0.318008 0.216077 0.0563954
0.318674 0.215934 0.0566048
0.319229 0.215852 0.0565942
0.319895 0.215707 0.0568033
0.32045 0.215625 0.0567928
0.320949 0.215573 0.056672
0.321503 0.21549 0.0566611
0.321946 0.215468 0.0564304
0.322445 0.215416 0.0563095
0.322888 0.215394 0.0560788
0.323387 0.215342 0.0559579
0.32383 0.215321 0.0557272
0.324385 0.215239 0.0557166
0.324828 0.215217 0.0554858
0.325271 0.215195 0.055255
0.32577 0.215143 0.0551342
0.326213 0.215122 0.0549034
0.326767 0.215039 0.0548926
0.327155 0.215048 0.0545518
0.327598 0.215026 0.054321
0.328041 0.215005 0.0540903
0.328539 0.214952 0.0539695
0.328927 0.214962 0.0536286
0.32937 0.21494 0.0533979
0.329813 0.214919 0.0531671
0.330256 0.214897 0.0529363
0.330531 0.214968 0.0523756
0.331086 0.214885 0.0523647
0.331585 0.214832 0.052244
0.331972 0.214842 0.0519032
0.332471 0.214789 0.0517824
0.332858 0.214799 0.0514416
0.333301 0.214777 0.0512108
0.333744 0.214755 0.0509801
0.334131 0.214765 0.0506393
0.33463 0.214712 0.0505185
0.334962 0.214752 0.0500677
0.335293 0.214791 0.0496168
0.33568 0.2148 0.0492759
0.336067 0.21481 0.0489353
0.336455 0.214819 0.0485945
0.336507 0.215012 0.0475936
0.336782 0.215081 0.0470326
0.337058 0.215151 0.0464717
0.337222 0.215283 0.0456909
0.337442 0.215384 0.0450201
0.337773 0.215424 0.0445693
0.33816 0.215432 0.0442283
0.338045 0.215717 0.0428975
0.338376 0.215756 0.0424465
0.338205 0.21607 0.0410054
0.338257 0.216263 0.0400045
0.338589 0.216303 0.0395538
0.243805 0.220666 0.0938866
0.245308 0.220062 0.0957458
0.246589 0.219581 0.0971652
0.247478 0.219314 0.0978142
0.247698 0.219415 0.0971435
0.253555 0.216422 0.107583
0.254612 0.216063 0.108562
0.255334 0.215889 0.108882
0.256279 0.215592 0.109641
0.257113 0.215356 0.11018
0.257779 0.215211 0.110389
0.258725 0.214914 0.111148
0.259503 0.214709 0.111578
0.26056 0.214351 0.112557
0.261334 0.214145 0.112979
0.262039 0.213971 0.113265
0.262691 0.213827 0.113448
0.263291 0.213714 0.113527
0.263943 0.213571 0.113709
0.264543 0.213457 0.113788
0.265143 0.213344 0.113867
0.265744 0.213231 0.113947
0.266291 0.213148 0.113922
0.266891 0.213035 0.114001
0.267439 0.212952 0.113977
0.267987 0.21287 0.113953
0.268482 0.212817 0.113825
0.268977 0.212766 0.113698
0.269473 0.212714 0.113571
0.269968 0.212662 0.113443
0.270411 0.21264 0.113212
0.270854 0.212619 0.112982
0.271297 0.212597 0.112751
0.27174 0.212576 0.11252
0.272183 0.212554 0.112289
0.272574 0.212563 0.111955
0.272965 0.212572 0.111621
0.273303 0.212611 0.111184
0.273641 0.212651 0.110746
0.27398 0.21269 0.110309
0.274318 0.21273 0.109872
0.274604 0.2128 0.109331
0.274942 0.212839 0.108893
0.275281 0.212879 0.108456
0.275619 0.212919 0.108019
0.275905 0.212989 0.107478
0.276191 0.213058 0.106937
0.27653 0.213098 0.1065
0.276763 0.213199 0.105856
0.27705 0.213269 0.105315
0.277283 0.213369 0.104671
0.277451 0.213501 0.103897
0.277615 0.213632 0.103116
0.277779 0.213765 0.102336
0.277942 0.213896 0.101555
0.278051 0.214059 0.100664
0.278215 0.21419 0.0998832
0.278267 0.214382 0.0988823
0.278319 0.214576 0.0978816
0.278483 0.214707 0.0971007
0.278591 0.214869 0.0962098
0.278811 0.214971 0.0955391
0.279031 0.215072 0.0948684
0.279362 0.215111 0.0944174
0.279638 0.215182 0.0938566
0.280025 0.215191 0.0935159
0.280301 0.215262 0.0929552
0.280632 0.215301 0.0925042
0.281019 0.21531 0.0921634
0.281351 0.21535 0.0917128
0.281738 0.215359 0.091372
0.282014 0.21543 0.0908113
0.282345 0.21547 0.0903606
0.28262 0.215539 0.0897996
0.282896 0.21561 0.0892389
0.283172 0.215681 0.0886781
0.283447 0.21575 0.0881172
0.283667 0.215852 0.0874464
0.283943 0.215922 0.0868857
0.284162 0.216023 0.0862148
0.284438 0.216094 0.0856541
0.284658 0.216194 0.0849831
0.284878 0.216295 0.0843124
0.285153 0.216366 0.0837517
0.285261 0.216528 0.0828608
0.285425 0.216659 0.08208
0.285589 0.216791 0.0812993
0.285809 0.216893 0.0806286
0.285917 0.217055 0.0797377
0.286025 0.217217 0.0788467
0.286078 0.21741 0.0778461
0.286074 0.217634 0.0767353
0.285959 0.217918 0.0754044
0.285788 0.218233 0.0739635
0.28545 0.218641 0.0721927
0.285669 0.218742 0.071522
0.285722 0.218935 0.0705211
0.28583 0.219097 0.0696302
0.283259 0.220731 0.0634594
0.283814 0.220647 0.0634486
0.283978 0.220779 0.0626676
0.284309 0.220819 0.0622169
0.284696 0.220828 0.0618761
0.28486 0.220959 0.0610952
0.315286 0.218 0.0526168
0.317288 0.217344 0.0543553
0.317955 0.217201 0.0545647
0.318789 0.216964 0.0551038
0.319287 0.216912 0.054983
0.319842 0.21683 0.0549723
0.320397 0.216747 0.0549616
0.32084 0.216725 0.0547307
0.321618 0.216519 0.0551598
0.322117 0.216467 0.055039
0.322559 0.216445 0.0548083
0.323003 0.216424 0.0545775
0.323502 0.216372 0.0544568
0.323944 0.216351 0.054226
0.324443 0.216299 0.0541052
0.324886 0.216277 0.0538744
0.325441 0.216194 0.0538636
0.325884 0.216173 0.0536328
0.32616 0.216243 0.0530721
0.326882 0.216068 0.0533912
0.327325 0.216046 0.0531604
0.327768 0.216025 0.0529297
0.328155 0.216034 0.0525889
0.328542 0.216043 0.0522481
0.329097 0.21596 0.0522373
0.329484 0.215969 0.0518965
0.329816 0.216009 0.0514458
0.33037 0.215926 0.051435
0.330757 0.215936 0.0510942
0.331256 0.215883 0.0509734
0.331699 0.215862 0.0507426
0.332086 0.215871 0.0504019
0.332529 0.215849 0.050171
0.332917 0.215859 0.0498304
0.333304 0.215868 0.0494895
0.333635 0.215907 0.0490386
0.334022 0.215916 0.0486978
0.33441 0.215925 0.0483571
0.334853 0.215904 0.0481263
0.335184 0.215944 0.0476756
0.335404 0.216045 0.0470049
0.335735 0.216084 0.0465539
0.336123 0.216093 0.0462131
0.335952 0.216409 0.0447723
0.336339 0.216418 0.0444315
0.336335 0.216641 0.0433207
0.336611 0.216712 0.04276
0.337054 0.21669 0.0425292
0.337386 0.21673 0.0420784
0.243365 0.221781 0.0923968
0.245706 0.220715 0.0959055
0.246874 0.220294 0.0971044
0.247819 0.219997 0.0978637
0.248709 0.21973 0.0985127
0.253951 0.217067 0.107741
0.255007 0.216708 0.10872
0.255785 0.216503 0.109149
0.256563 0.216297 0.109578
0.257452 0.216029 0.110227
0.25823 0.215823 0.110656
0.259008 0.215618 0.111085
0.260121 0.215228 0.112174
0.260899 0.215022 0.112604
0.261673 0.214816 0.113026
0.262326 0.214673 0.113209
0.262978 0.214529 0.113391
0.263578 0.214416 0.11347
0.26423 0.214272 0.113652
0.26483 0.214158 0.113731
0.26543 0.214045 0.11381
0.26603 0.213931 0.113889
0.266578 0.213849 0.113865
0.267178 0.213735 0.113944
0.267725 0.213653 0.11392
0.268273 0.21357 0.113896
0.268768 0.213518 0.113768
0.269264 0.213465 0.113641
0.269759 0.213413 0.113513
0.270254 0.213361 0.113386
0.270697 0.213339 0.113155
0.27114 0.213318 0.112924
0.271583 0.213296 0.112693
0.271974 0.213306 0.112359
0.272365 0.213315 0.112025
0.272808 0.213293 0.111795
0.273146 0.213333 0.111357
0.273537 0.213342 0.111023
0.273823 0.213412 0.110482
0.274161 0.213452 0.110045
0.2745 0.213492 0.109608
0.274786 0.213562 0.109067
0.275176 0.213571 0.108733
0.275463 0.213641 0.108192
0.275801 0.213681 0.107755
0.276087 0.213751 0.107214
0.276373 0.213822 0.106674
0.276607 0.213923 0.10603
0.276893 0.213992 0.105489
0.277127 0.214093 0.104845
0.277291 0.214225 0.104064
0.277455 0.214357 0.103284
0.277675 0.214459 0.102613
0.277783 0.214621 0.101722
0.277835 0.214814 0.100722
0.278055 0.214916 0.100051
0.277996 0.215171 0.0988302
0.27816 0.215303 0.0980496
0.278268 0.215466 0.097159
0.278432 0.215597 0.096378
0.278652 0.215698 0.0957073
0.278872 0.2158 0.0950366
0.279148 0.21587 0.094476
0.279423 0.215941 0.0939152
0.279755 0.215981 0.0934645
0.280142 0.21599 0.0931237
0.280473 0.21603 0.092673
0.280861 0.216039 0.0923322
0.281192 0.216079 0.0918815
0.281468 0.21615 0.0913207
0.281855 0.216159 0.09098
0.28213 0.216229 0.090419
0.282406 0.2163 0.0898583
0.282737 0.216339 0.0894076
0.283013 0.21641 0.0888468
0.283233 0.216512 0.0881762
0.283564 0.216551 0.0877255
0.283728 0.216684 0.0869448
0.283948 0.216785 0.086274
0.284224 0.216856 0.0857133
0.284499 0.216925 0.0851523
0.284663 0.217058 0.0843717
0.284939 0.217128 0.0838109
0.285103 0.21726 0.0830303
0.285323 0.217362 0.0823596
0.285543 0.217463 0.0816889
0.285763 0.217565 0.0810182
0.285871 0.217727 0.0801273
0.285979 0.217889 0.0792367
0.285976 0.218114 0.0781261
0.285916 0.218369 0.0769055
0.285746 0.218684 0.0754648
0.285519 0.219032 0.0739142
0.285627 0.219195 0.0730235
0.285624 0.219418 0.0719127
0.285676 0.219612 0.0709121
0.285561 0.219898 0.0695815
0.282879 0.221595 0.0631915
0.283378 0.221543 0.0630707
0.283598 0.221645 0.0624
0.323947 0.217443 0.052505
0.324164 0.217768 0.0507238
0.324715 0.21791 0.0496023
0.324991 0.21798 0.0490416
0.326048 0.217621 0.0500206
0.326937 0.217353 0.0506696
0.327492 0.21727 0.0506587
0.328102 0.217157 0.0507579
0.328601 0.217105 0.0506373
0.329156 0.217022 0.0506265
0.329376 0.217123 0.0499556
0.329986 0.21701 0.050055
0.330206 0.21711 0.049384
0.330705 0.217058 0.0492632
0.330869 0.21719 0.0484825
0.330977 0.217353 0.0475919
0.331476 0.217301 0.0474711
0.331863 0.21731 0.0471304
0.332306 0.217288 0.0468996
0.332693 0.217298 0.0465588
0.333136 0.217276 0.046328
0.333021 0.217562 0.0449974
0.333688 0.217417 0.0452066
0.333963 0.217488 0.0446458
0.334462 0.217436 0.044525
0.334738 0.217506 0.0439643
0.334957 0.217608 0.0432936
0.33562 0.217687 0.0423919
0.243763 0.222436 0.092557
0.245377 0.221768 0.0946355
0.247271 0.220946 0.0972638
0.248104 0.22071 0.0978029
0.249552 0.220135 0.0995517
0.254458 0.217652 0.108118
0.255291 0.217415 0.108657
0.256125 0.217177 0.109196
0.256959 0.21694 0.109735
0.257736 0.216735 0.110164
0.258626 0.216467 0.110813
0.259571 0.216168 0.111572
0.260516 0.21587 0.112331
0.261182 0.215725 0.11254
0.26196 0.215519 0.112969
0.262612 0.215374 0.113151
0.263264 0.21523 0.113334
0.263864 0.215117 0.113413
0.264517 0.214973 0.113595
0.265116 0.21486 0.113674
0.265717 0.214746 0.113753
0.266316 0.214633 0.113832
0.266864 0.214549 0.113808
0.267464 0.214435 0.113887
0.267959 0.214383 0.11376
0.268507 0.214301 0.113735
0.269002 0.214248 0.113608
0.26955 0.214166 0.113584
0.269993 0.214144 0.113353
0.270488 0.214092 0.113225
0.270931 0.21407 0.112995
0.271374 0.214049 0.112764
0.271765 0.214058 0.11243
0.272208 0.214036 0.112199
0.272599 0.214045 0.111865
0.27299 0.214055 0.111531
0.27338 0.214064 0.111197
0.273719 0.214103 0.110759
0.274005 0.214174 0.110219
0.274343 0.214213 0.109781
0.274682 0.214254 0.109344
0.27502 0.214294 0.108907
0.275306 0.214364 0.108366
0.275645 0.214404 0.107929
0.275983 0.214443 0.107492
0.276217 0.214544 0.106848
0.276503 0.214615 0.106307
0.276684 0.214747 0.10556
0.276967 0.214818 0.105013
0.277187 0.214919 0.104342
0.277295 0.215082 0.103451
0.277515 0.215183 0.102781
0.277623 0.215346 0.10189
0.277676 0.215541 0.10089
0.277784 0.215704 0.0999989
0.277781 0.215928 0.0988883
0.277889 0.216091 0.0979977
0.278053 0.216223 0.097217
0.278217 0.216356 0.0964365
0.278437 0.216458 0.0957659
0.278713 0.216528 0.0952051
0.278989 0.216599 0.0946444
0.279264 0.21667 0.0940837
0.279596 0.21671 0.0936329
0.279927 0.216749 0.0931822
0.280259 0.216789 0.0927314
0.28059 0.216829 0.0922807
0.280921 0.216869 0.09183
0.281253 0.21691 0.0913795
0.281584 0.21695 0.0909288
0.281916 0.21699 0.090478
0.282191 0.217061 0.0899173
0.282523 0.217101 0.0894666
0.282799 0.217171 0.0889058
0.283074 0.217242 0.0883452
0.283294 0.217343 0.0876745
0.28357 0.217414 0.0871138
0.28379 0.217515 0.086443
0.283954 0.217649 0.0856626
0.284229 0.217719 0.0851018
0.284449 0.217821 0.0844312
0.284725 0.217891 0.0838705
0.285001 0.217962 0.0833097
0.285165 0.218094 0.0825291
0.28544 0.218165 0.0819683
0.285604 0.218297 0.0811878
0.285713 0.218461 0.0802973
0.285821 0.218624 0.0794066
0.285594 0.218971 0.0778562
0.285591 0.219196 0.0767458
0.285476 0.219482 0.0754153
0.285417 0.219737 0.0741946
0.285526 0.2199 0.073304
0.285634 0.220064 0.0724136
0.285352 0.220442 0.0707532
0.284902 0.220913 0.068763
0.324325 0.219445 0.0460019
0.324991 0.2193 0.046211
0.325434 0.219279 0.0459801
0.325766 0.219319 0.0455295
0.326265 0.219266 0.0454086
0.326596 0.219306 0.0449579
0.327095 0.219254 0.0448372
0.327538 0.219232 0.0446064
0.328148 0.219119 0.0447054
0.32909 0.219045 0.0443539
0.330593 0.218438 0.0462124
0.330869 0.218509 0.0456516
0.331368 0.218457 0.0455309
0.331253 0.218744 0.0442006
0.331807 0.218661 0.0441898
0.332362 0.218578 0.0441789
0.332861 0.218525 0.0440581
0.333192 0.218565 0.0436073
0.24416 0.223091 0.0927171
0.245496 0.222577 0.0942457
0.2475 0.221692 0.0970935
0.248166 0.221546 0.0973024
0.249892 0.220816 0.0996005
0.254853 0.218296 0.108276
0.255631 0.21809 0.108705
0.256465 0.217853 0.109244
0.257186 0.217676 0.109562
0.258187 0.217346 0.110431
0.259021 0.21711 0.11097
0.260022 0.21678 0.111839
0.260799 0.216573 0.112268
0.261521 0.216397 0.112587
0.262243 0.216222 0.112906
0.262899 0.216077 0.113095
0.263551 0.215932 0.113277
0.264151 0.215819 0.113356
0.264803 0.215674 0.113538
0.265403 0.215561 0.113617
0.266003 0.215447 0.113696
0.266551 0.215364 0.113672
0.26715 0.21525 0.113751
0.267698 0.215167 0.113727
0.268194 0.215115 0.113599
0.268741 0.215031 0.113575
0.269236 0.214979 0.113447
0.269784 0.214896 0.113423
0.270227 0.214875 0.113192
0.27067 0.214853 0.112962
0.271113 0.214832 0.112731
0.271556 0.21481 0.1125
0.271999 0.214789 0.112269
0.27239 0.214798 0.111935
0.272833 0.214776 0.111704
0.273171 0.214816 0.111267
0.273562 0.214826 0.110933
0.273848 0.214896 0.110392
0.274187 0.214936 0.109955
0.274525 0.214976 0.109518
0.274864 0.215016 0.109081
0.275202 0.215056 0.108643
0.275488 0.215126 0.108103
0.275826 0.215166 0.107665
0.276113 0.215237 0.107125
0.276399 0.215308 0.106584
0.276633 0.215409 0.10594
0.276863 0.215511 0.10529
0.277083 0.215612 0.104619
0.277247 0.215745 0.103839
0.277467 0.215847 0.103168
0.27752 0.216041 0.102168
0.277628 0.216205 0.101277
0.277681 0.216399 0.100277
0.277566 0.216685 0.0989462
0.277674 0.216849 0.0980559
0.277894 0.216951 0.0973852
0.278058 0.217084 0.0966048
0.278223 0.217217 0.0958243
0.278498 0.217288 0.0952636
0.278774 0.217358 0.0947029
0.279105 0.217398 0.0942521
0.279381 0.21747 0.0936917
0.279712 0.21751 0.093241
0.2801 0.217519 0.0929002
0.280375 0.21759 0.0923395
0.280763 0.217599 0.0919987
0.281038 0.217671 0.0914382
0.281426 0.21768 0.0910975
0.281757 0.21772 0.0906468
0.282033 0.21779 0.0900861
0.282308 0.217862 0.0895256
0.282584 0.217933 0.0889649
0.282916 0.217972 0.0885141
0.283136 0.218075 0.0878437
0.283356 0.218176 0.087173
0.283575 0.218278 0.0865023
0.283795 0.21838 0.0858318
0.284015 0.218481 0.0851612
0.284235 0.218584 0.0844907
0.284511 0.218654 0.08393
0.284731 0.218756 0.0832593
0.285007 0.218827 0.0826989
0.285282 0.218898 0.0821381
0.285335 0.219093 0.0811377
0.285499 0.219225 0.0803571
0.28544 0.219481 0.0791367
0.285325 0.219768 0.0778064
0.28521 0.220054 0.0764762
0.285263 0.220249 0.0754758
0.28526 0.220474 0.0743654
0.285257 0.2207 0.0732551
0.285365 0.220863 0.0723644
0.284804 0.221396 0.0701545
0.284243 0.22193 0.0679447
0.324556 0.220195 0.0458328
0.32511 0.220112 0.045822
0.325609 0.22006 0.0457012
0.326052 0.220038 0.0454704
0.32644 0.220047 0.0451296
0.326882 0.220026 0.0448989
0.32727 0.220035 0.0445581
0.327824 0.219952 0.0445473
0.328212 0.219961 0.0442065
0.244335 0.22387 0.0924377
0.245056 0.223694 0.0927564
0.247563 0.222529 0.0965933
0.248229 0.222384 0.0968022
0.254193 0.219303 0.107455
0.255137 0.219003 0.108213
0.256027 0.218735 0.108862
0.256748 0.218559 0.109181
0.257637 0.218289 0.10983
0.258583 0.21799 0.110588
0.259416 0.217752 0.111127
0.260305 0.217483 0.111776
0.261138 0.217245 0.112314
0.26186 0.217069 0.112633
0.262526 0.216924 0.112842
0.263133 0.21681 0.112935
0.263785 0.216665 0.113117
0.264437 0.21652 0.113299
0.265038 0.216407 0.113378
0.265637 0.216292 0.113457
0.266237 0.216179 0.113536
0.266785 0.216095 0.113512
0.267385 0.215982 0.113591
0.267932 0.215899 0.113566
0.268428 0.215846 0.113439
0.268975 0.215763 0.113415
0.269471 0.215711 0.113287
0.269966 0.215659 0.11316
0.270461 0.215606 0.113032
0.270904 0.215584 0.112801
0.271347 0.215563 0.11257
0.27179 0.215541 0.112339
0.272181 0.215551 0.112006
0.272624 0.21553 0.111775
0.273015 0.215539 0.111441
0.273353 0.215578 0.111003
0.273744 0.215587 0.110669
0.274083 0.215628 0.110232
0.274369 0.215698 0.109692
0.274707 0.215739 0.109254
0.275046 0.215779 0.108817
0.275384 0.215819 0.10838
0.27567 0.21589 0.107839
0.276009 0.21593 0.107402
0.276295 0.216001 0.106861
0.276528 0.216102 0.106217
0.276759 0.216204 0.105567
0.276979 0.216306 0.104897
0.277143 0.216439 0.104116
0.277419 0.21651 0.103555
0.277527 0.216674 0.102665
0.277524 0.2169 0.101555
0.277521 0.217125 0.100445
0.27763 0.217289 0.0995542
0.277515 0.217577 0.0982241
0.277679 0.21771 0.0974437
0.277843 0.217843 0.0966633
0.278063 0.217945 0.0959926
0.278283 0.218047 0.0953222
0.278559 0.218118 0.0947617
0.278891 0.218158 0.094311
0.279166 0.218229 0.0937502
0.279498 0.21827 0.0932997
0.279829 0.21831 0.0928489
0.280161 0.218351 0.0923985
0.280548 0.21836 0.0920577
0.280824 0.218431 0.091497
0.281211 0.21844 0.0911563
0.281487 0.218511 0.0905958
0.281818 0.218551 0.090145
0.28215 0.218592 0.0896946
0.282426 0.218663 0.0891338
0.282757 0.218703 0.0886831
0.282977 0.218805 0.0880126
0.283141 0.218938 0.0872322
0.283306 0.219072 0.0864518
0.283581 0.219142 0.0858911
0.283801 0.219244 0.0852207
0.284021 0.219347 0.0845502
0.284353 0.219387 0.0840995
0.284517 0.21952 0.083319
0.284793 0.219592 0.0827586
0.285013 0.219693 0.0820879
0.285065 0.219889 0.0810877
0.28523 0.220021 0.0803071
0.285059 0.220339 0.0788671
0.285167 0.220503 0.0779767
0.285164 0.220729 0.0768666
0.28505 0.221017 0.0755366
0.285047 0.221242 0.0744262
0.284932 0.22153 0.0730961
0.285152 0.221631 0.0724254
0.284201 0.222383 0.0694465
0.248682 0.223005 0.0970716
0.254477 0.22001 0.107393
0.255477 0.21968 0.108261
0.256311 0.219441 0.1088
0.2572 0.219172 0.109448
0.258144 0.218871 0.110207
0.259033 0.218602 0.110855
0.259755 0.218426 0.111174
0.260588 0.218187 0.111713
0.261366 0.217979 0.112141
0.262088 0.217803 0.11246
0.262754 0.217658 0.112669
0.26342 0.217512 0.112878
0.264072 0.217367 0.11306
0.264672 0.217253 0.113139
0.265272 0.21714 0.113218
0.265872 0.217025 0.113297
0.266471 0.216911 0.113376
0.267072 0.216797 0.113455
0.267619 0.216714 0.11343
0.268167 0.216631 0.113406
0.268662 0.216578 0.113278
0.269157 0.216526 0.113151
0.269705 0.216443 0.113127
0.2702 0.21639 0.112999
0.270643 0.216368 0.112768
0.271086 0.216347 0.112537
0.271529 0.216325 0.112307
0.271972 0.216304 0.112076
0.272415 0.216282 0.111845
0.272754 0.216323 0.111408
0.273144 0.216332 0.111074
0.273535 0.216341 0.11074
0.273874 0.216381 0.110303
0.274264 0.216391 0.109969
0.274603 0.216431 0.109531
0.274889 0.216502 0.108991
0.275228 0.216542 0.108554
0.275566 0.216582 0.108116
0.275852 0.216653 0.107576
0.27619 0.216693 0.107138
0.276424 0.216795 0.106495
0.276711 0.216866 0.105954
0.276875 0.216999 0.105174
0.277039 0.217133 0.104394
0.277315 0.217204 0.103833
0.277479 0.217338 0.103053
0.277532 0.217533 0.102052
0.277585 0.217728 0.101052
0.277582 0.217954 0.0999421
0.277635 0.21815 0.098942
0.277632 0.218376 0.0978318
0.277685 0.218571 0.0968315
0.277904 0.218673 0.096161
0.278069 0.218807 0.0953809
0.278344 0.218878 0.0948202
0.27862 0.218949 0.0942598
0.278896 0.219021 0.0936992
0.279227 0.219061 0.0932485
0.279559 0.219102 0.092798
0.279891 0.219142 0.0923472
0.280278 0.219151 0.0920066
0.280609 0.219192 0.0915561
0.280941 0.219232 0.0911053
0.281272 0.219273 0.0906548
0.281604 0.219313 0.090204
0.281936 0.219353 0.0897536
0.282156 0.219456 0.0890831
0.282431 0.219527 0.0885226
0.282651 0.21963 0.0878522
0.282871 0.219732 0.0871817
0.283091 0.219835 0.0865113
0.283367 0.219905 0.0859506
0.283587 0.220008 0.0852802
0.283863 0.220079 0.0847197
0.284139 0.220151 0.0841592
0.284303 0.220284 0.0833789
0.284523 0.220386 0.0827084
0.284743 0.220489 0.082038
0.284851 0.220653 0.0811476
0.284904 0.220848 0.0801475
0.284957 0.221044 0.0791473
0.28501 0.221239 0.0781471
0.284951 0.221496 0.0769271
0.284892 0.221753 0.075707
0.284778 0.222041 0.074377
0.284663 0.222329 0.0730472
0.284493 0.222649 0.0716074
0.283765 0.223278 0.0690683
0.245291 0.225541 0.0908677
0.247908 0.224309 0.094923
0.254816 0.220687 0.10744
0.255817 0.220355 0.108308
0.256706 0.220086 0.108957
0.257651 0.219784 0.109715
0.258428 0.219577 0.110144
0.259317 0.219306 0.110792
0.26015 0.219068 0.111331
0.260928 0.21886 0.111759
0.26165 0.218684 0.112078
0.262315 0.218538 0.112287
0.262981 0.218392 0.112496
0.263647 0.218246 0.112704
0.264254 0.218132 0.112797
0.264906 0.217987 0.112979
0.265506 0.217872 0.113058
0.266106 0.217758 0.113137
0.266653 0.217674 0.113112
0.267306 0.217529 0.113294
0.267801 0.217477 0.113167
0.268349 0.217393 0.113142
0.268896 0.217311 0.113118
0.269391 0.217257 0.112991
0.269887 0.217205 0.112863
0.27033 0.217184 0.112632
0.270825 0.217132 0.112505
0.271268 0.21711 0.112274
0.271711 0.217088 0.112043
0.272154 0.217067 0.111812
0.272545 0.217076 0.111478
0.272936 0.217085 0.111144
0.273327 0.217095 0.11081
0.273717 0.217104 0.110476
0.274056 0.217144 0.110039
0.274394 0.217185 0.109602
0.274785 0.217194 0.109268
0.275071 0.217265 0.108727
0.27541 0.217306 0.10829
0.275748 0.217346 0.107853
0.276034 0.217418 0.107313
0.27632 0.217488 0.106772
0.276607 0.217559 0.106231
0.276827 0.217663 0.105561
0.276991 0.217796 0.104781
0.277267 0.217867 0.10422
0.277376 0.218032 0.10333
0.277596 0.218134 0.10266
0.277537 0.218392 0.10144
0.277701 0.218526 0.10066
0.277754 0.218722 0.0996595
0.277751 0.218948 0.0985495
0.277692 0.219206 0.0973297
0.277746 0.219402 0.0963296
0.27791 0.219536 0.0955493
0.27813 0.219638 0.0948789
0.278406 0.21971 0.0943184
0.278626 0.219813 0.0936483
0.278957 0.219853 0.0931975
0.279289 0.219894 0.092747
0.27962 0.219934 0.0922963
0.280008 0.219944 0.0919558
0.280339 0.219984 0.0915051
0.280671 0.220025 0.0910545
0.281002 0.220066 0.0906041
0.281278 0.220137 0.0900436
0.28161 0.220177 0.0895929
0.281886 0.220249 0.0890324
0.282106 0.220351 0.088362
0.282381 0.220423 0.0878015
0.282657 0.220494 0.0872411
0.282877 0.220597 0.0865706
0.283209 0.220638 0.0861201
0.283429 0.22074 0.0854497
0.283705 0.220812 0.0848892
0.283925 0.220915 0.084219
0.284089 0.221048 0.0834386
0.284309 0.22115 0.0827682
0.284474 0.221284 0.081988
0.284582 0.221449 0.0810978
0.284746 0.221582 0.0803174
0.284688 0.22184 0.0790976
0.284796 0.222005 0.0782075
0.284738 0.222263 0.0769876
0.284623 0.222552 0.0756578
0.284509 0.22284 0.074328
0.284172 0.223254 0.0725588
0.283556 0.223822 0.0702399
0.283274 0.224204 0.0685805
0.245357 0.226156 0.0914786
0.245967 0.226041 0.0915775
0.254156 0.221697 0.10662
0.255268 0.221301 0.107708
0.25599 0.221124 0.108026
0.257046 0.220761 0.109004
0.258046 0.220428 0.109872
0.258823 0.22022 0.110301
0.259601 0.220011 0.110729
0.26049 0.219741 0.111378
0.261211 0.219564 0.111696
0.261877 0.219419 0.111905
0.262599 0.219241 0.112224
0.263209 0.219127 0.112322
0.263875 0.21898 0.112531
0.264485 0.218866 0.11263
0.265141 0.21872 0.112819
0.26574 0.218605 0.112898
0.26634 0.218491 0.112976
0.266888 0.218407 0.112952
0.267488 0.218293 0.113031
0.268035 0.21821 0.113007
0.268583 0.218126 0.112982
0.269078 0.218073 0.112855
0.269573 0.218021 0.112727
0.270069 0.217969 0.1126
0.270564 0.217915 0.112472
0.271007 0.217894 0.112241
0.27145 0.217872 0.11201
0.271893 0.217851 0.11178
0.272336 0.217829 0.111549
0.272727 0.217839 0.111215
0.273118 0.217848 0.110881
0.273508 0.217857 0.110547
0.273847 0.217898 0.11011
0.274238 0.217908 0.109776
0.274576 0.217948 0.109338
0.274915 0.217989 0.108901
0.275253 0.218029 0.108464
0.275592 0.21807 0.108027
0.275878 0.218141 0.107486
0.276216 0.218181 0.107049
0.276447 0.218284 0.106399
0.276779 0.218325 0.105948
0.276999 0.218427 0.105278
0.277163 0.218561 0.104498
0.277383 0.218665 0.103828
0.277548 0.218799 0.103047
0.277545 0.219026 0.101938
0.277765 0.219128 0.101267
0.277762 0.219355 0.100157
0.277815 0.219552 0.0991574
0.277812 0.219779 0.0980475
0.27781 0.220006 0.0969376
0.277751 0.220265 0.0957181
0.277915 0.220399 0.0949379
0.278247 0.220439 0.0944872
0.278411 0.220573 0.093707
0.278687 0.220645 0.0931466
0.278963 0.220718 0.0925863
0.27935 0.220727 0.0922455
0.279682 0.220768 0.0917951
0.280013 0.220808 0.0913444
0.280345 0.220848 0.0908939
0.280732 0.220859 0.0905533
0.281008 0.22093 0.089993
0.28134 0.220971 0.0895424
0.281616 0.221043 0.088982
0.281891 0.221114 0.0884215
0.282167 0.221186 0.0878611
0.282443 0.221258 0.0873006
0.282663 0.221361 0.0866304
0.282995 0.221401 0.0861796
0.283215 0.221504 0.0855093
0.283435 0.221607 0.0848392
0.283711 0.221679 0.0842787
0.283875 0.221813 0.0834986
0.28404 0.221947 0.0827184
0.284204 0.22208 0.081938
0.284313 0.222246 0.0810481
0.284421 0.222411 0.080158
0.284419 0.222638 0.0790481
0.284472 0.222834 0.0780482
0.284413 0.223092 0.0768284
0.284187 0.223445 0.0752792
0.283739 0.22392 0.0732903
0.28329 0.224396 0.0713014
0.283454 0.22453 0.0705212
0.282727 0.225162 0.0679829
0.245922 0.226718 0.0919684
0.246587 0.226571 0.092177
0.254608 0.222311 0.106888
0.255664 0.221947 0.107866
0.256441 0.221738 0.108294
0.257441 0.221404 0.109162
0.25833 0.221134 0.10981
0.259219 0.220863 0.110458
0.25994 0.220686 0.110777
0.260717 0.220477 0.111205
0.261495 0.220268 0.111633
0.262161 0.220123 0.111842
0.262827 0.219976 0.112051
0.263492 0.21983 0.112259
0.264103 0.219715 0.112358
0.264713 0.2196 0.112457
0.265323 0.219485 0.112556
0.265923 0.21937 0.112634
0.266575 0.219224 0.112817
0.267122 0.219141 0.112792
0.26767 0.219057 0.112768
0.268217 0.218973 0.112743
0.268765 0.218889 0.112719
0.26926 0.218837 0.112591
0.269755 0.218784 0.112464
0.270251 0.218732 0.112336
0.270746 0.218679 0.112209
0.271189 0.218657 0.111978
0.271632 0.218636 0.111747
0.272023 0.218646 0.111413
0.272466 0.218624 0.111182
0.272857 0.218633 0.110848
0.2733 0.218612 0.110617
0.273638 0.218653 0.11018
0.273977 0.218693 0.109743
0.274367 0.218702 0.109409
0.274758 0.218712 0.109075
0.275045 0.218784 0.108535
0.275383 0.218824 0.108098
0.275722 0.218865 0.10766
0.27606 0.218906 0.107223
0.276343 0.218977 0.106676
0.276619 0.21905 0.106116
0.276895 0.219121 0.105555
0.277115 0.219224 0.104885
0.277335 0.219328 0.104215
0.2775 0.219462 0.103435
0.277608 0.219628 0.102545
0.277773 0.219762 0.101765
0.277826 0.219958 0.100765
0.27799 0.220092 0.0999847
0.277876 0.220383 0.0986554
0.277929 0.220579 0.0976555
0.277871 0.220838 0.096436
0.277868 0.221066 0.0953264
0.278033 0.2212 0.0945462
0.278141 0.221366 0.0936563
0.278473 0.221407 0.0932058
0.278693 0.221509 0.0925353
0.279025 0.22155 0.092085
0.279356 0.221591 0.0916344
0.279688 0.221632 0.0911839
0.280019 0.221673 0.0907335
0.280407 0.221683 0.0903929
0.280738 0.221723 0.0899422
0.281014 0.221796 0.089382
0.281346 0.221837 0.0889315
0.281622 0.221908 0.088371
0.281898 0.22198 0.0878105
0.282174 0.222052 0.0872502
0.282394 0.222156 0.0865801
0.282725 0.222197 0.0861296
0.282945 0.222299 0.0854592
0.283221 0.222372 0.084899
0.283497 0.222443 0.0843385
0.283662 0.222577 0.0835583
0.28377 0.222743 0.0826685
0.283991 0.222846 0.0819983
0.283988 0.223074 0.0808887
0.283985 0.223302 0.0797788
0.284094 0.223467 0.0788889
0.284091 0.223695 0.0777793
0.283866 0.224048 0.07623
0.283306 0.224587 0.0740217
0.28308 0.22494 0.0724727
0.283133 0.225136 0.0714728
0.283131 0.225364 0.070363
0.245764 0.227457 0.0921397
0.246486 0.22728 0.0924583
0.247319 0.227039 0.0929963
0.255003 0.222957 0.107046
0.256059 0.222592 0.108023
0.256892 0.222351 0.108561
0.257892 0.222017 0.109429
0.258725 0.221778 0.109967
0.259502 0.221568 0.110395
0.260224 0.221391 0.110714
0.260945 0.221213 0.111032
0.261723 0.221004 0.11146
0.262444 0.220826 0.111779
0.263054 0.220711 0.111878
0.26372 0.220565 0.112086
0.26433 0.220449 0.112185
0.264941 0.220334 0.112284
0.265551 0.220219 0.112382
0.266157 0.220103 0.112474
0.266757 0.219989 0.112553
0.267305 0.219905 0.112529
0.267852 0.219821 0.112504
0.2684 0.219738 0.11248
0.268947 0.219654 0.112456
0.269442 0.219601 0.112328
0.269938 0.219548 0.112201
0.270381 0.219527 0.11197
0.270876 0.219474 0.111842
0.271371 0.219422 0.111715
0.271762 0.219431 0.11138
0.272205 0.219409 0.11115
0.272596 0.219419 0.110816
0.272987 0.219428 0.110482
0.273378 0.219438 0.110148
0.27382 0.219417 0.109917
0.274159 0.219458 0.10948
0.27455 0.219467 0.109146
0.274888 0.219507 0.108709
0.275227 0.219548 0.108271
0.275565 0.219589 0.107834
0.275904 0.219629 0.107397
0.276183 0.219702 0.106844
0.276515 0.219743 0.106393
0.276791 0.219815 0.105833
0.277011 0.219919 0.105163
0.277231 0.220022 0.104492
0.277396 0.220156 0.103712
0.277616 0.22026 0.103042
0.27778 0.220394 0.102262
0.277834 0.220592 0.101263
0.277998 0.220726 0.100482
0.27794 0.220986 0.099263
0.277993 0.221183 0.0982634
0.278046 0.22138 0.0972638
0.277876 0.221702 0.0958245
0.277985 0.221867 0.0949347
0.277927 0.222127 0.0937153
0.278203 0.2222 0.0931551
0.278479 0.222272 0.0925946
0.278755 0.222344 0.0920344
0.279086 0.222385 0.0915839
0.279418 0.222426 0.0911335
