ply
format ascii 1.0
element vertex 1211
property float x
property float y
property float z
property uchar diffuse_red
property uchar diffuse_green
property uchar diffuse_blue
end_header
0.0143885 -0.019825 -0.002232 144 136 127
0.0143955 -0.02013 -0.002658 160 151 137
0.0142955 -0.019829 -0.002666 153 144 131
0.0142685 -0.020127 -0.003045 165 155 139
0.0141485 -0.019801 -0.003007 154 143 131
0.0141015 -0.02013 -0.00341 166 153 136
0.0140085 -0.019797 -0.003371 160 147 133
0.0139235 -0.020123 -0.003766 166 154 137
0.0138455 -0.019806 -0.003743 165 154 137
0.0136675 -0.019806 -0.004106 165 151 137
0.0139425 -0.019755 -0.003487 162 150 135
0.0138965 -0.019538 -0.00327 152 141 129
0.0139775 -0.019523 -0.002936 138 129 121
0.0138695 -0.019407 -0.002976 131 121 115
0.0139065 -0.019356 -0.002434 115 100 99
0.0136085 -0.01917 -0.002821 107 91 91
0.0135425 -0.019138 -0.002318 93 70 70
0.0131955 -0.019019 -0.002511 86 59 59
0.0131745 -0.019101 -0.001938 82 47 47
0.0128225 -0.019069 -0.002046 82 45 44
0.0141405 -0.019595 -0.002573 139 128 120
0.0141635 -0.01953 -0.00217 125 114 110
0.0143415 -0.019616 -0.001806 127 116 112
0.0145045 -0.019852 -0.001813 142 133 125
0.0145585 -0.019836 -0.001449 145 136 127
0.0146985 -0.020153 -0.001495 152 145 134
0.0147655 -0.020166 -0.001101 156 149 135
0.0148435 -0.020511 -0.001132 159 152 138
0.0149205 -0.020518 -0.000737 162 152 138
0.0141405 -0.020476 -0.003414 169 155 135
0.0142955 -0.020472 -0.003046 169 154 135
0.0144425 -0.020486 -0.002678 169 155 137
0.0145585 -0.020499 -0.002302 163 154 140
0.0146045 -0.02084 -0.00231 171 159 140
0.0147195 -0.020848 -0.001922 177 161 140
0.0146435 -0.021188 -0.002324 176 161 140
0.0147505 -0.021196 -0.001946 178 162 141
0.0146595 -0.021545 -0.002333 184 166 143
0.0147735 -0.021545 -0.001953 186 168 145
0.0147895 -0.021896 -0.001961 189 168 141
0.0149135 -0.021901 -0.001582 189 171 145
0.0148825 -0.02225 -0.001582 190 170 141
0.0150215 -0.021905 -0.001202 187 168 143
0.0150285 -0.022255 -0.001202 189 169 144
0.0151295 -0.021912 -0.000814 187 170 145
0.0151535 -0.022261 -0.000822 190 170 143
0.0152695 -0.022265 -0.000443 189 172 146
0.0152465 -0.022617 -0.000446 188 167 139
0.0153705 -0.022273 -6.2e-05 186 169 144
0.0153315 -0.021924 -4.7e-05 185 170 147
0.0151845 -0.021572 -0.000415 179 165 144
0.0150905 -0.021563 -0.000791 181 167 146
0.0152455 -0.021919 -0.000431 184 169 146
0.0149905 -0.021556 -0.001187 184 168 146
0.0148515 -0.0212 -0.001558 179 162 141
0.0148825 -0.021549 -0.001574 185 168 147
0.0151375 -0.022977 -0.000427 186 158 123
0.0151065 -0.02261 -0.000815 190 169 141
0.0149985 -0.022966 -0.000791 184 155 122
0.0149675 -0.02261 -0.001194 188 165 136
0.0149515 -0.023326 -0.000373 177 146 110
0.0144955 -0.021188 -0.002697 177 159 137
0.0144645 -0.020835 -0.002689 175 160 138
0.0143025 -0.020828 -0.003054 172 157 137
0.0152695 -0.021239 0.000393 166 154 137
0.0151915 -0.02089 0.000424 163 150 136
0.0151145 -0.020557 0.000792 146 135 125
0.0149435 -0.020241 0.0009 135 122 115
0.0148745 -0.020247 0.001257 125 110 105
0.0147115 -0.020057 0.00116 112 94 90
0.0144335 -0.019879 0.001175 104 81 78
0.0141405 -0.019716 0.001067 90 62 60
0.0137685 -0.019569 0.001187 84 49 48
0.0138065 -0.019549 0.000885 84 50 50
0.0134705 -0.019412 0.000997 80 37 37
0.0134655 -0.01939 0.000706 82 38 39
0.0138305 -0.019519 0.000555 85 49 49
0.0141945 -0.019616 0.000424 92 66 64
0.0142255 -0.019558 2e-06 95 74 71
0.0145665 -0.019758 0.000366 111 91 89
0.0145505 -0.019693 8.7e-05 114 96 95
0.0147345 -0.019898 0.000153 118 102 100
0.0144815 -0.019657 -0.000106 107 90 89
0.0147505 -0.019898 -6.3e-05 126 114 110
0.0147115 -0.019864 -0.000291 125 114 111
0.0148975 -0.020176 -0.000307 146 138 129
0.0146905 -0.019848 -0.000667 130 121 117
0.0148515 -0.020162 -0.000706 150 143 132
0.0146365 -0.019836 -0.001063 144 136 128
0.0149985 -0.020525 -0.000346 158 150 137
0.0151535 -0.020878 2.1e-05 165 153 139
0.0150675 -0.020534 4.8e-05 155 145 134
0.0150985 -0.020545 0.000451 153 143 129
0.0149365 -0.020197 8.7e-05 142 132 123
0.0149445 -0.020215 0.00049 142 132 122
0.0147345 -0.019921 0.00054 123 108 103
0.0144575 -0.019794 0.000765 105 82 81
0.0141175 -0.019643 0.000757 89 59 59
0.0146905 -0.019976 0.000908 115 97 93
0.0141795 -0.019474 -0.000516 99 76 76
0.0126565 -0.018074 0.002425 80 15 12
0.0127035 -0.018116 0.002801 77 15 12
0.0124075 -0.01742 0.003095 74 11 7
0.0125525 -0.017679 0.003545 75 12 8
0.0126595 -0.017953 0.003994 74 12 9
0.0128105 -0.018302 0.004091 73 14 11
0.0127755 -0.01821 0.004439 69 12 9
0.0129115 -0.018554 0.004482 71 14 12
0.0128235 -0.018374 0.004858 64 12 9
0.0129925 -0.018782 0.004685 69 18 14
0.0127295 -0.018228 0.005226 64 11 8
0.0126015 -0.01809 0.005594 63 10 6
0.0124545 -0.017953 0.005971 65 9 5
0.0122735 -0.017811 0.006356 63 8 4
0.0120595 -0.017675 0.006752 59 7 3
0.0129965 -0.018747 0.004327 73 16 13
0.0131335 -0.019076 0.004292 75 20 17
0.0123935 -0.017323 0.003452 73 11 7
0.0125295 -0.01759 0.003897 72 11 7
0.0126415 -0.017855 0.004346 71 11 7
0.0127265 -0.018121 0.004796 65 11 8
0.0155175 -0.022025 0.003306 143 133 122
0.0156725 -0.022353 0.002911 165 158 141
0.0157575 -0.022686 0.002499 174 166 146
0.0156255 -0.023001 0.001102 187 170 144
0.0157105 -0.022656 0.001508 181 170 147
0.0156565 -0.022307 0.001528 179 168 148
0.0155785 -0.021963 0.001551 172 160 141
0.0154865 -0.021622 0.001655 165 155 139
0.0153935 -0.021279 0.001652 152 141 126
0.0153855 -0.021297 0.002069 148 136 122
0.0152225 -0.020964 0.002038 141 128 116
0.0151765 -0.020982 0.002441 131 117 108
0.0149825 -0.020692 0.002344 121 104 97
0.0148745 -0.020695 0.002747 109 89 85
0.0146285 -0.020355 0.002266 104 84 81
0.0144465 -0.020344 0.002689 95 70 68
0.0141245 -0.020011 0.002224 85 54 54
0.0139775 -0.020034 0.002611 82 44 45
0.0136485 -0.019705 0.002201 81 37 37
0.0135705 -0.019724 0.002569 83 36 35
0.0132955 -0.019379 0.002437 85 34 33
0.0133505 -0.019471 0.002712 83 33 31
0.0131795 -0.01917 0.002685 82 26 23
0.0132055 -0.019193 0.003088 80 26 24
0.0133605 -0.019531 0.003099 82 33 34
0.0134975 -0.019716 0.002917 81 33 33
0.0151535 -0.02103 0.002805 120 104 97
0.0153155 -0.021324 0.002875 127 115 105
0.0153625 -0.021308 0.002472 136 124 113
0.0154865 -0.021653 0.002481 150 141 127
0.0154945 -0.021638 0.002069 160 149 134
0.0155945 -0.021981 0.002086 167 157 138
0.0155865 -0.021974 0.001953 170 158 140
0.0156795 -0.022319 0.001929 180 166 147
0.0152695 -0.020936 0.001644 146 135 123
0.0150055 -0.020626 0.001991 129 114 106
0.0133065 -0.01936 0.002038 83 32 31
0.0130855 -0.019019 0.002274 83 28 26
-0.0036675 -0.025475 -0.005362 87 9 5
0.0081355 -0.025559 0.009667 71 18 6
-0.0213175 -0.025449 -0.003146 72 8 6
-0.0201785 -0.025358 -0.00413 69 7 3
-0.0205815 -0.025281 -0.003766 70 8 4
-0.0202555 -0.025102 -0.003809 69 7 4
-0.0206205 -0.02517 -0.003557 71 8 4
-0.0203025 -0.024971 -0.003565 70 6 4
-0.0206745 -0.025033 -0.00317 73 8 6
-0.0203565 -0.024831 -0.003177 70 7 5
-0.0209995 -0.025242 -0.003162 73 8 6
-0.0209375 -0.025381 -0.003549 70 8 4
-0.0198535 -0.025181 -0.004176 68 5 3
-0.0195355 -0.024991 -0.004216 67 6 2
-0.0199305 -0.024917 -0.003844 68 6 3
-0.0196055 -0.024723 -0.003898 69 6 3
-0.0199925 -0.024724 -0.003487 69 6 4
-0.0196745 -0.024528 -0.003549 70 6 3
-0.0197215 -0.024413 -0.003208 71 8 5
-0.0194275 -0.024173 -0.003216 74 9 5
-0.0200395 -0.024622 -0.003192 72 8 5
0.0139995 -0.025341 0.002702 129 69 46
0.0142945 -0.025266 0.003126 136 85 59
0.0146285 -0.025242 0.003552 153 108 76
0.0146285 -0.025374 0.003924 155 114 78
0.0149365 -0.025057 0.003746 164 129 95
0.0149355 -0.025133 0.003967 163 139 110
0.0010755 -0.02525 -0.007277 84 11 4
0.0014295 -0.025157 -0.007461 85 11 4
0.0239765 -0.025451 -0.018121 129 124 110
0.0239995 -0.025448 -0.018259 129 124 111
0.0077335 -0.025216 0.009823 65 10 3
0.0081255 -0.0252 0.009773 67 14 4
0.0077405 -0.02487 0.009984 62 9 2
0.0081175 -0.024847 0.009896 63 11 3
0.0078815 -0.024792 0.009984 62 9 2
0.0081355 -0.02446 0.010058 61 9 3
0.0078295 -0.024329 0.010227 59 8 3
0.0080815 -0.024008 0.010303 60 11 4
0.0077715 -0.023876 0.010479 58 10 5
0.0080235 -0.023554 0.010559 57 12 6
0.0077315 -0.024172 0.010333 59 8 3
0.0077415 -0.024514 0.010147 60 8 3
0.0073545 -0.024885 0.010044 63 9 2
0.0069905 -0.024561 0.010286 59 8 2
0.0067915 -0.024358 0.010456 58 9 4
0.0073675 -0.024529 0.010233 59 8 3
0.0070175 -0.024242 0.010501 57 10 4
0.0067025 -0.024018 0.010721 53 9 4
0.0063175 -0.023853 0.010891 47 8 3
0.0059105 -0.023605 0.01109 40 6 3
0.0058585 -0.023326 0.011287 37 6 3
0.0055075 -0.023427 0.011306 32 5 2
0.0054495 -0.023172 0.011624 31 4 1
0.0054165 -0.023101 0.012013 21 0 0
0.0053235 -0.02295 0.012473 10 0 0
0.0050465 -0.02326 0.012146 12 0 0
0.0051345 -0.023306 0.011641 30 2 0
0.0051765 -0.023541 0.011307 28 3 2
0.0056025 -0.023825 0.010995 39 7 4
0.0073725 -0.024181 0.010425 60 10 4
-0.0051375 -0.0252 0.009275 58 10 3
-0.0048855 -0.024969 0.009437 62 13 4
-0.0046335 -0.024792 0.009595 61 14 6
0.0149285 -0.02524 0.00437 165 141 111
0.0149755 -0.025226 0.004652 167 142 112
-0.0029575 -0.025195 0.009251 66 11 2
-0.0024485 -0.025103 0.009336 67 11 2
-0.0027745 -0.024963 0.00945 65 12 2
-0.0026745 -0.02487 0.009559 64 12 2
-0.0022495 -0.024877 0.00954 66 12 2
-0.0025015 -0.024708 0.009777 61 13 4
-0.0047575 -0.025118 -0.006044 87 11 5
-0.0051395 -0.024867 -0.006316 86 10 5
-0.0054805 -0.024955 -0.006378 87 11 6
-0.0058425 -0.02487 -0.006505 86 11 5
-0.0059025 -0.024498 -0.006649 84 11 4
-0.0063015 -0.024184 -0.006797 88 12 5
-0.0063635 -0.023807 -0.006896 88 11 5
-0.0067075 -0.023869 -0.006926 90 12 6
-0.0064345 -0.023427 -0.006975 90 13 6
-0.0067755 -0.023489 -0.006997 91 12 6
-0.0064965 -0.023028 -0.00705 91 13 7
-0.0068415 -0.023086 -0.007066 90 13 7
-0.0068955 -0.0228 -0.007106 91 14 7
-0.0071685 -0.023253 -0.007065 91 13 7
-0.0071145 -0.023547 -0.00702 90 13 6
-0.0070485 -0.02394 -0.006952 90 12 6
-0.0055305 -0.024599 -0.006541 86 11 5
-0.0054415 -0.025048 0.00934 58 10 3
-0.0052225 -0.024854 0.009488 62 13 4
-0.0050465 -0.024754 0.009732 58 12 4
-0.0045795 -0.024731 0.009945 56 15 8
-0.0041185 -0.024724 0.010179 59 16 7
-0.0055095 -0.024707 0.009571 62 11 4
-0.0054315 -0.024599 0.009911 57 13 6
-0.0057825 -0.024433 0.010081 58 12 3
-0.0053285 -0.024506 0.010302 52 15 14
-0.0055945 -0.024329 0.010454 53 13 8
-0.0051775 -0.024381 0.010659 47 30 17
-0.0054495 -0.024227 0.010715 47 22 14
-0.0052345 -0.024201 0.010913 47 36 19
-0.0054995 -0.024041 0.010941 48 23 13
-0.0050985 -0.02406 0.011212 55 40 20
-0.0055245 -0.023841 0.011207 47 33 13
-0.0060885 -0.024281 0.01015 52 11 2
-0.0059795 -0.024196 0.010394 44 11 4
-0.0061735 -0.02408 0.010353 52 11 2
-0.0060555 -0.023986 0.010663 42 12 5
-0.0063575 -0.023763 0.010647 46 11 0
-0.0061905 -0.023644 0.010941 40 13 0
-0.0065495 -0.023361 0.010931 32 7 0
-0.0061735 -0.02343 0.01124 43 19 3
-0.0065165 -0.023191 0.011225 40 12 0
-0.0064035 -0.02309 0.011525 43 15 0
-0.0068085 -0.023009 0.011275 35 8 0
-0.0066805 -0.022869 0.011545 34 8 0
-0.0069075 -0.022764 0.011549 29 5 0
-0.0065605 -0.022734 0.011806 41 14 0
-0.0068355 -0.02256 0.011803 34 10 0
-0.0066385 -0.022405 0.012084 29 7 0
-0.0071335 -0.022369 0.011857 23 5 0
-0.0070175 -0.022153 0.012126 16 3 0
-0.0063065 -0.022691 0.012102 36 16 1
-0.0058615 -0.023621 0.011216 46 31 11
-0.0058655 -0.023852 0.010919 41 18 7
-0.0057225 -0.024133 0.010659 43 18 12
-0.0049575 -0.024641 0.010135 56 14 8
-0.0049375 -0.024544 0.010479 48 22 16
-0.0047395 -0.024452 0.010776 50 34 16
-0.0049785 -0.024289 0.010972 59 41 16
-0.0046145 -0.024266 0.011125 65 42 16
-0.0041435 -0.024281 0.011183 66 38 15
-0.0045035 -0.024623 0.01043 50 23 12
-0.0039765 -0.024622 0.010586 50 21 11
-0.0043065 -0.024466 0.010848 55 32 14
-0.0038445 -0.024421 0.010987 55 28 11
-0.0035025 -0.024557 0.010776 52 24 10
0.0017515 -0.024901 -0.007641 86 11 5
0.0013575 -0.024743 -0.00754 85 12 4
0.0021065 -0.024839 -0.007781 87 12 5
0.0113675 -0.024777 -0.006897 88 33 22
0.0111995 -0.024436 -0.006851 93 39 26
0.0108545 -0.024103 -0.007051 95 45 31
0.0104725 -0.023763 -0.007347 97 52 38
0.0104645 -0.0234 -0.007385 112 69 52
0.0105135 -0.023035 -0.007563 118 80 62
0.0105835 -0.022633 -0.007949 122 90 75
0.0114705 -0.024428 -0.0065 95 42 29
0.0115945 -0.02408 -0.006122 103 48 33
0.0117735 -0.023728 -0.005726 118 65 47
0.0117845 -0.023373 -0.005726 122 73 55
0.0119095 -0.022996 -0.005749 133 83 63
0.0121635 -0.02261 -0.005804 146 103 78
0.0124125 -0.022245 -0.005873 154 125 101
0.0127525 -0.021896 -0.005625 165 138 113
0.0130625 -0.021533 -0.005378 168 147 123
0.0113425 -0.024087 -0.006455 99 47 33
0.0115185 -0.023733 -0.006089 106 56 40
0.0115145 -0.023381 -0.006082 120 73 54
0.0116615 -0.023005 -0.006106 132 81 58
0.0119275 -0.022621 -0.006176 138 94 71
0.0121885 -0.022261 -0.006239 154 122 95
0.0123155 -0.021909 -0.006322 157 134 113
0.0125675 -0.021896 -0.00592 159 131 107
0.0125975 -0.021544 -0.006059 158 138 115
0.0128315 -0.02154 -0.005718 165 144 123
0.0128625 -0.021188 -0.005772 162 145 126
0.0129925 -0.021188 -0.005594 164 145 123
0.0128725 -0.02084 -0.005788 160 143 124
0.0130195 -0.02084 -0.005594 163 145 124
0.0129925 -0.02049 -0.005587 164 147 127
0.0132265 -0.020486 -0.005238 168 148 127
0.0131025 -0.02005 -0.005238 167 150 129
0.0131485 -0.020139 -0.005215 168 150 129
0.0132715 -0.01979 -0.004835 157 145 131
0.0133645 -0.020139 -0.004866 166 151 132
0.0130595 -0.019682 -0.005106 158 144 128
0.0126555 -0.019333 -0.005312 137 126 116
0.0127345 -0.019639 -0.005525 153 141 125
0.0128005 -0.020011 -0.005687 164 148 128
0.0125705 -0.020371 -0.006144 164 149 128
0.0123125 -0.020757 -0.006518 162 146 125
0.0120915 -0.021188 -0.006812 158 142 122
0.0118165 -0.021455 -0.007151 164 146 123
0.0115685 -0.021924 -0.007447 161 137 114
0.0112495 -0.022102 -0.007822 150 120 98
0.0113085 -0.022272 -0.00757 149 118 96
0.0110845 -0.022272 -0.007917 145 117 98
0.0108675 -0.022628 -0.007664 130 96 77
0.0128935 -0.020398 -0.005703 164 148 127
0.0126595 -0.020822 -0.006097 164 147 126
0.0123535 -0.020906 -0.006487 159 141 121
0.0124385 -0.021398 -0.006309 159 141 121
0.0121135 -0.021556 -0.006704 159 139 115
0.0123615 -0.021549 -0.006378 158 139 120
0.0120835 -0.021916 -0.00665 156 131 106
0.0119895 -0.022257 -0.006564 152 116 91
0.0126295 -0.021188 -0.006098 162 143 124
-0.0161625 -0.024638 0.004769 87 37 31
-0.0158485 -0.024641 0.005063 93 45 44
-0.0159155 -0.02429 0.005086 97 50 50
-0.0158305 -0.024289 0.00545 100 60 59
-0.0160265 -0.023953 0.005111 101 60 60
-0.0159885 -0.023947 0.005524 107 74 73
-0.0161555 -0.023598 0.005156 103 68 68
-0.0161405 -0.023613 0.005559 112 84 82
-0.0162795 -0.023253 0.005199 107 74 72
-0.0162565 -0.023267 0.005601 117 90 87
-0.0163955 -0.022911 0.005222 121 95 92
-0.0163575 -0.022927 0.005639 134 112 104
-0.0164835 -0.022575 0.005253 128 105 100
-0.0164265 -0.022587 0.005655 141 121 112
-0.0165455 -0.022233 0.005276 138 117 111
-0.0164655 -0.022238 0.005675 147 128 115
-0.0165835 -0.021886 0.005295 154 139 126
-0.0164765 -0.021882 0.005706 162 145 129
-0.0165995 -0.021533 0.005338 157 141 128
-0.0164645 -0.021524 0.005717 165 150 134
-0.0164265 -0.021177 0.005692 170 157 138
-0.0163495 -0.022571 0.00603 151 134 119
-0.0162955 -0.022934 0.006042 143 126 113
-0.0161665 -0.023299 0.006414 136 118 107
-0.0160315 -0.023655 0.006783 145 127 115
-0.0159855 -0.023998 0.006765 141 123 111
-0.0158175 -0.024352 0.00713 144 129 116
-0.0159075 -0.024342 0.006745 129 107 97
-0.0159225 -0.02432 0.006335 116 88 83
-0.0160265 -0.02398 0.006366 133 113 104
-0.0160195 -0.023957 0.005957 117 92 89
-0.0161405 -0.023625 0.005985 121 99 93
-0.0158765 -0.024297 0.00592 108 77 74
-0.0162255 -0.023283 0.006011 128 106 99
-0.0161165 -0.023644 0.006388 135 115 103
-0.0165035 -0.02429 0.004455 86 35 30
-0.0167285 -0.023931 0.004114 86 34 29
-0.0168945 -0.023582 0.003742 83 30 25
-0.0170225 -0.023226 0.003355 83 30 26
-0.0170955 -0.022872 0.002956 84 31 27
-0.0171025 -0.022505 0.002538 86 34 29
-0.0170385 -0.02213 0.002113 91 35 31
-0.0169635 -0.021772 0.001679 95 38 33
-0.0167875 -0.021416 0.001624 99 43 39
-0.0166455 -0.021053 0.001586 106 56 54
-0.0165655 -0.0207 0.00157 111 64 62
-0.0165905 -0.020348 0.001551 118 77 73
-0.0010585 -0.024854 0.010219 50 12 4
0.0149515 -0.024537 0.002344 158 118 85
0.0021115 -0.024636 0.011216 37 6 1
0.0023815 -0.024475 0.011548 33 6 0
0.0020445 -0.024498 0.01179 26 6 0
0.0023425 -0.02439 0.011844 21 6 1
0.0020285 -0.024343 0.012026 18 7 2
0.0023965 -0.024219 0.01204 18 6 0
0.0021485 -0.02408 0.012278 16 9 3
0.0024195 -0.023986 0.01226 11 5 2
0.0023055 -0.023779 0.0125 9 7 1
0.0025865 -0.023753 0.012408 6 4 0
-0.0079845 -0.024326 0.009456 51 6 2
-0.0080615 -0.02398 0.009663 46 5 1
-0.0082395 -0.023582 0.009934 43 3 0
-0.0084385 -0.023195 0.010212 38 0 0
-0.0086275 -0.022836 0.010514 30 0 0
-0.0083905 -0.024281 0.009374 51 6 2
-0.0082825 -0.024126 0.009519 49 6 3
-0.0084335 -0.023802 0.009698 44 3 1
-0.0086125 -0.023404 0.009964 41 1 0
-0.0087995 -0.023005 0.01025 36 1 0
-0.0089945 -0.022649 0.01056 28 0 0
-0.0086165 -0.024048 0.009475 46 7 3
-0.0198375 -0.024266 -0.002287 76 11 8
-0.0161625 -0.024296 0.004761 91 41 38
0.0026675 -0.024235 0.011791 19 3 0
0.0027215 -0.023956 0.012103 10 5 1
0.0110575 -0.024094 -0.006797 97 46 31
0.0108005 -0.023753 -0.006974 102 54 40
0.0109645 -0.023749 -0.006766 101 53 39
0.0109745 -0.023391 -0.00675 116 70 52
0.0112575 -0.02374 -0.006431 106 57 41
0.0112575 -0.023381 -0.006402 113 67 51
0.0107655 -0.023391 -0.00699 110 68 52
0.0111655 -0.022996 -0.006781 122 82 63
0.0114355 -0.022989 -0.006448 124 80 61
0.0108135 -0.023017 -0.007215 120 79 61
0.0111075 -0.022633 -0.007347 133 96 76
0.0114125 -0.022606 -0.007052 134 94 75
0.0115725 -0.022272 -0.007262 150 120 100
0.0115525 -0.022594 -0.006882 133 97 77
0.0117895 -0.022255 -0.006936 151 122 100
0.0117455 -0.022606 -0.006526 136 97 75
0.0118575 -0.021916 -0.007005 160 137 113
0.0118785 -0.021563 -0.007037 163 140 115
0.0116385 -0.021919 -0.007344 161 137 116
0.0106375 -0.023028 -0.007424 120 80 63
-0.0164495 -0.02394 0.004432 90 42 38
-0.0161895 -0.023948 0.004761 96 51 48
-0.0164295 -0.023593 0.00442 94 48 44
-0.0162435 -0.023603 0.004769 100 58 58
-0.0163255 -0.023257 0.004788 99 60 59
-0.0166385 -0.023586 0.004068 91 41 36
-0.0167775 -0.023226 0.0037 86 35 31
-0.0168855 -0.022869 0.003316 87 36 33
-0.0169245 -0.022509 0.002902 93 42 38
-0.0169095 -0.022148 0.002481 93 40 37
-0.0167545 -0.021792 0.002429 99 49 46
-0.0168475 -0.021777 0.002053 97 42 39
-0.0166545 -0.021436 0.00241 109 65 64
-0.0167085 -0.021425 0.002015 104 54 51
-0.0166225 -0.021083 0.00234 118 77 76
-0.0166225 -0.021072 0.002007 111 65 63
-0.0166855 -0.020734 0.002336 122 82 81
-0.0165995 -0.020715 0.001941 114 71 68
-0.0168135 -0.020387 0.002313 130 95 91
-0.0166915 -0.020366 0.001937 122 84 80
-0.0168525 -0.020022 0.00191 131 99 97
-0.0167205 -0.019999 0.001532 127 91 86
-0.0169145 -0.01966 0.001493 130 97 93
-0.0167695 -0.019639 0.001121 127 91 86
-0.0170025 -0.019306 0.001071 134 104 97
-0.0168395 -0.019275 0.000714 128 95 89
-0.0170845 -0.018942 0.000652 133 108 101
-0.0168915 -0.018915 0.000277 126 96 89
-0.0173045 -0.018628 0.00104 138 116 108
-0.0173265 -0.01829 0.001411 160 148 134
-0.0172265 -0.017946 0.001802 164 152 133
-0.0171615 -0.017586 0.00179 165 154 134
-0.0165685 -0.023237 0.004037 92 44 40
-0.0166925 -0.022876 0.003661 91 44 40
-0.0167695 -0.02252 0.003266 93 45 42
-0.0166855 -0.022171 0.003239 99 54 53
-0.0167845 -0.022153 0.002855 98 50 47
-0.0166745 -0.02182 0.003243 106 65 64
-0.0166845 -0.021804 0.002832 102 56 56
-0.0166975 -0.021466 0.003115 115 77 76
-0.0166695 -0.021455 0.002828 112 74 73
-0.0167745 -0.021119 0.003115 130 98 96
-0.0166975 -0.021099 0.002716 121 85 81
-0.0168855 -0.02077 0.003088 132 104 101
-0.0167905 -0.02075 0.002712 125 91 87
-0.0169165 -0.020406 0.002702 133 102 96
0.0109205 -0.023864 0.008967 65 21 11
0.0106725 -0.023667 0.009033 62 15 6
0.0109285 -0.023322 0.008867 61 15 7
0.0109245 -0.022865 0.009053 62 14 8
0.0111575 -0.022525 0.008958 59 14 7
0.0109125 -0.022369 0.009336 60 17 11
0.0111425 -0.022017 0.00922 61 17 10
0.0108855 -0.021847 0.009555 61 20 13
0.0109915 -0.021684 0.009479 61 20 12
0.0106505 -0.021634 0.009823 60 21 16
0.0109475 -0.021253 0.009702 66 25 18
0.0105755 -0.021266 0.010127 63 25 19
0.0107475 -0.021207 0.009957 63 23 16
0.0104515 -0.021005 0.010364 58 18 12
0.0108275 -0.021041 0.009907 64 23 16
0.0106955 -0.020681 0.010165 57 17 11
0.0108755 -0.020952 0.009841 62 21 15
0.0109745 -0.020688 0.009728 62 21 14
0.0111725 -0.021026 0.00942 65 23 17
0.0113015 -0.020698 0.009255 63 20 14
0.0112805 -0.021129 0.009262 63 21 15
0.0115285 -0.021099 0.008913 63 21 14
0.0115325 -0.021448 0.008888 64 21 14
0.0117805 -0.021067 0.008568 67 27 21
0.0118045 -0.02142 0.008541 66 24 17
0.0120335 -0.021037 0.008224 64 24 18
0.0114785 -0.0218 0.008896 62 21 15
0.0112275 -0.021475 0.009258 63 23 18
0.0112085 -0.021827 0.009197 61 18 11
0.0110025 -0.021161 0.009621 64 23 17
0.0114355 -0.022144 0.008811 61 18 12
0.0114005 -0.022171 0.008857 61 18 11
-0.0088845 -0.023577 -0.00716 92 14 8
-0.0092835 -0.023244 -0.007199 93 15 8
-0.0096285 -0.023306 -0.007207 93 14 8
-0.0096995 -0.022911 -0.007207 93 14 7
-0.0100465 -0.022973 -0.007192 93 14 7
-0.0097715 -0.022516 -0.007192 94 15 8
-0.0095005 -0.022064 -0.0072 94 16 8
-0.0094305 -0.022454 -0.0072 93 15 7
-0.0091635 -0.022002 -0.007207 94 16 8
-0.0090975 -0.022385 -0.007202 93 15 8
-0.0088225 -0.021935 -0.007223 94 17 9
-0.0087525 -0.022327 -0.007207 94 16 8
-0.0084795 -0.021877 -0.007238 95 19 9
-0.0084075 -0.022265 -0.0072 93 16 8
-0.0085455 -0.021478 -0.007269 95 19 10
-0.0084455 -0.021227 -0.007293 97 22 11
-0.0088185 -0.021602 -0.007238 96 19 10
-0.0088535 -0.021253 -0.007267 97 21 11
-0.0092095 -0.02163 -0.007223 96 18 10
-0.0091825 -0.021981 -0.007214 94 16 8
-0.0084795 -0.020878 -0.007314 99 26 14
-0.0089545 -0.023175 -0.007189 92 15 8
-0.0086155 -0.023106 -0.007175 92 14 8
-0.0090255 -0.022787 -0.007202 92 14 7
-0.0086815 -0.022725 -0.007192 93 15 8
-0.0093535 -0.022849 -0.007207 93 14 7
-0.0083405 -0.022663 -0.007176 93 14 8
0.0104375 -0.02352 0.009271 64 14 7
0.0106815 -0.023187 0.009141 63 13 6
0.0101535 -0.0234 0.00954 63 13 6
0.0104375 -0.023044 0.009498 61 13 7
0.0106725 -0.022706 0.009407 59 14 7
0.0098215 -0.023322 0.009799 60 12 6
0.0100995 -0.022954 0.009796 59 12 6
0.0104065 -0.022536 0.009721 60 15 9
0.0106415 -0.022193 0.009639 59 17 10
0.0103755 -0.022059 0.009949 61 22 15
0.0100655 -0.022477 0.010012 58 14 8
0.0097715 -0.022869 0.010055 59 14 8
0.0094965 -0.023225 0.010027 59 12 7
-0.0053875 -0.023244 -0.006942 89 12 5
-0.0184745 -0.023172 -0.002945 81 13 7
-0.0182495 -0.02281 -0.002696 82 13 8
-0.0183425 -0.022823 -0.002363 86 15 10
-0.0180405 -0.022441 -0.002256 86 15 10
-0.0184355 -0.022849 -0.001969 85 15 11
-0.0181335 -0.022474 -0.001875 87 17 11
-0.0185045 -0.022854 -0.001578 85 15 12
-0.0181875 -0.022486 -0.001473 88 17 12
-0.0185595 -0.022876 -0.001179 86 16 12
-0.0182105 -0.022503 -0.001063 87 18 13
-0.0185675 -0.022888 -0.00076 84 16 12
-0.0182035 -0.022509 -0.00064 85 17 13
-0.0185365 -0.022893 -0.000338 83 16 12
-0.0178765 -0.022126 -0.000961 90 20 15
-0.0178535 -0.022105 -0.001361 91 19 14
-0.0178145 -0.022091 -0.001764 89 18 13
-0.0177385 -0.022071 -0.002163 87 17 11
-0.0176525 -0.022056 -0.00255 85 16 10
-0.0179395 -0.022436 -0.002647 85 14 9
-0.0177915 -0.022408 -0.003015 80 13 7
-0.0180785 -0.022784 -0.003069 80 12 6
-0.0175345 -0.021731 -0.001249 92 21 15
-0.0175145 -0.021726 -0.001671 91 20 15
-0.0174645 -0.021707 -0.00207 89 19 12
-0.0173795 -0.021687 -0.002457 87 18 11
-0.0172805 -0.021674 -0.002837 85 16 10
-0.0175285 -0.022036 -0.002937 83 14 8
-0.0171545 -0.021661 -0.003162 84 16 9
-0.0173275 -0.022013 -0.003363 82 14 7
-0.0169605 -0.021625 -0.003511 84 15 7
-0.0176985 -0.022397 -0.003224 79 13 6
-0.0172245 -0.021347 -0.001566 92 22 16
-0.0172005 -0.021335 -0.001977 91 21 15
-0.0171335 -0.02132 -0.002372 89 20 13
-0.0169145 -0.020959 -0.001868 94 23 17
-0.0168915 -0.020959 -0.002294 91 22 15
-0.0170255 -0.021305 -0.002758 88 19 12
-0.0166225 -0.020587 -0.002186 94 28 19
-0.0165345 -0.020561 -0.002581 94 27 18
-0.0167695 -0.020936 -0.002678 90 21 14
-0.0166315 -0.020913 -0.003046 88 20 14
-0.0168635 -0.021281 -0.003131 87 18 11
-0.0166925 -0.021253 -0.003495 83 18 10
-0.0163135 -0.020201 -0.002511 97 32 23
-0.0164115 -0.020545 -0.002968 92 26 17
-0.0164885 -0.020886 -0.003424 87 20 13
-0.0165965 -0.021239 -0.003681 84 17 10
-0.0160005 -0.019813 -0.002821 101 37 27
-0.0162095 -0.020181 -0.002891 97 31 21
-0.0160885 -0.020158 -0.003278 97 32 22
-0.0162825 -0.020522 -0.003348 91 25 16
-0.0159995 -0.020139 -0.003526 97 32 22
-0.0161395 -0.020495 -0.003704 92 26 17
-0.0158175 -0.020114 -0.003913 97 32 21
-0.0159235 -0.020472 -0.004061 90 25 16
-0.0156085 -0.020091 -0.004274 96 30 21
-0.0153645 -0.020061 -0.004595 93 29 19
-0.0162665 -0.020855 -0.003875 87 20 12
-0.0158845 -0.019797 -0.003208 102 38 27
-0.0157555 -0.019774 -0.00358 101 38 27
-0.0156755 -0.019763 -0.003742 102 38 28
-0.0154845 -0.01974 -0.004107 101 38 26
-0.0152635 -0.019705 -0.004448 103 37 25
-0.0150195 -0.019678 -0.004772 103 38 26
-0.0150895 -0.020033 -0.004878 95 29 18
-0.0147875 -0.020003 -0.00513 94 28 17
0.0091595 -0.023106 0.01022 56 12 8
0.0094255 -0.022761 0.010263 57 13 8
0.0097195 -0.022405 0.010289 57 19 12
0.0100035 -0.022013 0.010273 59 22 12
0.0103315 -0.021595 0.010188 61 23 17
-0.0163795 -0.023244 0.004397 99 54 53
-0.0164345 -0.0229 0.004405 102 62 60
-0.0165345 -0.022888 0.004021 97 53 51
-0.0166385 -0.022525 0.003643 99 55 54
-0.0166275 -0.02218 0.00364 106 66 66
0.0088415 -0.023005 0.010463 56 16 10
0.0091155 -0.022672 0.010527 56 17 11
0.0093945 -0.022319 0.010555 56 22 14
0.0096655 -0.021967 0.010573 60 25 17
0.0100155 -0.021552 0.010533 56 22 15
0.0102435 -0.021173 0.010476 57 19 13
0.0090805 -0.022245 0.010829 57 24 16
0.0093365 -0.021882 0.01085 54 21 13
0.0091775 -0.021855 0.011 62 26 16
0.0095195 -0.021684 0.010834 59 25 16
0.0094135 -0.021409 0.011179 59 20 11
0.0097665 -0.021223 0.011015 58 19 13
0.0096745 -0.020971 0.011352 51 12 6
0.0099795 -0.020743 0.011186 51 10 5
0.0097785 -0.020414 0.011496 41 5 1
0.0100775 -0.020162 0.01132 42 4 0
0.0097755 -0.019802 0.011623 27 2 0
0.0100505 -0.019538 0.011461 28 1 0
0.0098395 -0.019643 0.01195 22 9 3
0.0101455 -0.019407 0.011851 20 7 2
0.0102515 -0.019785 0.01228 27 18 9
0.0105255 -0.019487 0.012133 24 15 8
0.0106075 -0.01984 0.012597 35 30 22
0.0108665 -0.019565 0.012479 34 30 22
0.0108755 -0.019864 0.012928 54 53 44
0.0111065 -0.019604 0.012799 50 49 40
0.0111425 -0.019875 0.013246 78 76 63
0.0113735 -0.019595 0.013074 73 72 61
0.0113945 -0.019882 0.013564 111 107 91
0.0116565 -0.019616 0.013397 107 105 92
0.0116295 -0.019869 0.013885 131 127 109
0.0118965 -0.019611 0.013715 129 123 107
0.0118075 -0.019813 0.014197 145 143 124
0.0120835 -0.019565 0.014027 143 140 122
0.0119285 -0.019712 0.014511 155 150 129
0.0122155 -0.019474 0.014331 157 152 131
0.0122105 -0.019395 0.014647 164 158 136
0.0124505 -0.019225 0.014302 153 150 129
0.0123705 -0.019181 0.014683 165 158 134
0.0126455 -0.018864 0.014523 161 156 134
0.0121055 -0.019448 0.014798 166 157 134
0.0120205 -0.019554 0.01478 166 158 135
-0.0164035 -0.022904 0.004815 108 73 71
-0.0165035 -0.02256 0.00485 116 86 85
-0.0166045 -0.022219 0.004867 123 96 93
-0.0166625 -0.021878 0.004898 143 125 116
-0.0167125 -0.021528 0.004924 150 134 124
-0.0165885 -0.021184 0.005315 162 148 132
-0.0165275 -0.020822 0.005307 172 159 138
-0.0163485 -0.020817 0.005678 172 160 139
-0.0164345 -0.02046 0.005297 173 159 137
-0.0162565 -0.020467 0.005665 172 160 137
-0.0163415 -0.020107 0.00528 174 162 139
-0.0164995 -0.022548 0.004428 108 73 72
-0.0165425 -0.022539 0.004021 102 62 61
-0.0165995 -0.022193 0.004044 110 74 73
-0.0166895 -0.021834 0.003669 112 75 72
-0.0167595 -0.021478 0.003514 119 85 82
-0.0168445 -0.021133 0.00349 128 95 90
-0.0169405 -0.020789 0.003483 135 110 104
-0.0170095 -0.020445 0.003494 141 119 112
-0.0169915 -0.020433 0.003088 139 116 109
-0.0170555 -0.020096 0.003386 149 130 119
-0.0170695 -0.020084 0.003095 142 120 112
-0.0170565 -0.019744 0.00339 157 141 128
-0.0171155 -0.019735 0.002987 149 128 118
-0.0171185 -0.019383 0.002995 164 149 134
-0.0171265 -0.019723 0.002685 153 135 124
-0.0171805 -0.019379 0.0026 157 140 127
-0.0171025 -0.019705 0.002282 142 119 112
-0.0171935 -0.019363 0.002278 151 131 120
-0.0170265 -0.019682 0.001864 136 112 107
-0.0171855 -0.019345 0.001864 146 126 118
-0.0171195 -0.019324 0.001446 138 110 102
-0.0172555 -0.019 0.001864 151 134 124
-0.0172505 -0.018988 0.00145 141 117 109
-0.0172785 -0.018655 0.001809 157 143 130
-0.0173045 -0.01864 0.001458 144 125 116
-0.0172625 -0.018302 0.001809 159 146 131
-0.0171955 -0.018968 0.001055 136 110 103
-0.0169685 -0.020045 0.00229 132 102 98
-0.0170385 -0.020065 0.002681 138 110 104
-0.0166045 -0.022206 0.004468 115 83 80
-0.0166935 -0.021847 0.004083 116 83 78
-0.0167745 -0.021483 0.003703 124 96 94
-0.0168675 -0.021145 0.003738 131 103 97
-0.0166935 -0.02186 0.004499 128 104 101
-0.0167905 -0.021505 0.004118 127 101 98
-0.0167745 -0.021521 0.004532 139 118 113
-0.0168625 -0.021161 0.004145 136 114 109
-0.0169375 -0.020801 0.003762 134 110 104
-0.0169785 -0.020456 0.003773 152 136 124
-0.0169845 -0.020104 0.003785 153 138 125
-0.0169475 -0.019747 0.003781 168 155 137
-0.0170175 -0.019386 0.00339 165 150 133
-0.0170715 -0.019023 0.002999 166 155 136
-0.0171725 -0.019023 0.002603 161 148 132
-0.0171235 -0.018667 0.002596 165 153 135
-0.0172235 -0.018663 0.002208 154 139 125
-0.0171795 -0.018307 0.002206 168 156 137
-0.0172265 -0.019017 0.002206 150 132 121
-0.0167125 -0.021177 0.00492 159 145 130
-0.0168055 -0.021173 0.00454 148 132 123
-0.0168005 -0.020819 0.004548 161 147 133
-0.0168985 -0.020816 0.004162 143 124 116
-0.0169065 -0.020463 0.004164 161 145 131
-0.0168675 -0.020107 0.004168 164 150 134
-0.0168935 -0.019747 0.00394 168 155 136
-0.0167985 -0.019744 0.004157 172 159 139
-0.0167315 -0.01939 0.004087 169 158 137
-0.0165115 -0.019386 0.004499 169 157 135
-0.0165835 -0.019027 0.004118 168 155 134
-0.0164415 -0.019744 0.004889 173 161 138
-0.0168785 -0.01939 0.003769 169 157 137
-0.0169455 -0.019023 0.003374 169 155 135
-0.0170095 -0.018667 0.002983 164 152 134
-0.0170535 -0.018307 0.002584 170 160 139
-0.0171085 -0.01795 0.002193 168 158 138
-0.0170175 -0.01759 0.002175 172 162 140
-0.0167775 -0.019023 0.00375 172 159 138
-0.0168545 -0.018667 0.003365 173 161 140
-0.0169225 -0.018309 0.002968 173 161 139
-0.0169635 -0.017946 0.002572 168 157 136
-0.0166665 -0.018667 0.003734 170 157 136
-0.0167365 -0.018302 0.003347 173 161 139
-0.0168135 -0.01795 0.002946 171 160 137
-0.0168285 -0.01785 0.00282 171 161 137
-0.0168465 -0.01759 0.002549 171 159 136
-0.0167545 -0.017489 0.002662 171 159 136
-0.0167155 -0.017229 0.002516 170 157 133
-0.0166115 -0.017946 0.003324 169 157 135
-0.0165495 -0.018307 0.003705 169 157 134
-0.0168215 -0.017225 0.002299 171 161 136
-0.0166765 -0.020822 0.004935 170 157 139
-0.0167285 -0.020463 0.004676 169 155 137
-0.0167705 -0.02046 0.004556 168 155 137
-0.0167125 -0.020107 0.004548 170 156 137
-0.0168085 -0.0201 0.004308 170 156 138
-0.0166225 -0.019747 0.004525 172 159 137
-0.0165455 -0.020107 0.004916 171 157 136
-0.0166215 -0.020463 0.004924 171 158 136
-0.0155735 -0.022934 0.007575 148 137 122
-0.0158455 -0.021157 0.006641 161 149 130
-0.0157785 -0.020796 0.006552 158 146 127
-0.0157055 -0.020445 0.006466 157 145 126
-0.0156255 -0.020091 0.006374 159 143 122
-0.0155465 -0.019728 0.006287 160 142 118
-0.0154655 -0.019363 0.006188 158 139 114
-0.0154805 -0.019004 0.00592 158 137 112
-0.0155815 -0.018651 0.00552 161 144 118
-0.0156675 -0.018295 0.00514 162 145 118
-0.0157605 -0.017935 0.004745 160 139 113
-0.0158255 -0.017578 0.004354 159 138 110
-0.0156605 -0.017218 0.004317 157 133 104
-0.0158795 -0.017218 0.003959 158 139 112
-0.0157065 -0.017144 0.004166 157 133 104
-0.0159335 -0.017202 0.003862 158 139 112
-0.0155815 -0.016796 0.003998 153 129 102
-0.0158175 -0.016857 0.0037 157 135 109
-0.0156985 -0.01652 0.003541 154 130 103
-0.0159385 -0.016575 0.003235 154 133 106
-0.0158065 -0.016242 0.003076 150 125 100
-0.0160475 -0.0163 0.002782 156 134 110
-0.0159155 -0.015969 0.002615 158 136 109
-0.0157215 -0.015638 0.002437 152 127 101
-0.0155195 -0.015379 0.002278 148 120 93
-0.0152175 -0.015052 0.002059 141 107 79
-0.0154225 -0.016481 0.003827 142 115 89
-0.0155425 -0.016207 0.00337 143 117 91
-0.0156355 -0.01593 0.002909 149 123 97
-0.0157835 -0.019735 0.005953 165 150 126
-0.0158615 -0.019372 0.005582 167 153 130
-0.0159465 -0.019014 0.005195 166 152 128
-0.0160385 -0.018662 0.004811 167 152 128
-0.0161195 -0.018302 0.004424 167 154 128
-0.0156905 -0.019368 0.005851 162 147 123
-0.0157285 -0.019012 0.005543 163 147 121
-0.0157995 -0.018655 0.005168 165 147 122
-0.0158995 -0.018302 0.004788 165 148 123
-0.0159775 -0.017943 0.004393 163 145 119
-0.0160385 -0.017574 0.003998 161 144 118
-0.0161545 -0.017268 0.003564 161 143 118
-0.0160475 -0.016931 0.003405 156 137 112
-0.0161715 -0.016637 0.00294 160 141 116
-0.0163795 -0.016711 0.002642 164 149 124
0.0066585 -0.02235 0.012327 35 3 0
0.0070125 -0.022238 0.01217 42 5 0
0.0067335 -0.022164 0.012615 33 4 1
0.0070795 -0.022025 0.012466 37 4 1
0.0067805 -0.02194 0.012899 19 5 1
0.0071525 -0.021827 0.012758 24 4 1
0.0064895 -0.022002 0.013013 24 10 4
0.0064065 -0.02225 0.012738 23 3 1
0.0073725 -0.022105 0.012034 46 8 2
0.0077175 -0.021967 0.011889 48 10 3
0.0080815 -0.021873 0.011737 52 13 5
0.0077625 -0.02171 0.012163 45 8 1
0.0081135 -0.021591 0.012022 48 10 3
0.0078025 -0.021444 0.012438 30 4 0
0.0074745 -0.021669 0.012606 26 3 0
0.0074305 -0.021886 0.012318 42 7 1
0.0084425 -0.0218 0.011596 56 18 9
0.0084735 -0.021494 0.011881 50 11 5
0.0086015 -0.021455 0.011827 51 12 5
0.0071325 -0.022233 0.016006 131 130 111
0.0075235 -0.022211 0.01589 129 128 109
0.0072615 -0.022229 0.016355 145 147 126
0.0076425 -0.022199 0.016239 144 146 127
0.0073725 -0.022183 0.016692 155 156 133
0.0077495 -0.022137 0.01657 154 155 133
0.0074705 -0.022109 0.017023 165 165 142
0.0078525 -0.022052 0.016895 164 164 141
0.0075635 -0.021997 0.017338 166 168 144
0.0079465 -0.021948 0.017213 165 167 143
0.0080285 -0.021816 0.017523 166 168 144
0.0083035 -0.021847 0.017081 164 164 142
0.0083795 -0.021707 0.017391 166 167 144
0.0086595 -0.021723 0.016934 164 162 140
0.0087375 -0.021568 0.017238 168 167 143
0.0090185 -0.021607 0.01679 166 163 139
0.0090455 -0.021466 0.017079 161 163 140
0.0093825 -0.021285 0.016974 163 161 140
0.0093205 -0.021053 0.017321 158 157 137
0.0096545 -0.020819 0.017145 156 155 133
0.0096035 -0.020636 0.017344 155 154 134
0.0099405 -0.02041 0.017087 148 147 127
0.0098555 -0.020104 0.017361 140 139 119
0.0102125 -0.019852 0.01705 142 139 120
0.0101045 -0.01974 0.017209 136 133 115
0.0104015 -0.019705 0.016821 139 135 117
0.0103895 -0.019349 0.01688 126 121 104
0.0105345 -0.019693 0.016665 139 135 117
0.0107045 -0.019317 0.016529 131 124 106
0.0107885 -0.019666 0.016349 148 142 122
0.0108055 -0.019306 0.016421 132 126 108
0.0082145 -0.021963 0.016759 162 163 141
0.0085785 -0.021866 0.01662 162 162 139
0.0082415 -0.02204 0.016393 155 155 133
0.0086245 -0.021948 0.016254 155 153 132
0.0083925 -0.022064 0.015979 145 145 124
0.0085075 -0.022029 0.015934 146 145 124
0.0082725 -0.022098 0.01564 130 126 109
0.0087095 -0.021924 0.015454 137 131 111
0.0084855 -0.021901 0.015121 118 112 96
0.0088295 -0.02171 0.014953 120 114 99
0.0091385 -0.021524 0.014805 122 115 98
0.0090395 -0.021765 0.015303 139 134 114
0.0093605 -0.021586 0.01515 137 132 112
0.0092005 -0.021746 0.01564 147 146 126
0.0095345 -0.021579 0.015485 149 148 126
0.0093205 -0.021673 0.015962 156 154 132
0.0096575 -0.02151 0.015812 155 153 129
0.0094185 -0.021568 0.016283 162 160 139
0.0097445 -0.0214 0.016128 161 158 136
0.0097815 -0.021253 0.016438 164 161 140
0.0101045 -0.021014 0.016285 164 159 137
0.0100505 -0.020796 0.01663 159 158 136
0.0103715 -0.020502 0.016419 156 152 131
0.0099805 -0.020541 0.016943 154 152 131
0.0102775 -0.020176 0.0168 151 146 127
0.0106065 -0.019898 0.016452 146 140 120
0.0106815 -0.020189 0.01619 157 150 128
0.0109865 -0.019898 0.015967 156 149 126
0.0107515 -0.02046 0.015882 166 159 135
0.0110715 -0.020169 0.015677 169 160 135
0.0107735 -0.020553 0.015723 167 160 136
0.0109245 -0.020525 0.015475 167 159 135
0.0106415 -0.020757 0.01564 170 162 137
0.0108245 -0.020708 0.015187 161 156 133
0.0105755 -0.020897 0.015326 159 155 133
0.0104525 -0.020968 0.015005 149 147 126
0.0101575 -0.021191 0.015171 150 148 126
0.0099805 -0.021191 0.014836 139 133 113
0.0098485 -0.021393 0.01533 151 146 127
0.0096745 -0.021393 0.014993 138 132 112
0.0099755 -0.021331 0.015654 157 154 132
0.0100645 -0.021212 0.015965 162 156 135
0.0101395 -0.021145 0.01595 162 157 135
0.0104325 -0.020734 0.016099 163 157 135
0.0104675 -0.020858 0.015845 164 158 136
0.0103625 -0.020998 0.015807 165 159 137
0.0102855 -0.021129 0.015493 158 154 133
0.0097195 -0.021067 0.016818 160 159 137
0.0094305 -0.021448 0.016562 166 164 139
0.0088645 -0.021896 0.015783 146 145 123
0.0089845 -0.02182 0.016109 154 154 131
0.0089385 -0.021753 0.016479 160 160 137
0.0090735 -0.021703 0.016424 162 161 138
0.0093685 -0.021462 0.016639 166 163 139
0.0081355 -0.022052 0.015274 119 114 98
0.0077625 -0.022133 0.015408 114 110 97
0.0079045 -0.022171 0.015768 133 130 111
0.0069825 -0.022206 0.016804 157 155 131
0.0067065 -0.022164 0.017251 166 167 142
0.0063985 -0.022052 0.017678 173 173 146
0.0060815 -0.021912 0.018097 175 175 149
0.0061625 -0.021798 0.018422 177 179 153
0.0057595 -0.021769 0.018523 177 180 153
0.0061375 -0.021772 0.018492 177 179 153
0.0057345 -0.021645 0.01882 178 180 153
0.0060815 -0.021611 0.018848 176 179 153
0.0056805 -0.021487 0.019185 177 180 154
0.0060245 -0.021439 0.019212 175 179 152
0.0070905 -0.022141 0.017137 165 165 140
0.0067935 -0.022064 0.017577 170 170 144
0.0068715 -0.021935 0.017887 172 173 147
0.0064915 -0.021944 0.018 175 175 149
0.0069465 -0.021788 0.018197 172 175 148
0.0065675 -0.021811 0.018313 176 176 150
0.0070175 -0.02163 0.018499 166 169 144
0.0064855 -0.021726 0.018519 176 177 151
0.0068185 -0.021657 0.018542 170 173 147
0.0067555 -0.021462 0.018879 170 173 147
0.0071015 -0.02137 0.018864 166 170 144
0.0070265 -0.021115 0.019193 159 163 140
0.0073725 -0.021009 0.019127 154 156 134
0.0072925 -0.02072 0.019468 150 152 130
0.0076385 -0.02061 0.019362 147 148 128
0.0079155 -0.020176 0.019561 144 145 123
0.0079005 -0.019993 0.019738 145 145 123
0.0082205 -0.019949 0.019428 139 139 119
0.0082675 -0.019608 0.019623 131 132 114
0.0085545 -0.019562 0.019243 124 126 110
0.0085515 -0.019216 0.019371 123 123 107
0.0088325 -0.019177 0.018918 117 117 102
0.0087875 -0.018831 0.018964 115 110 94
0.0090625 -0.018798 0.018441 111 105 88
0.0087445 -0.018488 0.018967 114 108 90
0.0090155 -0.018454 0.018383 111 101 80
0.0087025 -0.018144 0.018972 105 97 81
0.0089775 -0.018104 0.018302 105 90 66
0.0086465 -0.017799 0.018941 100 89 71
0.0089195 -0.017753 0.018244 98 80 55
0.0085935 -0.017457 0.018918 91 78 63
0.0088375 -0.017427 0.018205 94 72 47
0.0086235 -0.017101 0.018422 93 63 40
0.0087565 -0.017088 0.017992 90 60 35
0.0084805 -0.016729 0.018306 89 56 29
0.0092215 -0.017725 0.017795 92 66 40
0.0095855 -0.018038 0.017492 92 67 44
0.0099295 -0.018348 0.017135 101 83 59
0.0102695 -0.018662 0.016835 109 100 83
0.0106585 -0.018965 0.016515 117 111 95
0.0092935 -0.01807 0.017891 100 77 53
0.0096165 -0.018387 0.017539 101 84 59
0.0099575 -0.018702 0.017207 104 94 75
0.0103355 -0.019007 0.016878 120 113 95
0.0093205 -0.018419 0.017937 103 88 65
0.0096615 -0.018729 0.017585 107 100 80
0.0100105 -0.019039 0.017251 112 108 90
0.0100775 -0.019383 0.017257 127 122 105
0.0093595 -0.018764 0.018 108 97 77
0.0097135 -0.019076 0.017624 116 111 92
0.0097665 -0.019418 0.017635 123 121 103
0.0097895 -0.019771 0.01757 134 131 113
0.0094035 -0.019112 0.018039 115 112 94
0.0094445 -0.019453 0.01803 117 116 99
0.0094525 -0.019806 0.017942 131 130 112
0.0094525 -0.020166 0.017802 143 143 123
0.0097315 -0.020139 0.017508 141 141 121
0.0095155 -0.020332 0.017647 144 144 124
0.0082645 -0.019255 0.019785 126 125 109
0.0081835 -0.018919 0.020048 123 121 108
0.0082455 -0.018561 0.020036 116 113 99
0.0082105 -0.01821 0.020142 117 114 99
0.0080425 -0.018233 0.020555 113 111 98
0.0082015 -0.017861 0.020177 106 102 90
0.0080505 -0.017884 0.020599 115 111 97
0.0081525 -0.017516 0.020181 99 94 83
0.0080505 -0.017547 0.020645 109 105 91
0.0080245 -0.017195 0.020652 99 93 80
0.0079845 -0.016846 0.020642 94 83 70
0.0079275 -0.016497 0.020626 90 77 63
0.0078225 -0.016145 0.020583 89 65 49
0.0076515 -0.015796 0.020444 80 51 38
0.0074255 -0.015443 0.020215 72 37 26
0.0072765 -0.015079 0.020033 75 36 22
0.0072345 -0.014764 0.020048 68 31 15
0.0072705 -0.014476 0.020203 67 28 13
0.0085345 -0.018867 0.019437 119 116 100
0.0082645 -0.018906 0.019921 123 122 108
0.0083835 -0.018538 0.019735 118 113 98
0.0083655 -0.018188 0.019762 110 106 92
0.0083385 -0.017838 0.019769 100 95 82
0.0085075 -0.01852 0.019491 117 111 95
0.0085305 -0.018162 0.019374 111 105 88
0.0084995 -0.017815 0.019359 105 98 82
0.0083035 -0.017493 0.019769 98 93 80
0.0081215 -0.017168 0.020181 97 87 74
0.0084585 -0.01747 0.019352 95 84 68
0.0082675 -0.01714 0.019754 94 83 67
0.0080815 -0.016818 0.020173 96 82 63
0.0084065 -0.017121 0.019325 89 76 62
0.0082145 -0.016791 0.019726 86 69 54
0.0080115 -0.016471 0.02015 82 62 49
0.0066985 -0.021246 0.019216 164 169 144
0.0063615 -0.021363 0.019228 171 174 148
0.0064215 -0.021549 0.018875 174 176 150
0.0071865 -0.022048 0.017458 166 167 143
0.0072705 -0.021922 0.017771 168 170 146
0.0073495 -0.021777 0.018084 170 172 147
0.0072185 -0.021742 0.01819 170 172 146
0.0071595 -0.021563 0.018546 166 170 145
0.0076475 -0.021878 0.017655 165 167 144
0.0077175 -0.02171 0.017953 167 170 146
0.0075555 -0.021638 0.018189 167 170 145
0.0074935 -0.021444 0.018523 165 167 144
0.0080965 -0.021641 0.017821 166 168 144
0.0081435 -0.021421 0.018104 162 165 141
0.0078915 -0.021506 0.018166 164 167 144
0.0082285 -0.021341 0.018132 164 166 143
0.0078375 -0.021343 0.018433 161 164 141
0.0081485 -0.021087 0.018461 157 160 137
0.0077625 -0.021053 0.01882 154 158 135
0.0081095 -0.020929 0.018651 150 153 132
0.0080425 -0.020677 0.018956 146 148 127
0.0084105 -0.020596 0.018689 146 149 128
0.0083485 -0.020352 0.018972 145 147 126
0.0085045 -0.02027 0.018864 143 145 124
0.0081795 -0.020304 0.019193 140 142 122
0.0085385 -0.019918 0.019073 136 136 117
0.0079765 -0.020428 0.019263 145 146 125
0.0077095 -0.020858 0.019057 149 151 130
0.0074255 -0.021219 0.018856 157 161 138
0.0082945 -0.021549 0.01779 163 166 142
0.0080195 -0.022137 0.016109 145 146 126
0.0081175 -0.022064 0.016438 154 154 133
0.0013295 -0.021939 0.014453 34 19 5
0.0014175 -0.021676 0.014689 24 17 6
0.0013325 -0.021341 0.014904 20 17 10
0.0010055 -0.021901 0.014466 42 22 5
0.0011075 -0.021661 0.014699 30 22 6
0.0007515 -0.021653 0.014621 38 20 6
0.0009375 -0.02137 0.014885 30 23 11
0.0005645 -0.021359 0.014836 24 19 8
0.0008125 -0.021014 0.01503 23 19 10
0.0011155 -0.021044 0.015032 25 18 12
0.0029865 -0.021652 -0.008478 124 60 35
0.0026175 -0.021595 -0.008385 125 61 36
0.0025465 -0.021207 -0.008586 134 77 49
0.0021175 -0.020862 -0.008811 132 84 59
0.0017135 -0.020592 -0.009067 131 95 70
0.0013295 -0.020518 -0.008966 129 87 65
0.0009455 -0.020258 -0.009221 126 94 74
0.0021815 -0.021235 -0.008452 123 62 41
0.0017665 -0.020952 -0.008571 123 66 44
0.0017385 -0.020805 -0.008731 130 76 50
0.0013635 -0.020734 -0.008653 128 84 59
0.0009625 -0.02041 -0.008909 126 80 57
0.0005755 -0.020162 -0.009121 124 90 71
0.0001815 -0.019914 -0.009422 127 101 85
-0.0001865 -0.019686 -0.009663 119 100 86
-0.0005745 -0.019441 -0.009988 125 109 92
-0.0009665 -0.01917 -0.010259 126 120 106
-0.0013655 -0.018853 -0.010421 143 135 117
-0.0017355 -0.018831 -0.010313 142 133 114
-0.0021355 -0.01843 -0.010437 146 139 120
-0.0025405 -0.018093 -0.010521 148 138 119
-0.0029525 -0.017771 -0.010593 153 142 120
0.0099055 -0.021517 0.010681 57 21 15
0.0100575 -0.020991 0.010851 55 17 10
0.0101975 -0.020538 0.011026 49 9 4
0.0104285 -0.020208 0.010835 48 8 3
0.0103005 -0.019869 0.011128 42 3 0
0.0105565 -0.019806 0.010668 47 5 2
0.0104015 -0.019526 0.011002 41 2 0
0.0106105 -0.019418 0.010508 46 4 2
0.0104985 -0.019159 0.01083 40 1 0
0.0106855 -0.019053 0.010343 44 4 0
0.0105925 -0.018814 0.010666 39 1 0
0.0107575 -0.018694 0.010187 44 1 0
0.0106815 -0.018465 0.010513 37 0 0
0.0108095 -0.01833 0.01005 43 0 0
0.0107395 -0.018116 0.010392 35 0 0
0.0108365 -0.018035 0.009999 42 0 0
0.0107885 -0.017783 0.010266 32 0 0
0.0108985 -0.01852 0.009698 50 5 1
0.0108475 -0.018893 0.009846 50 6 2
0.0107825 -0.019262 0.010005 50 7 2
0.0107165 -0.019634 0.010165 52 8 4
0.0106585 -0.020034 0.010318 53 10 5
0.0105305 -0.020463 0.010497 52 13 7
0.0103255 -0.020731 0.010684 54 15 9
0.0107825 -0.020383 0.01005 57 15 10
0.0108405 -0.020185 0.00993 55 14 10
0.0108675 -0.01984 0.009818 53 11 7
0.0110945 -0.020073 0.009466 61 17 11
0.0111345 -0.019705 0.009315 60 15 10
0.0114045 -0.019957 0.008965 63 17 11
0.0114255 -0.019565 0.008805 64 15 10
0.0117455 -0.019848 0.00844 66 18 13
0.0117685 -0.019464 0.008291 64 16 11
0.0121185 -0.019758 0.007902 66 19 14
0.0123805 -0.019937 0.007578 68 21 17
0.0124425 -0.020286 0.007565 67 24 19
0.0121795 -0.019967 0.007874 68 20 15
0.0122035 -0.020316 0.007902 67 23 18
0.0119625 -0.020344 0.008248 68 27 20
0.0119985 -0.020693 0.008233 67 25 18
0.0117535 -0.02072 0.008582 65 22 17
0.0115245 -0.02075 0.008921 66 25 18
0.0122535 -0.020658 0.00789 68 28 23
0.0118515 -0.02001 0.008326 65 18 13
0.0117105 -0.020371 0.00859 65 21 16
0.0116215 -0.020034 0.00866 67 22 17
0.0114975 -0.020055 0.008851 63 17 11
0.0114835 -0.020401 0.008937 62 19 13
0.0113555 -0.020321 0.009118 62 19 13
0.0110535 -0.020433 0.009608 61 20 13
0.0114665 -0.0192 0.008659 64 12 9
0.0111615 -0.019317 0.00916 61 12 8
0.0109165 -0.019469 0.009663 54 10 6
0.0109745 -0.019097 0.009506 56 10 5
0.0110325 -0.018733 0.009351 54 7 4
0.0112225 -0.018957 0.009011 62 11 6
0.0102325 -0.019186 0.011277 27 0 0
0.0103625 -0.018837 0.011108 26 0 0
0.0105215 -0.018515 0.010965 25 0 0
0.0106455 -0.018183 0.010818 21 0 0
0.0107115 -0.017838 0.010674 19 0 0
0.0108045 -0.017485 0.010559 16 0 0
0.0086405 -0.021444 0.017593 160 163 141
0.0089845 -0.021274 0.017454 159 161 139
0.0089035 -0.021014 0.01781 157 161 139
0.0092485 -0.020822 0.017596 155 156 136
0.0091735 -0.020534 0.01788 148 150 129
0.0085695 -0.021196 0.017981 160 164 139
0.0084895 -0.02092 0.018321 155 158 136
0.0087555 -0.02046 0.018421 142 146 125
0.0088175 -0.020231 0.018511 137 139 119
0.0088445 -0.019875 0.018701 128 130 114
0.0091545 -0.019843 0.01832 129 131 112
0.0091325 -0.019491 0.018438 122 123 107
0.0091465 -0.020197 0.018135 138 139 120
0.0091235 -0.020313 0.018092 138 140 121
0.0088295 -0.020738 0.018107 150 152 131
0.0088405 -0.019526 0.018843 125 126 110
0.0091195 -0.019143 0.018457 114 110 94
0.0094485 -0.021324 0.014643 124 116 99
0.0092055 -0.021235 0.014288 91 87 73
0.0095275 -0.021053 0.014133 92 87 73
0.0092945 -0.020975 0.013781 73 71 59
0.0096205 -0.020805 0.01363 69 69 58
0.0094035 -0.020747 0.013286 42 42 33
0.0097555 -0.020564 0.013121 40 39 31
0.0094655 -0.020518 0.012797 28 21 12
0.0092905 -0.020309 0.012377 24 13 5
0.0100415 -0.02058 0.013428 63 62 53
0.0101705 -0.020693 0.013822 82 80 67
0.0098515 -0.020878 0.013982 87 85 71
0.0100845 -0.020952 0.014331 120 114 99
0.0097635 -0.021138 0.014488 124 117 101
0.0103215 -0.020596 0.013744 82 80 66
0.0103835 -0.020739 0.014168 118 114 99
0.0105925 -0.020786 0.014513 134 130 114
0.0102865 -0.020995 0.014674 139 134 114
0.0107075 -0.020789 0.014873 147 146 125
0.0105755 -0.020614 0.014066 116 112 97
0.0108235 -0.020603 0.014385 132 129 111
0.0109955 -0.020564 0.014703 148 146 127
0.0111115 -0.020468 0.015011 162 157 134
0.0112035 -0.020286 0.015307 168 159 135
0.0090705 -0.020398 0.012083 27 6 0
