ply
format ascii 1.0
element vertex 1727
property float x
property float y
property float z
end_header
0.355607 0.139698 0.0199488
0.356105 0.139668 0.0198147
0.356541 0.13966 0.019571
0.357038 0.139631 0.019437
0.357475 0.139623 0.0191933
0.357911 0.139616 0.0189497
0.358287 0.139631 0.0185965
0.358724 0.139623 0.0183528
0.3591 0.139638 0.0179996
0.359476 0.139653 0.0176464
0.359851 0.139668 0.0172933
0.360166 0.139705 0.0168305
0.360421 0.139764 0.0162582
0.360675 0.139824 0.0156859
0.36099 0.139861 0.0152231
0.361184 0.139943 0.0145413
0.361377 0.140025 0.0138594
0.361631 0.140084 0.0132872
0.361886 0.140144 0.0127148
0.361958 0.14027 0.0118139
0.362212 0.14033 0.0112415
0.362405 0.140411 0.0105597
0.362599 0.140493 0.00987782
0.362732 0.140597 0.00908641
0.362925 0.140679 0.00840455
0.362997 0.140805 0.00750359
0.363191 0.140887 0.00682178
0.363263 0.141014 0.00592083
0.363396 0.141118 0.00512937
0.363589 0.1412 0.00444755
0.363722 0.141304 0.00365616
0.363915 0.141386 0.0029743
0.363805 0.141579 0.00174462
0.363877 0.141705 0.000843668
0.256714 0.146546 0.0451965
0.257407 0.146451 0.0454143
0.25839 0.146242 0.0461567
0.259191 0.146101 0.0465704
0.260053 0.145937 0.0470936
0.260794 0.145817 0.0473978
0.261534 0.145698 0.0477019
0.262092 0.145646 0.0476774
0.262772 0.145549 0.047872
0.263512 0.14543 0.0481761
0.26407 0.145378 0.0481516
0.264689 0.145303 0.0482366
0.273085 0.142366 0.0623447
0.274068 0.142157 0.0630871
0.275295 0.141859 0.0642677
0.276156 0.141695 0.064791
0.277019 0.141531 0.0653141
0.277698 0.141434 0.0655087
0.278438 0.141315 0.0658128
0.2793 0.141151 0.0663361
0.27998 0.141054 0.0665307
0.280659 0.140957 0.0667252
0.281339 0.14086 0.0669198
0.281958 0.140786 0.0670049
0.282516 0.140734 0.0669804
0.283013 0.140704 0.0668463
0.283571 0.140651 0.0668217
0.284129 0.140599 0.0667973
0.284687 0.140547 0.0667727
0.285246 0.140495 0.0667482
0.285803 0.140443 0.0667237
0.286301 0.140413 0.0665896
0.286798 0.140383 0.0664555
0.287296 0.140353 0.0663214
0.287732 0.140346 0.0660778
0.288108 0.140361 0.0657246
0.288605 0.140331 0.0655905
0.288981 0.140346 0.0652373
0.289418 0.140338 0.0649937
0.289854 0.140331 0.06475
0.29023 0.140346 0.0643968
0.290606 0.140361 0.0640437
0.290982 0.140375 0.0636905
0.291418 0.140368 0.0634468
0.291733 0.140405 0.0629841
0.292109 0.14042 0.0626309
0.292485 0.140435 0.0622777
0.2928 0.140472 0.0618149
0.293236 0.140465 0.0615713
0.293551 0.140502 0.0611086
0.293867 0.140539 0.0606458
0.294182 0.140577 0.0601831
0.294558 0.140592 0.0598299
0.294933 0.140606 0.0594766
0.295309 0.140621 0.0591235
0.295685 0.140636 0.0587703
0.296061 0.140651 0.0584171
0.296497 0.140644 0.0581735
0.296934 0.140636 0.0579299
0.297431 0.140606 0.0577957
0.297928 0.140577 0.0576616
0.298486 0.140524 0.0576371
0.299105 0.14045 0.0577222
0.299785 0.140353 0.0579168
0.300404 0.140278 0.0580018
0.301144 0.140159 0.0583059
0.301763 0.140084 0.0583909
0.302443 0.139988 0.0585855
0.303244 0.139846 0.0589992
0.303984 0.139727 0.0593034
0.304664 0.13963 0.059498
0.305465 0.139488 0.0599117
0.306266 0.139346 0.0603253
0.307006 0.139227 0.0606294
0.307746 0.139108 0.0609336
0.308548 0.138966 0.0613473
0.309288 0.138847 0.0616514
0.310028 0.138728 0.0619556
0.310708 0.138631 0.0621502
0.311388 0.138534 0.0623447
0.312122 0.138418 0.0626378
0.312789 0.138328 0.0628098
0.313456 0.138237 0.0629821
0.314066 0.138168 0.0630502
0.314675 0.138098 0.0631186
0.315227 0.138049 0.0630828
0.315721 0.138021 0.0629431
0.316215 0.137993 0.0628034
0.316595 0.138006 0.0624557
0.317031 0.137999 0.0622122
0.317583 0.13795 0.0621765
0.318135 0.137901 0.0621408
0.318744 0.137832 0.062209
0.319296 0.137783 0.0621732
0.319848 0.137734 0.0621374
0.320342 0.137706 0.0619977
0.320837 0.137678 0.0618581
0.321331 0.13765 0.0617184
0.321825 0.137621 0.0615787
0.322377 0.137573 0.0615429
0.322871 0.137544 0.0614033
0.323365 0.137516 0.0612636
0.32386 0.137488 0.0611239
0.324354 0.13746 0.0609843
0.324905 0.137411 0.0609486
0.325457 0.137362 0.0609128
0.325952 0.137334 0.0607731
0.326503 0.137285 0.0607374
0.326998 0.137257 0.0605978
0.327492 0.137229 0.0604579
0.327986 0.1372 0.0603183
0.328481 0.137172 0.0601787
0.329032 0.137124 0.0601429
0.329527 0.137095 0.0600033
0.330021 0.137067 0.0598635
0.330515 0.137039 0.0597238
0.330952 0.137032 0.0594802
0.331388 0.137024 0.0592366
0.331652 0.137079 0.0586811
0.331915 0.137133 0.0581256
0.332179 0.137188 0.0575701
0.332558 0.137201 0.0572225
0.332937 0.137214 0.0568749
0.333373 0.137207 0.0566313
0.33381 0.137199 0.0563876
0.334246 0.137192 0.056144
0.334683 0.137185 0.0559004
0.335062 0.137198 0.0555527
0.335441 0.137211 0.0552052
0.33582 0.137224 0.0548576
0.336199 0.137238 0.0545101
0.33652 0.137271 0.0540585
0.336783 0.137326 0.0535029
0.337162 0.137339 0.0531554
0.337599 0.137332 0.0529118
0.338093 0.137304 0.052772
0.338472 0.137317 0.0524245
0.338909 0.137309 0.0521809
0.339345 0.137302 0.0519372
0.339609 0.137356 0.0513817
0.33993 0.13739 0.0509301
0.340136 0.137466 0.0502707
0.340399 0.13752 0.0497153
0.340605 0.137596 0.0490558
0.340811 0.137671 0.0483963
0.341017 0.137746 0.0477368
0.341223 0.137822 0.0470774
0.341429 0.137897 0.046418
0.341693 0.137952 0.0458625
0.342008 0.137989 0.0453997
0.342384 0.138004 0.0450465
0.342759 0.138019 0.0446933
0.343196 0.138011 0.0444497
0.343511 0.138048 0.043987
0.343948 0.138041 0.0437432
0.344323 0.138056 0.0433901
0.344699 0.138071 0.0430369
0.344953 0.13813 0.0424646
0.345268 0.138168 0.0420019
0.345523 0.138227 0.0414295
0.345655 0.138332 0.0406381
0.345788 0.138436 0.0398467
0.345921 0.13854 0.0390554
0.346054 0.138645 0.0382639
0.346187 0.138749 0.0374725
0.346319 0.138853 0.0366811
0.346573 0.138913 0.0361089
0.346585 0.139062 0.0350983
0.346779 0.139144 0.0344164
0.347094 0.139181 0.0339537
0.347469 0.139196 0.0336005
0.347784 0.139233 0.0331377
0.347978 0.139315 0.0324559
0.348232 0.139375 0.0318835
0.348486 0.139434 0.0313112
0.348802 0.139472 0.0308485
0.349116 0.139509 0.0303857
0.349492 0.139524 0.0300325
0.349747 0.139584 0.0294603
0.350001 0.139643 0.0288879
0.350255 0.139703 0.0283156
0.350327 0.139829 0.0274147
0.350521 0.139912 0.0267328
0.350593 0.140038 0.0258318
0.350726 0.140143 0.0250404
0.350858 0.140247 0.024249
0.350991 0.140351 0.0234577
0.351063 0.140478 0.0225566
0.351257 0.14056 0.0218748
0.351632 0.140575 0.0215216
0.352008 0.14059 0.0211685
0.352445 0.140582 0.0209248
0.352942 0.140552 0.0207908
0.35344 0.140523 0.0206566
0.353937 0.140493 0.0205226
0.354434 0.140463 0.0203884
0.354931 0.140433 0.0202544
0.355429 0.140403 0.0201203
0.355926 0.140373 0.0199862
0.356363 0.140366 0.0197426
0.35686 0.140336 0.0196085
0.357357 0.140306 0.0194744
0.357733 0.140321 0.0191213
0.35823 0.140291 0.0189872
0.358606 0.140306 0.018634
0.359043 0.140299 0.0183903
0.359419 0.140314 0.0180371
0.359855 0.140306 0.0177935
0.36017 0.140343 0.0173307
0.360485 0.140381 0.016868
0.3608 0.140418 0.0164052
0.361115 0.140455 0.0159425
0.36137 0.140515 0.0153702
0.361563 0.140597 0.0146883
0.361817 0.140656 0.014116
0.362011 0.140738 0.0134341
0.362265 0.140798 0.0128618
0.362459 0.14088 0.01218
0.362713 0.14094 0.0116077
0.362906 0.141022 0.0109258
0.363161 0.141081 0.0103535
0.363293 0.141186 0.00956209
0.363487 0.141268 0.00888023
0.36362 0.141372 0.00808885
0.363813 0.141454 0.00740691
0.363825 0.141603 0.00639643
0.363957 0.141707 0.00560502
0.364151 0.141789 0.00492314
0.364162 0.141938 0.00391265
0.364538 0.141953 0.0035595
0.364489 0.142125 0.00243942
0.364378 0.142318 0.00120978
0.363964 0.142624 -0.000567676
0.256578 0.147385 0.0444131
0.257535 0.147202 0.0451075
0.258527 0.146994 0.0458653
0.259632 0.14674 0.0468268
0.260251 0.146665 0.0469118
0.260991 0.146546 0.047216
0.261731 0.146426 0.0475201
0.26235 0.146351 0.0476052
0.26303 0.146254 0.0477997
0.263831 0.146112 0.0482135
0.264389 0.14606 0.0481889
0.264947 0.146008 0.0481644
0.273525 0.142998 0.0626013
0.27463 0.142744 0.0635627
0.275613 0.142535 0.0643051
0.276475 0.142371 0.0648284
0.277337 0.142206 0.0653516
0.278078 0.142087 0.0656558
0.278757 0.14199 0.0658504
0.279619 0.141826 0.0663736
0.280359 0.141706 0.0666778
0.280978 0.141631 0.0667628
0.281658 0.141534 0.0669575
0.282277 0.14146 0.0670424
0.282835 0.141407 0.0670179
0.283393 0.141355 0.0669933
0.283951 0.141303 0.0669688
0.284509 0.14125 0.0669444
0.285067 0.141198 0.0669198
0.285625 0.141146 0.0668952
0.286183 0.141094 0.0668707
0.286681 0.141064 0.0667367
0.287117 0.141056 0.0664931
0.287614 0.141026 0.066359
0.288051 0.141019 0.0661153
0.288488 0.141011 0.0658717
0.288924 0.141004 0.065628
0.289361 0.140997 0.0653844
0.289737 0.141012 0.0650312
0.290173 0.141004 0.0647876
0.290488 0.141041 0.0643248
0.290925 0.141034 0.0640811
0.291361 0.141026 0.0638375
0.291676 0.141064 0.0633747
0.292052 0.141079 0.0630216
0.292428 0.141094 0.0626684
0.292804 0.141109 0.0623152
0.293119 0.141146 0.0618524
0.293495 0.141161 0.0614993
0.293749 0.141221 0.0609269
0.294125 0.141236 0.0605738
0.29444 0.141273 0.060111
0.294815 0.141288 0.0597579
0.295191 0.141303 0.0594047
0.295567 0.141318 0.0590513
0.295943 0.141333 0.0586982
0.296319 0.141348 0.058345
0.296694 0.141363 0.0579919
0.297131 0.141355 0.0577482
0.297568 0.141348 0.0575046
0.298065 0.141318 0.0573704
0.298684 0.141243 0.0574555
0.299303 0.141168 0.0575406
0.299982 0.141071 0.0577351
0.300662 0.140974 0.0579298
0.301402 0.140855 0.0582338
0.302143 0.140735 0.058538
0.302944 0.140593 0.0589516
0.303684 0.140474 0.0592558
0.304485 0.140332 0.0596696
0.305286 0.14019 0.0600832
0.306026 0.14007 0.0603874
0.306888 0.139906 0.0609106
0.30769 0.139764 0.0613243
0.308369 0.139667 0.0615189
0.30917 0.139525 0.0619326
0.30985 0.139428 0.0621273
0.31053 0.139331 0.0623218
0.31127 0.139212 0.062626
0.312004 0.139095 0.0629189
0.312613 0.139026 0.062987
0.313338 0.138914 0.0632631
0.314005 0.138824 0.063435
0.314615 0.138754 0.0635032
0.315167 0.138705 0.0634675
0.315719 0.138656 0.0634317
0.316213 0.138628 0.063292
0.316649 0.13862 0.0630483
0.317028 0.138634 0.0627008
0.317523 0.138605 0.062561
0.318017 0.138577 0.0624213
0.318626 0.138507 0.0624895
0.319178 0.138458 0.0624537
0.31973 0.138409 0.0624179
0.320282 0.13836 0.0623822
0.320776 0.138332 0.0622425
0.32127 0.138304 0.0621028
0.321822 0.138255 0.0620669
0.322316 0.138227 0.0619273
0.32281 0.138198 0.0617876
0.323305 0.13817 0.0616479
0.323799 0.138142 0.061508
0.324293 0.138114 0.0613684
0.324787 0.138085 0.0612288
0.325339 0.138036 0.0611929
0.325891 0.137987 0.0611572
0.326385 0.137959 0.0610175
0.326879 0.137931 0.0608778
0.327374 0.137903 0.060738
0.327868 0.137874 0.0605983
0.328362 0.137846 0.0604586
0.328856 0.137818 0.0603189
0.329408 0.137769 0.0602831
0.329902 0.137741 0.0601434
0.330397 0.137712 0.0600037
0.330891 0.137684 0.059864
0.33127 0.137698 0.0595165
0.331649 0.137711 0.0591689
0.33197 0.137745 0.0587174
0.332233 0.1378 0.0581619
0.332497 0.137855 0.0576066
0.332876 0.137868 0.0572589
0.333312 0.13786 0.0570153
0.333691 0.137874 0.0566677
0.334128 0.137866 0.0564241
0.334564 0.137859 0.0561805
0.334943 0.137872 0.0558329
0.335322 0.137885 0.0554854
0.335759 0.137878 0.0552417
0.33608 0.137912 0.0547902
0.336459 0.137925 0.0544426
0.33678 0.137959 0.0539912
0.337159 0.137973 0.0536436
0.337596 0.137965 0.0534
0.337975 0.137979 0.0530524
0.338469 0.13795 0.0529127
0.338906 0.137943 0.0526691
0.339342 0.137935 0.0524254
0.339664 0.137969 0.051974
0.339985 0.138004 0.0515225
0.340306 0.138038 0.0510709
0.340569 0.138092 0.0505156
0.340776 0.138168 0.0498562
0.341039 0.138223 0.0493008
0.34113 0.13834 0.0484335
0.341394 0.138395 0.047878
0.341599 0.138471 0.0472187
0.341805 0.138546 0.0465593
0.342127 0.13858 0.0461079
0.342448 0.138614 0.0456564
0.342824 0.138629 0.0453032
0.34326 0.138622 0.0450596
0.343636 0.138637 0.0447064
0.344012 0.138652 0.0443532
0.344448 0.138644 0.0441096
0.344824 0.138659 0.0437564
0.345139 0.138696 0.0432935
0.345454 0.138734 0.0428308
0.345769 0.138771 0.0423681
0.345902 0.138876 0.0415767
0.346157 0.138935 0.0410043
0.346289 0.13904 0.040213
0.346422 0.139145 0.0394216
0.346555 0.139249 0.0386302
0.346688 0.139354 0.0378387
0.34676 0.139481 0.0369377
0.347014 0.13954 0.0363654
0.347147 0.139645 0.0355741
0.34734 0.139727 0.0348921
0.347655 0.139764 0.0344294
0.34797 0.139802 0.0339667
0.348225 0.139862 0.0333943
0.348479 0.139921 0.0328221
0.348733 0.139981 0.0322498
0.348987 0.140041 0.0316774
0.349303 0.140078 0.0312147
0.349618 0.140115 0.0307519
0.349933 0.140153 0.0302892
0.350187 0.140213 0.0297168
0.350441 0.140272 0.0291445
0.350635 0.140355 0.0284627
0.350767 0.140459 0.0276713
0.350961 0.140541 0.0269894
0.351033 0.140668 0.0260885
0.351166 0.140773 0.025297
0.351299 0.140877 0.0245056
0.351371 0.141004 0.0236046
0.351503 0.141109 0.0228133
0.351697 0.141191 0.0221313
0.351951 0.141251 0.0215591
0.352327 0.141266 0.0212059
0.352763 0.141258 0.0209623
0.353261 0.141228 0.0208282
0.353758 0.141198 0.020694
0.354256 0.141169 0.02056
0.354753 0.141139 0.0204259
0.35525 0.141109 0.0202918
0.355747 0.141079 0.0201577
0.356184 0.141071 0.0199141
0.356681 0.141042 0.01978
0.357179 0.141012 0.019646
0.357615 0.141004 0.0194023
0.358113 0.140974 0.0192682
0.358549 0.140967 0.0190246
0.358925 0.140982 0.0186714
0.359422 0.140952 0.0185373
0.359798 0.140967 0.0181842
0.360174 0.140982 0.017831
0.360489 0.141019 0.0173681
0.360865 0.141034 0.017015
0.36118 0.141071 0.0165522
0.361495 0.141109 0.0160895
0.361749 0.141169 0.0155171
0.361943 0.141251 0.0148353
0.362197 0.14131 0.014263
0.36239 0.141393 0.0135811
0.362645 0.141452 0.0130089
0.362899 0.141512 0.0124365
0.363153 0.141572 0.0118642
0.363408 0.141632 0.0112919
0.363662 0.141691 0.0107197
0.363856 0.141773 0.0100377
0.364049 0.141856 0.0093559
0.364242 0.141938 0.00867401
0.364375 0.142042 0.00788265
0.364387 0.142192 0.00687213
0.36458 0.142274 0.00619028
0.364713 0.142378 0.00539881
0.364785 0.142505 0.00449787
0.365039 0.142565 0.00392553
0.36505 0.142714 0.002915
0.365001 0.142886 0.00179497
0.364648 0.14317 0.000127057
0.256637 0.148159 0.0439818
0.257984 0.147842 0.0453794
0.258664 0.147745 0.045574
0.260011 0.147401 0.0469737
0.26057 0.147349 0.0469492
0.261249 0.147252 0.0471438
0.26205 0.147109 0.0475575
0.262669 0.147034 0.0476425
0.263349 0.146937 0.0478371
0.264089 0.146818 0.0481412
0.264768 0.14672 0.0483359
0.265205 0.146713 0.0480922
0.273905 0.143652 0.0627483
0.274949 0.14342 0.0636002
0.275993 0.143189 0.0644522
0.276976 0.142979 0.0651945
0.277777 0.142837 0.0656083
0.278518 0.142717 0.0659123
0.279197 0.14262 0.0661069
0.279938 0.1425 0.0664111
0.280678 0.142381 0.0667152
0.281358 0.142283 0.0669098
0.282037 0.142186 0.0671044
0.282656 0.142111 0.0671894
0.283214 0.142059 0.0671649
0.283833 0.141984 0.06725
0.284391 0.141931 0.0672255
0.284949 0.141879 0.067201
0.285507 0.141827 0.0671765
0.286005 0.141797 0.0670423
0.286563 0.141745 0.0670178
0.28706 0.141715 0.0668837
0.287496 0.141707 0.0666401
0.287994 0.141677 0.066506
0.28843 0.14167 0.0662623
0.288867 0.141662 0.0660187
0.289304 0.141655 0.0657751
0.28968 0.14167 0.0654219
0.290116 0.141662 0.0651782
0.290492 0.141677 0.064825
0.290928 0.14167 0.0645814
0.291304 0.141685 0.0642283
0.29168 0.1417 0.063875
0.291995 0.141737 0.0634123
0.292371 0.141752 0.0630591
0.292746 0.141767 0.0627059
0.293062 0.141805 0.0622431
0.293438 0.14182 0.06189
0.293753 0.141857 0.0614273
0.294068 0.141895 0.0609644
0.294443 0.141909 0.0606112
0.294819 0.141924 0.0602581
0.295134 0.141962 0.0597953
0.29551 0.141977 0.0594421
0.295886 0.141992 0.0590889
0.296261 0.142007 0.0587357
0.296577 0.142044 0.058273
0.296953 0.142059 0.0579198
0.297389 0.142052 0.0576761
0.297825 0.142044 0.0574326
0.298384 0.141992 0.0574079
0.298942 0.14194 0.0573835
0.299621 0.141842 0.0575781
0.300301 0.141745 0.0577727
0.301102 0.141603 0.0581864
0.301782 0.141506 0.058381
0.302583 0.141363 0.0587946
0.303445 0.141199 0.0593179
0.304185 0.141079 0.0596221
0.304986 0.140937 0.0600357
0.305787 0.140795 0.0604495
0.306649 0.14063 0.0609727
0.307511 0.140465 0.061496
0.308251 0.140346 0.0618001
0.308992 0.140226 0.0621042
0.309671 0.140129 0.0622989
0.310351 0.140032 0.0624935
0.311091 0.139912 0.0627976
0.311828 0.139794 0.0630961
0.312553 0.139682 0.0633719
0.313163 0.139612 0.0634401
0.313887 0.1395 0.0637159
0.314497 0.13943 0.063784
0.315106 0.13936 0.0638522
0.315658 0.139311 0.0638163
0.31621 0.139262 0.0637805
0.316647 0.139255 0.0635369
0.317083 0.139247 0.0632933
0.317462 0.139261 0.0629457
0.317956 0.139232 0.062806
0.318508 0.139183 0.06277
0.31906 0.139134 0.0627343
0.319612 0.139085 0.0626984
0.320221 0.139015 0.0627665
0.320715 0.138986 0.0626268
0.321209 0.138958 0.062487
0.321761 0.138909 0.0624513
0.322255 0.138881 0.0623115
0.322749 0.138852 0.0621718
0.323244 0.138824 0.062032
0.32368 0.138816 0.0617884
0.324232 0.138767 0.0617525
0.324726 0.138739 0.0616128
0.325278 0.13869 0.061577
0.325772 0.138661 0.0614373
0.326267 0.138633 0.0612975
0.326761 0.138605 0.0611579
0.327197 0.138597 0.0609142
0.327692 0.138569 0.0607745
0.328128 0.138562 0.0605307
0.32868 0.138512 0.060495
0.329174 0.138484 0.0603553
0.329726 0.138435 0.0603194
0.33022 0.138407 0.0601797
0.330714 0.138378 0.0600401
0.331151 0.138371 0.0597964
0.331587 0.138363 0.0595527
0.331966 0.138377 0.0592052
0.332288 0.138411 0.0587537
0.332551 0.138466 0.0581984
0.332815 0.138521 0.057643
0.333194 0.138534 0.0572955
0.333573 0.138548 0.0569479
0.334009 0.13854 0.0567044
0.334388 0.138554 0.0563568
0.334825 0.138546 0.0561131
0.335204 0.13856 0.0557655
0.33564 0.138552 0.0555219
0.336019 0.138566 0.0551743
0.336398 0.138579 0.0548268
0.336777 0.138592 0.0544793
0.337156 0.138606 0.0541317
0.337535 0.138619 0.0537842
0.337972 0.138612 0.0535406
0.338408 0.138604 0.0532969
0.338845 0.138597 0.0530533
0.339281 0.138589 0.0528097
0.33966 0.138603 0.0524621
0.340039 0.138616 0.0521145
0.340361 0.13865 0.0516632
0.340624 0.138705 0.0511078
0.340888 0.138761 0.0505524
0.341151 0.138816 0.049997
0.341357 0.138891 0.0493378
0.341506 0.138988 0.0485747
0.34177 0.139043 0.0480193
0.341918 0.13914 0.0472561
0.342239 0.139174 0.0468046
0.342503 0.13923 0.0462493
0.342882 0.139243 0.0459018
0.343261 0.139256 0.0455543
0.343698 0.139249 0.0453106
0.344134 0.139241 0.0450669
0.344513 0.139255 0.0447194
0.344889 0.13927 0.0443663
0.345265 0.139285 0.044013
0.34558 0.139322 0.0435503
0.345895 0.139359 0.0430875
0.346149 0.139419 0.0425152
0.346343 0.139502 0.0418334
0.346536 0.139584 0.0411514
0.346729 0.139666 0.0404696
0.346802 0.139794 0.0395686
0.346995 0.139876 0.0388868
0.347128 0.139981 0.0380954
0.3472 0.140108 0.0371944
0.347454 0.140168 0.0366221
0.347708 0.140228 0.0360498
0.347902 0.14031 0.0353678
0.348217 0.140347 0.0349052
0.348471 0.140407 0.0343328
0.348726 0.140467 0.0337605
0.34898 0.140527 0.0331883
0.349173 0.140609 0.0325064
0.349488 0.140647 0.0320436
0.349804 0.140684 0.0315809
0.350119 0.140722 0.0311182
0.350373 0.140781 0.0305458
0.350688 0.140819 0.030083
0.350882 0.140901 0.0294011
0.351075 0.140983 0.0287193
0.351147 0.141111 0.0278184
0.351401 0.141171 0.027246
0.351534 0.141275 0.0264546
0.351606 0.141403 0.0255537
0.3518 0.141485 0.0248718
0.351872 0.141612 0.0239708
0.351944 0.141739 0.0230698
0.352077 0.141844 0.0222784
0.352331 0.141904 0.0217061
0.352585 0.141964 0.0211338
0.353022 0.141957 0.0208901
0.353519 0.141927 0.0207561
0.354016 0.141897 0.020622
0.354513 0.141867 0.0204879
0.355011 0.141837 0.0203538
0.355508 0.141807 0.0202197
0.356006 0.141777 0.0200857
0.356503 0.141747 0.0199516
0.356939 0.14174 0.0197079
0.357437 0.14171 0.0195738
0.357934 0.14168 0.0194398
0.358371 0.141672 0.0191962
0.358807 0.141665 0.0189525
0.359305 0.141635 0.0188184
0.35968 0.14165 0.0184652
0.360117 0.141642 0.0182216
0.360493 0.141657 0.0178684
0.360868 0.141672 0.0175152
0.361184 0.14171 0.0170524
0.361559 0.141725 0.0166993
0.361875 0.141762 0.0162365
0.362068 0.141845 0.0155546
0.362383 0.141882 0.0150919
0.362577 0.141964 0.0144101
0.362831 0.142024 0.0138377
0.363085 0.142084 0.0132653
0.363278 0.142166 0.0125836
0.363594 0.142204 0.0121208
0.363848 0.142264 0.0115484
0.364163 0.142301 0.0110857
0.364357 0.142383 0.0104039
0.36455 0.142466 0.00972198
0.364744 0.142548 0.00904012
0.364876 0.142653 0.00824875
0.364948 0.14278 0.00734778
0.365142 0.142862 0.00666588
0.365214 0.14299 0.0057649
0.365408 0.143072 0.00508299
0.365419 0.143222 0.00407251
0.365551 0.143327 0.00328113
0.365502 0.143499 0.00216101
0.36527 0.143738 0.000712213
0.256956 0.148845 0.0440196
0.258363 0.148505 0.0455263
0.258861 0.148475 0.0453922
0.260391 0.148062 0.0471206
0.260888 0.148032 0.0469865
0.261568 0.147935 0.0471811
0.26243 0.14777 0.0477043
0.263049 0.147695 0.0477894
0.263728 0.147598 0.047984
0.264347 0.147523 0.048069
0.265087 0.147403 0.0483731
0.273058 0.144606 0.0617147
0.274284 0.144307 0.0628952
0.27545 0.144029 0.0639663
0.276373 0.143842 0.0645991
0.277356 0.143632 0.0653416
0.278157 0.14349 0.0657553
0.278898 0.14337 0.0660594
0.279638 0.14325 0.0663635
0.280378 0.14313 0.0666678
0.281118 0.14301 0.0669719
0.281737 0.142935 0.0670569
0.282417 0.142837 0.0672515
0.283036 0.142762 0.0673365
0.283655 0.142687 0.0674216
0.284213 0.142635 0.0673971
0.284832 0.14256 0.0674821
0.285329 0.14253 0.067348
0.285887 0.142478 0.0673235
0.286445 0.142425 0.067299
0.286942 0.142395 0.0671649
0.287439 0.142365 0.0670307
0.287876 0.142358 0.0667872
0.288374 0.142328 0.0666531
0.28881 0.14232 0.0664094
0.289247 0.142313 0.0661659
0.289622 0.142328 0.0658126
0.290059 0.142321 0.0655689
0.290495 0.142313 0.0653253
0.290871 0.142328 0.0649721
0.291308 0.142321 0.0647285
0.291623 0.142358 0.0642657
0.291999 0.142373 0.0639126
0.292375 0.142388 0.0635594
0.29269 0.142426 0.0630966
0.293005 0.142463 0.0626338
0.29338 0.142478 0.0622807
0.293756 0.142493 0.0619274
0.294071 0.142531 0.0614648
0.294386 0.142568 0.061002
0.294762 0.142583 0.0606487
0.295077 0.142621 0.060186
0.295453 0.142636 0.0598329
0.295829 0.142651 0.0594795
0.296144 0.142688 0.0590169
0.29652 0.142703 0.0586637
0.296835 0.142741 0.058201
0.29721 0.142756 0.0578477
0.297647 0.142749 0.057604
0.298144 0.142719 0.05747
0.298702 0.142666 0.0574455
0.299321 0.142591 0.0575305
0.300001 0.142494 0.0577251
0.300681 0.142396 0.0579197
0.301542 0.142231 0.058443
0.302222 0.142134 0.0586376
0.303205 0.141924 0.05938
0.304006 0.141782 0.0597936
0.304686 0.141684 0.0599883
0.305548 0.141519 0.0605115
0.306349 0.141377 0.0609252
0.307272 0.141189 0.0615581
0.308012 0.14107 0.0618622
0.308752 0.14095 0.0621664
0.309493 0.14083 0.0624705
0.310233 0.14071 0.0627746
0.310973 0.14059 0.0630788
0.311653 0.140492 0.0632734
0.312377 0.14038 0.0635492
0.313045 0.140289 0.0637211
0.313654 0.140219 0.0637891
0.314321 0.140128 0.063961
0.314988 0.140037 0.0641328
0.31554 0.139987 0.064097
0.316092 0.139938 0.0640611
0.316586 0.139909 0.0639214
0.317023 0.139902 0.0636778
0.317459 0.139894 0.0634341
0.317896 0.139887 0.0631905
0.31839 0.139859 0.0630506
0.318942 0.139809 0.0630148
0.319493 0.13976 0.0629789
0.320103 0.13969 0.0630469
0.320655 0.139641 0.063011
0.321149 0.139612 0.0628713
0.321701 0.139563 0.0628354
0.322252 0.139513 0.0627996
0.322747 0.139485 0.0626598
0.323183 0.139477 0.0624161
0.323677 0.139449 0.0622764
0.324171 0.139421 0.0621366
0.324666 0.139392 0.0619968
0.325217 0.139343 0.061961
0.325712 0.139315 0.0618213
0.326206 0.139286 0.0616815
0.326642 0.139279 0.0614378
0.327079 0.139271 0.0611943
0.327515 0.139264 0.0609506
0.327952 0.139256 0.060707
0.328446 0.139228 0.0605673
0.32894 0.1392 0.0604274
0.329434 0.139171 0.0602877
0.329986 0.139122 0.0602518
0.330481 0.139093 0.0601121
0.330917 0.139086 0.0598685
0.331411 0.139058 0.0597287
0.33179 0.139071 0.0593812
0.332227 0.139064 0.0591375
0.332548 0.139098 0.0586862
0.332869 0.139132 0.0582348
0.333191 0.139167 0.0577834
0.333512 0.139201 0.057332
0.333891 0.139215 0.0569844
0.33427 0.139228 0.0566369
0.334707 0.139221 0.0563932
0.335085 0.139234 0.0560457
0.335522 0.139227 0.0558021
0.335901 0.13924 0.0554546
0.336338 0.139233 0.055211
0.336659 0.139267 0.0547596
0.337095 0.13926 0.0545159
0.337474 0.139273 0.0541684
0.337911 0.139266 0.0539248
0.338348 0.139258 0.0536811
0.338784 0.139251 0.0534375
0.339163 0.139264 0.0530899
0.3396 0.139257 0.0528463
0.340036 0.139249 0.0526026
0.340358 0.139284 0.0521512
0.340679 0.139318 0.0516999
0.340943 0.139373 0.0511446
0.341206 0.139428 0.0505894
0.34147 0.139484 0.050034
0.341676 0.13956 0.0493749
0.341825 0.139657 0.0486119
0.342088 0.139712 0.0480566
0.342294 0.139789 0.0473973
0.342616 0.139823 0.046946
0.342937 0.139858 0.0464945
0.343316 0.139871 0.0461471
0.343695 0.139884 0.0457996
0.344132 0.139877 0.0455559
0.344568 0.13987 0.0453123
0.344947 0.139883 0.0449647
0.345326 0.139896 0.0446172
0.345705 0.13991 0.0442697
0.34602 0.139947 0.0438069
0.346274 0.140007 0.0432346
0.346589 0.140045 0.0427719
0.346722 0.14015 0.0419805
0.346916 0.140233 0.0412986
0.347109 0.140315 0.0406167
0.347242 0.14042 0.0398253
0.347314 0.140547 0.0389243
0.347507 0.14063 0.0382425
0.34764 0.140735 0.037451
0.347894 0.140795 0.0368787
0.348149 0.140855 0.0363064
0.348403 0.140915 0.0357341
0.348657 0.140975 0.0351618
0.348972 0.141013 0.034699
0.349166 0.141095 0.0340172
0.34942 0.141155 0.0334448
0.349675 0.141215 0.0328726
0.349929 0.141275 0.0323003
0.350305 0.14129 0.031947
0.350559 0.14135 0.0313747
0.350813 0.14141 0.0308024
0.351128 0.141448 0.0303396
0.351261 0.141553 0.0295483
0.351576 0.14159 0.0290855
0.351648 0.141718 0.0281845
0.351781 0.141822 0.0273931
0.351914 0.141927 0.0266017
0.352046 0.142032 0.0258103
0.352179 0.142137 0.0250188
0.352251 0.142265 0.0241178
0.352384 0.14237 0.0233264
0.352456 0.142497 0.0224254
0.35265 0.14258 0.0217436
0.352965 0.142617 0.0212808
0.35334 0.142632 0.0209276
0.353838 0.142603 0.0207935
0.354335 0.142573 0.0206594
0.354772 0.142565 0.0204157
0.35533 0.142513 0.0203913
0.355827 0.142483 0.0202572
0.356324 0.142453 0.0201231
0.356761 0.142445 0.0198795
0.357258 0.142415 0.0197454
0.357756 0.142385 0.0196113
0.358192 0.142378 0.0193676
0.358689 0.142348 0.0192336
0.359126 0.14234 0.01899
0.359563 0.142333 0.0187463
0.359999 0.142325 0.0185027
0.360436 0.142318 0.0182591
0.360872 0.142311 0.0180155
0.361187 0.142348 0.0175527
0.361502 0.142386 0.0170899
0.361878 0.142401 0.0167368
0.362132 0.142461 0.0161644
0.362447 0.142498 0.0157016
0.362702 0.142558 0.0151293
0.362956 0.142618 0.0145571
0.36315 0.142701 0.0138752
0.363465 0.142738 0.0134124
0.363719 0.142798 0.0128401
0.364034 0.142836 0.0123774
0.364288 0.142896 0.011805
0.364603 0.142933 0.0113423
0.364797 0.143016 0.0106604
0.36499 0.143098 0.00997859
0.365245 0.143158 0.00940627
0.365317 0.143286 0.00850534
0.365449 0.143391 0.0077139
0.365643 0.143473 0.00703203
0.365654 0.143623 0.00602147
0.365848 0.143706 0.00533958
0.36592 0.143833 0.00443865
0.366053 0.143938 0.00364721
0.365942 0.144133 0.00241753
0.365711 0.144373 0.000968771
0.25721 0.149553 0.0439403
0.258743 0.149167 0.0456731
0.25924 0.149137 0.045539
0.26071 0.148746 0.0471579
0.261207 0.148716 0.0470239
0.262069 0.148551 0.0475471
0.262809 0.148431 0.0478513
0.263367 0.148378 0.0478267
0.264108 0.148258 0.0481309
0.264787 0.14816 0.0483255
0.265406 0.148085 0.0484105
0.27362 0.145194 0.0621903
0.274785 0.144916 0.0632614
0.276012 0.144615 0.064442
0.276813 0.144473 0.0648557
0.277796 0.144262 0.0655982
0.278598 0.14412 0.0660119
0.279337 0.143999 0.066316
0.280017 0.143902 0.0665106
0.280818 0.143759 0.0669243
0.281498 0.143661 0.067119
0.282178 0.143564 0.0673135
0.282857 0.143466 0.0675081
0.283476 0.143391 0.0675931
0.284034 0.143339 0.0675686
0.284653 0.143264 0.0676536
0.285211 0.143211 0.0676291
0.285769 0.143159 0.0676046
0.286327 0.143106 0.0675801
0.286825 0.143076 0.067446
0.287322 0.143046 0.067312
0.287819 0.143016 0.0671779
0.288316 0.142986 0.0670438
0.288753 0.142979 0.0668002
0.28919 0.142971 0.0665565
0.289626 0.142964 0.0663128
0.290063 0.142956 0.0660693
0.290439 0.142971 0.0657161
0.290875 0.142964 0.0654724
0.291251 0.142979 0.0651192
0.291627 0.142994 0.064766
0.292002 0.143009 0.0644128
0.292378 0.143024 0.0640596
0.292754 0.143039 0.0637064
0.293069 0.143077 0.0632436
0.293384 0.143114 0.0627809
0.293699 0.143152 0.0623181
0.294075 0.143167 0.061965
0.29439 0.143204 0.0615022
0.294705 0.143242 0.0610394
0.295081 0.143257 0.0606863
0.295396 0.143295 0.0602235
0.295772 0.14331 0.0598703
0.296087 0.143347 0.0594076
0.296402 0.143385 0.0589448
0.296778 0.1434 0.0585916
0.297153 0.143415 0.0582384
0.297529 0.14343 0.0578852
0.297966 0.143423 0.0576416
0.298524 0.14337 0.0576171
0.299082 0.143318 0.0575925
0.299701 0.143243 0.0576776
0.30038 0.143145 0.0578722
0.301303 0.142957 0.058505
0.302044 0.142837 0.0588091
0.302845 0.142694 0.0592229
0.303706 0.142529 0.0597461
0.304447 0.142409 0.0600503
0.305248 0.142267 0.060464
0.306049 0.142124 0.0608777
0.30685 0.141981 0.0612914
0.307712 0.141816 0.0618148
0.308452 0.141696 0.0621189
0.309253 0.141553 0.0625326
0.309993 0.141433 0.0628368
0.310795 0.14129 0.0632505
0.311535 0.14117 0.0635546
0.312202 0.141079 0.0637264
0.312869 0.140987 0.0638982
0.313536 0.140896 0.06407
0.314203 0.140804 0.0642418
0.31487 0.140713 0.0644135
0.315479 0.140642 0.0644815
0.316031 0.140593 0.0644456
0.316525 0.140564 0.0643058
0.317019 0.140536 0.064166
0.317456 0.140528 0.0639224
0.317892 0.140521 0.0636787
0.318329 0.140513 0.0634351
0.318881 0.140464 0.0633993
0.319433 0.140414 0.0633633
0.320042 0.140344 0.0634312
0.320594 0.140294 0.0633953
0.321203 0.140224 0.0634633
0.321755 0.140174 0.0634274
0.322249 0.140146 0.0632875
0.322743 0.140118 0.0631477
0.32318 0.14011 0.0629041
0.323674 0.140082 0.0627644
0.324226 0.140032 0.0627284
0.324778 0.139983 0.0626925
0.325214 0.139975 0.0624489
0.325708 0.139947 0.0623091
0.326145 0.139939 0.0620655
0.326582 0.139932 0.0618218
0.32696 0.139945 0.0614743
0.32734 0.139959 0.0611268
0.327776 0.139951 0.0608831
0.328212 0.139944 0.0606395
0.328707 0.139915 0.0604997
0.329201 0.139887 0.0603601
0.329695 0.139858 0.0602202
0.330247 0.139809 0.0601843
0.330683 0.139802 0.0599406
0.331177 0.139773 0.0598009
0.331672 0.139745 0.0596611
0.332108 0.139737 0.0594175
0.332545 0.13973 0.0591738
0.332866 0.139764 0.0587224
0.333187 0.139799 0.0582711
0.333509 0.139833 0.0578198
0.333888 0.139847 0.0574722
0.334209 0.139881 0.0570209
0.334588 0.139895 0.0566734
0.335025 0.139887 0.0564298
0.335404 0.139901 0.0560823
0.33584 0.139894 0.0558387
0.336277 0.139886 0.055595
0.336656 0.1399 0.0552475
0.337035 0.139913 0.0549001
0.337471 0.139906 0.0546564
0.33785 0.139919 0.0543089
0.338287 0.139912 0.0540652
0.338666 0.139925 0.0537178
0.339102 0.139918 0.0534742
0.339481 0.139931 0.0531266
0.339918 0.139924 0.052883
0.340297 0.139937 0.0525355
0.340676 0.139951 0.052188
0.340939 0.140006 0.0516328
0.341203 0.140062 0.0510775
0.341525 0.140097 0.0506262
0.341731 0.140173 0.0499672
0.341937 0.14025 0.049308
0.342143 0.140326 0.0486491
0.342407 0.140382 0.0480938
0.342613 0.140458 0.0474348
0.342992 0.140472 0.0470872
0.343313 0.140506 0.046636
0.343692 0.14052 0.0462884
0.344129 0.140512 0.0460447
0.344565 0.140505 0.0458011
0.344944 0.140519 0.0454536
0.345323 0.140532 0.0451061
0.34576 0.140525 0.0448625
0.346081 0.140559 0.0444112
0.346339 0.140618 0.0438445
0.346593 0.140678 0.0432722
0.346908 0.140716 0.0428095
0.347102 0.140798 0.0421276
0.347295 0.140881 0.0414457
0.347428 0.140986 0.0406543
0.3475 0.141114 0.0397533
0.347693 0.141196 0.0390714
0.347887 0.141279 0.0383895
0.348081 0.141362 0.0377077
0.348335 0.141422 0.0371354
0.348589 0.141482 0.0365631
0.348904 0.14152 0.0361002
0.349098 0.141602 0.0354185
0.349352 0.141662 0.0348461
0.349606 0.141723 0.0342738
0.34986 0.141783 0.0337015
0.350115 0.141843 0.0331292
0.350369 0.141903 0.0325569
0.350684 0.141941 0.0320942
0.350999 0.141978 0.0316314
0.351254 0.142038 0.031059
0.351508 0.142099 0.0304868
0.351701 0.142181 0.0298048
0.352016 0.142219 0.0293421
0.352149 0.142324 0.0285507
0.352282 0.142429 0.0277592
0.352354 0.142557 0.0268582
0.352548 0.14264 0.0261765
0.35262 0.142767 0.0252754
0.352692 0.142895 0.0243744
0.352764 0.143023 0.0234734
0.352836 0.143151 0.0225724
0.352968 0.143256 0.021781
0.353223 0.143316 0.0212087
0.353659 0.143309 0.0209651
0.354096 0.143301 0.0207215
0.354593 0.143271 0.0205874
0.35509 0.143241 0.0204533
0.355648 0.143188 0.0204287
0.356085 0.143181 0.020185
0.356582 0.143151 0.0200511
0.35708 0.143121 0.019917
0.357577 0.143091 0.0197828
0.358014 0.143083 0.0195393
0.358511 0.143053 0.0194051
0.358947 0.143046 0.0191615
0.359445 0.143016 0.0190274
0.359881 0.143009 0.0187838
0.360318 0.143001 0.0185402
0.360754 0.142994 0.0182965
0.36113 0.143009 0.0179433
0.361506 0.143024 0.0175901
0.361882 0.143039 0.017237
0.362197 0.143076 0.0167741
0.362451 0.143137 0.0162019
0.362766 0.143174 0.0157391
0.363021 0.143234 0.0151668
0.363275 0.143294 0.0145945
0.363529 0.143355 0.0140222
0.363844 0.143392 0.0135594
0.364159 0.14343 0.0130967
0.364413 0.14349 0.0125244
0.364668 0.14355 0.011952
0.364983 0.143588 0.0114893
0.365237 0.143648 0.010917
0.365431 0.143731 0.0102351
0.365624 0.143813 0.00955324
0.365757 0.143918 0.00876185
0.365829 0.144046 0.00786089
0.366023 0.144129 0.00717894
0.366034 0.144279 0.00616848
0.366227 0.144362 0.00548659
0.366299 0.14449 0.00458556
0.366432 0.144595 0.00379416
0.366383 0.144768 0.00267402
0.365604 0.145211 0.000239221
0.365555 0.145383 -0.000880872
0.256638 0.150404 0.0434018
0.257594 0.150217 0.0440951
0.259123 0.149829 0.04582
0.259559 0.149821 0.0455764
0.261029 0.14943 0.0471953
0.261526 0.1494 0.0470612
0.26257 0.149167 0.0479131
0.263128 0.149114 0.0478887
0.263869 0.148994 0.0481928
0.264548 0.148896 0.0483874
0.265228 0.148798 0.0485819
0.273138 0.146013 0.0618141
0.274182 0.14578 0.062666
0.27559 0.145411 0.0641753
0.276452 0.145246 0.0646986
0.277375 0.145058 0.0653314
0.278297 0.14487 0.0659643
0.279038 0.144749 0.0662685
0.279778 0.144629 0.0665726
0.280458 0.144531 0.0667672
0.281259 0.144388 0.0671809
0.281938 0.144291 0.0673755
0.282618 0.144193 0.0675701
0.283297 0.144095 0.0677648
0.283916 0.14402 0.0678497
0.284474 0.143967 0.0678253
0.285093 0.143892 0.0679103
0.285651 0.143839 0.0678857
0.286209 0.143787 0.0678613
0.286707 0.143757 0.0677272
0.287265 0.143704 0.0677027
0.287762 0.143674 0.0675685
0.288199 0.143667 0.067325
0.288696 0.143637 0.0671909
0.289132 0.143629 0.0669473
0.289569 0.143622 0.0667036
0.290006 0.143614 0.06646
0.290442 0.143606 0.0662163
0.290818 0.143622 0.0658631
0.291254 0.143614 0.0656195
0.291631 0.143629 0.0652663
0.292006 0.143645 0.0649131
0.292382 0.14366 0.06456
0.292758 0.143675 0.0642067
0.293073 0.143712 0.0637439
0.293388 0.14375 0.0632811
0.293703 0.143788 0.0628184
0.294018 0.143825 0.0623557
0.294394 0.143841 0.0620024
0.294709 0.143878 0.0615398
0.295085 0.143893 0.0611865
0.2954 0.143931 0.0607238
0.295776 0.143946 0.0603706
0.296091 0.143984 0.0599078
0.296406 0.144022 0.0594451
0.296721 0.144059 0.0589822
0.297096 0.144074 0.0586291
0.297472 0.144089 0.0582759
0.297909 0.144082 0.0580323
0.298345 0.144075 0.0577886
0.298904 0.144022 0.0577641
0.299522 0.143947 0.0578491
0.300141 0.143871 0.0579342
0.300942 0.143728 0.0583479
0.301683 0.143608 0.0586521
0.302605 0.14342 0.0592849
0.303406 0.143277 0.0596987
0.304207 0.143134 0.0601124
0.304948 0.143014 0.0604165
0.305809 0.142848 0.0609398
0.306489 0.142751 0.0611344
0.307351 0.142585 0.0616577
0.308152 0.142442 0.0620714
0.309014 0.142277 0.0625946
0.309754 0.142156 0.0628987
0.310555 0.142013 0.0633125
0.311357 0.14187 0.0637262
0.312084 0.141756 0.0640075
0.312751 0.141664 0.0641792
0.313418 0.141572 0.0643509
0.314143 0.141459 0.0646264
0.314752 0.141389 0.0646943
0.315361 0.141318 0.0647622
0.315913 0.141268 0.0647262
0.316465 0.141219 0.0646903
0.316901 0.141211 0.0644467
0.317338 0.141204 0.064203
0.317832 0.141175 0.0640631
0.318269 0.141168 0.0638195
0.31882 0.141118 0.0637835
0.319372 0.141069 0.0637477
0.319981 0.140998 0.0638155
0.320648 0.140906 0.0639871
0.3212 0.140856 0.0639512
0.321752 0.140807 0.0639152
0.322246 0.140778 0.0637754
0.322682 0.140771 0.0635318
0.323234 0.140721 0.0634958
0.323786 0.140672 0.0634598
0.324395 0.140601 0.0635277
0.324889 0.140572 0.0633879
0.325326 0.140565 0.0631442
0.325763 0.140557 0.0629006
0.326199 0.14055 0.062657
0.326578 0.140563 0.0623096
0.326957 0.140577 0.061962
0.327278 0.140612 0.0615107
0.327657 0.140625 0.0611633
0.328094 0.140618 0.0609197
0.328531 0.14061 0.060676
0.329025 0.140582 0.0605362
0.329461 0.140575 0.0602925
0.329955 0.140546 0.0601527
0.330449 0.140517 0.0600129
0.330944 0.140489 0.0598732
0.331438 0.14046 0.0597333
0.331932 0.140432 0.0595936
0.332426 0.140403 0.0594537
0.332805 0.140417 0.0591063
0.333184 0.14043 0.0587587
0.333506 0.140465 0.0583075
0.333885 0.140479 0.05796
0.334264 0.140492 0.0576125
0.334642 0.140506 0.0572652
0.335022 0.140519 0.0569176
0.335458 0.140512 0.056674
0.335837 0.140526 0.0563266
0.336216 0.140539 0.0559791
0.336653 0.140532 0.0557354
0.337031 0.140545 0.0553879
0.337411 0.140559 0.0550404
0.337789 0.140573 0.0546929
0.338226 0.140565 0.0544493
0.338605 0.140579 0.0541019
0.338984 0.140592 0.0537544
0.339363 0.140606 0.053407
0.3398 0.140599 0.0531633
0.340178 0.140612 0.0528158
0.340557 0.140626 0.0524684
0.340879 0.14066 0.0520171
0.3412 0.140695 0.0515658
0.341464 0.140751 0.0510106
0.341728 0.140807 0.0504555
0.341876 0.140905 0.0496926
0.342198 0.14094 0.0492413
0.342404 0.141016 0.0485823
0.342668 0.141072 0.0480272
0.342989 0.141107 0.0475758
0.343311 0.141141 0.0471246
0.34369 0.141155 0.0467772
0.344126 0.141148 0.0465335
0.344505 0.141161 0.046186
0.344942 0.141154 0.0459424
0.345321 0.141167 0.0455949
0.3457 0.141181 0.0452474
0.346079 0.141195 0.0449
0.3464 0.141229 0.0444487
0.346718 0.141266 0.0439917
0.346972 0.141326 0.0434193
0.347166 0.141409 0.0427375
0.34736 0.141492 0.0420556
0.347614 0.141552 0.0414832
0.347747 0.141657 0.0406918
0.347819 0.141785 0.0397909
0.348073 0.141845 0.0392186
0.348266 0.141928 0.0385367
0.34846 0.142011 0.0378548
0.348775 0.142049 0.037392
0.34909 0.142087 0.0369292
0.349344 0.142147 0.0363569
0.349538 0.14223 0.0356751
0.349792 0.14229 0.0351027
0.349986 0.142373 0.0344209
0.35024 0.142433 0.0338486
0.350494 0.142493 0.0332763
0.350809 0.142531 0.0328135
0.351124 0.142569 0.0323508
0.351379 0.142629 0.0317784
0.351694 0.142667 0.0313157
0.351948 0.142727 0.0307434
0.352202 0.142787 0.030171
0.352396 0.14287 0.0294892
0.352711 0.142908 0.0290265
0.352722 0.143058 0.028016
0.352855 0.143164 0.0272245
0.352927 0.143292 0.0263235
0.35306 0.143397 0.025532
0.353071 0.143548 0.0245214
0.353082 0.143698 0.0235109
0.353276 0.143781 0.0228291
0.353348 0.143909 0.021928
0.353541 0.143992 0.0212461
0.353917 0.144007 0.020893
0.354354 0.144 0.0206494
0.354851 0.14397 0.0205152
0.355409 0.143917 0.0204907
0.355906 0.143887 0.0203567
0.356404 0.143857 0.0202226
0.356901 0.143827 0.0200886
0.357398 0.143797 0.0199544
0.357835 0.143789 0.0197108
0.358272 0.143782 0.0194672
0.358769 0.143752 0.019333
0.359206 0.143744 0.0190894
0.359703 0.143714 0.0189554
0.360139 0.143707 0.0187117
0.360576 0.143699 0.018468
0.361013 0.143692 0.0182244
0.361388 0.143707 0.0178713
0.361764 0.143722 0.0175181
0.36214 0.143737 0.0171648
0.362455 0.143775 0.0167021
0.36277 0.143813 0.0162394
0.363024 0.143873 0.015667
0.363339 0.143911 0.0152043
0.363594 0.143971 0.0146319
0.363848 0.144031 0.0140597
0.364163 0.144069 0.013597
0.364478 0.144106 0.0131341
0.364793 0.144144 0.0126714
0.365047 0.144204 0.012099
0.365362 0.144242 0.0116363
0.365617 0.144302 0.011064
0.36581 0.144385 0.0103821
0.366004 0.144468 0.00970032
0.366137 0.144574 0.00890884
0.366208 0.144701 0.00800781
0.366341 0.144807 0.00721636
0.366414 0.144935 0.00631542
0.366485 0.145063 0.00541441
0.366618 0.145168 0.00462292
0.366812 0.145251 0.00394107
0.366762 0.145424 0.00282104
0.36647 0.145688 0.00126267
0.257087 0.151045 0.043674
0.257783 0.150948 0.0438988
0.259442 0.150513 0.0458573
0.260789 0.150166 0.0472571
0.261348 0.150113 0.0472326
0.26221 0.149948 0.0477558
0.262889 0.14985 0.0479505
0.263569 0.149752 0.048145
0.264309 0.149631 0.0484492
0.265049 0.149511 0.0487534
0.272776 0.146789 0.0616569
0.273517 0.146668 0.0619611
0.275108 0.146231 0.063799
0.276152 0.145997 0.064651
0.276953 0.145854 0.0650647
0.277937 0.145643 0.0658072
0.278798 0.145477 0.0663305
0.279478 0.145379 0.0665251
0.280219 0.145259 0.0668292
0.280898 0.145161 0.0670239
0.281699 0.145017 0.0674376
0.282379 0.144919 0.0676322
0.283058 0.144821 0.0678267
0.283738 0.144724 0.0680214
0.284296 0.144671 0.0679969
0.284915 0.144595 0.0680818
0.285533 0.14452 0.0681669
0.286091 0.144467 0.0681424
0.286589 0.144437 0.0680083
0.287147 0.144385 0.0679837
0.287705 0.144332 0.0679593
0.288142 0.144324 0.0677156
0.288639 0.144294 0.0675815
0.289076 0.144287 0.067338
0.289512 0.144279 0.0670943
0.290009 0.144249 0.0669602
0.290385 0.144264 0.066607
0.290822 0.144257 0.0663634
0.291198 0.144272 0.0660102
0.291573 0.144287 0.065657
0.29201 0.14428 0.0654134
0.292325 0.144318 0.0649506
0.292762 0.14431 0.0647069
0.293077 0.144348 0.0642442
0.293392 0.144386 0.0637814
0.293768 0.144401 0.0634282
0.294083 0.144439 0.0629655
0.294398 0.144477 0.0625027
0.294713 0.144514 0.06204
0.295088 0.144529 0.0616867
0.295403 0.144567 0.0612241
0.295718 0.144605 0.0607612
0.296034 0.144643 0.0602985
0.296409 0.144658 0.0599453
0.296724 0.144696 0.0594826
0.2971 0.144711 0.0591294
0.297476 0.144726 0.0587762
0.297852 0.144741 0.058423
0.298288 0.144734 0.0581794
0.298786 0.144704 0.0580452
0.299344 0.144651 0.0580208
0.299963 0.144575 0.0581058
0.300642 0.144477 0.0583004
0.301383 0.144357 0.0586045
0.302305 0.144168 0.0592374
0.302985 0.144071 0.059432
0.303968 0.14386 0.0601743
0.304587 0.143784 0.0602594
0.305449 0.143618 0.0607827
0.30625 0.143475 0.0611964
0.307051 0.143332 0.0616102
0.307791 0.143211 0.0619143
0.308653 0.143046 0.0624376
0.309576 0.142857 0.0630704
0.310316 0.142737 0.0633746
0.311178 0.142571 0.0638979
0.311851 0.142476 0.064081
0.312691 0.14232 0.064564
0.313358 0.142228 0.0647356
0.314024 0.142136 0.0649072
0.314692 0.142044 0.0650788
0.315243 0.141994 0.0650429
0.315852 0.141923 0.0651106
0.316346 0.141894 0.0649708
0.316841 0.141866 0.064831
0.317277 0.141858 0.0645874
0.317771 0.14183 0.0644475
0.318266 0.141801 0.0643077
0.31876 0.141772 0.0641679
0.319311 0.141723 0.0641319
0.320036 0.141609 0.0644072
0.320703 0.141517 0.0645788
0.321254 0.141467 0.0645427
0.321749 0.141439 0.064403
0.322185 0.141431 0.0641594
0.322737 0.141382 0.0641234
0.323346 0.141311 0.0641911
0.323955 0.14124 0.064259
0.324507 0.14119 0.0642229
0.324944 0.141182 0.0639793
0.325322 0.141196 0.0636319
0.325817 0.141167 0.0634921
0.326196 0.141181 0.0631445
0.326575 0.141195 0.0627972
0.326954 0.141209 0.0624497
0.327333 0.141222 0.0621022
0.327712 0.141236 0.0617548
0.328033 0.141271 0.0613035
0.328412 0.141285 0.0609561
0.328849 0.141277 0.0607125
0.329285 0.14127 0.0604689
0.329779 0.141241 0.0603289
0.330273 0.141212 0.0601892
0.330768 0.141184 0.0600493
0.331319 0.141134 0.0600133
0.331814 0.141105 0.0598735
0.332308 0.141077 0.0597337
0.332744 0.141069 0.05949
0.333181 0.141062 0.0592463
0.333617 0.141054 0.0590027
0.333996 0.141068 0.0586553
0.334433 0.14106 0.0584117
0.334869 0.141053 0.0581681
0.335248 0.141067 0.0578206
0.335627 0.14108 0.0574731
0.336006 0.141094 0.0571257
0.336385 0.141108 0.0567783
0.336764 0.141122 0.0564308
0.337143 0.141135 0.0560833
0.337465 0.14117 0.0556321
0.337786 0.141205 0.0551809
0.338165 0.141219 0.0548333
0.338544 0.141232 0.0544859
0.338923 0.141246 0.0541385
0.339302 0.14126 0.053791
0.339681 0.141273 0.0534436
0.34006 0.141287 0.0530961
0.340439 0.141301 0.0527487
0.340818 0.141314 0.0524012
0.341082 0.14137 0.0518462
0.341346 0.141426 0.0512911
0.341609 0.141482 0.050736
0.341873 0.141538 0.050181
0.34208 0.141616 0.049522
0.342344 0.141672 0.0489671
0.342665 0.141707 0.0485158
0.342986 0.141741 0.0480645
0.343308 0.141776 0.0476132
0.343687 0.14179 0.0472657
0.344066 0.141804 0.0469184
0.344445 0.141817 0.0465709
0.344881 0.14181 0.0463272
0.34526 0.141823 0.0459798
0.345639 0.141837 0.0456324
0.346076 0.14183 0.0453887
0.346455 0.141843 0.0450413
0.346776 0.141878 0.04459
0.347037 0.141936 0.0440292
0.347291 0.141996 0.0434569
0.347485 0.142079 0.042775
0.347739 0.14214 0.0422027
0.347933 0.142223 0.0415209
0.348005 0.142351 0.0406198
0.348198 0.142434 0.0399379
0.348392 0.142517 0.039256
0.348646 0.142577 0.0386837
0.3489 0.142638 0.0381114
0.349276 0.142653 0.0377582
0.349531 0.142713 0.0371859
0.349785 0.142774 0.0366136
0.349978 0.142857 0.0359317
0.350172 0.14294 0.0352499
0.350305 0.143045 0.0344584
0.35062 0.143083 0.0339956
0.350935 0.143121 0.0335329
0.351189 0.143181 0.0329606
0.351504 0.143219 0.0324978
0.351819 0.143257 0.0320351
0.352073 0.143317 0.0314628
0.352328 0.143378 0.0308904
0.352582 0.143438 0.0303181
0.352836 0.143498 0.0297458
0.353091 0.143559 0.0291735
0.353223 0.143664 0.028382
0.353356 0.14377 0.0275906
0.353428 0.143898 0.0266896
0.353561 0.144004 0.0258982
0.35339 0.144223 0.0245589
0.353462 0.144351 0.0236579
0.353595 0.144457 0.0228666
0.353727 0.144562 0.022075
0.353921 0.144645 0.0213932
0.354236 0.144683 0.0209305
0.354612 0.144698 0.0205772
0.355109 0.144668 0.0204432
0.355606 0.144638 0.020309
0.356165 0.144585 0.0202846
0.356662 0.144555 0.0201505
0.357159 0.144525 0.0200164
0.357596 0.144518 0.0197728
0.358093 0.144488 0.0196387
0.35859 0.144457 0.0195046
0.359027 0.14445 0.019261
0.359524 0.14442 0.0191269
0.359961 0.144413 0.0188833
0.360397 0.144405 0.0186396
0.360834 0.144398 0.018396
0.36127 0.14439 0.0181524
0.361646 0.144405 0.0177992
0.362083 0.144398 0.0175555
0.362398 0.144436 0.0170927
0.362774 0.144451 0.0167396
0.363028 0.144511 0.0161672
0.363282 0.144571 0.015595
0.363598 0.144609 0.0151321
0.363913 0.144647 0.0146695
0.364228 0.144685 0.0142067
0.364543 0.144723 0.0137439
0.364857 0.14476 0.0132812
0.365173 0.144798 0.0128184
0.365427 0.144859 0.0122461
0.365681 0.144919 0.0116738
0.365936 0.144979 0.0111015
0.366129 0.145062 0.0104196
0.366383 0.145123 0.0098473
0.366455 0.145251 0.00894627
0.366588 0.145357 0.00815483
0.366599 0.145507 0.00714427
0.366732 0.145613 0.00635277
0.366744 0.145764 0.00534226
0.366937 0.145847 0.00466036
0.36707 0.145953 0.00386893
0.36702 0.146126 0.00274883
0.366849 0.146345 0.00140963
0.257406 0.151732 0.043712
0.258103 0.151634 0.0439366
0.259821 0.151175 0.0460042
0.261108 0.15085 0.0472944
0.261788 0.150752 0.047489
0.26265 0.150586 0.0480123
0.263329 0.150488 0.0482069
0.264009 0.15039 0.0484015
0.264749 0.150269 0.0487057
0.265429 0.150171 0.0489003
0.273339 0.147376 0.0621326
0.274504 0.147096 0.0632038
0.27567 0.146817 0.0642748
0.276714 0.146582 0.0651267
0.277576 0.146416 0.06565
0.278498 0.146228 0.0662829
0.279178 0.146129 0.0664776
0.279918 0.146009 0.0667817
0.280658 0.145888 0.0670858
0.281399 0.145767 0.06739
0.282139 0.145646 0.0676941
0.282819 0.145548 0.0678888
0.283499 0.14545 0.0680834
0.284117 0.145375 0.0681684
0.284736 0.145299 0.0682535
0.285355 0.145224 0.0683386
0.285974 0.145148 0.0684235
0.286471 0.145118 0.0682895
0.287029 0.145065 0.0682649
0.287587 0.145012 0.0682404
0.288085 0.144982 0.0681064
0.288521 0.144975 0.0678627
0.289019 0.144945 0.0677287
0.289455 0.144937 0.067485
0.289952 0.144907 0.067351
0.290328 0.144922 0.0669978
0.290765 0.144915 0.0667542
0.29114 0.14493 0.0664009
0.291577 0.144923 0.0661573
0.291953 0.144938 0.0658041
0.292329 0.144953 0.0654508
0.292704 0.144968 0.0650976
0.29308 0.144983 0.0647444
0.293395 0.145021 0.0642817
0.293771 0.145036 0.0639285
0.294086 0.145074 0.0634658
0.294401 0.145112 0.0630031
0.294716 0.14515 0.0625402
0.295092 0.145165 0.062187
0.295468 0.14518 0.0618338
0.295783 0.145218 0.0613711
0.296098 0.145256 0.0609083
0.296413 0.145294 0.0604455
0.296789 0.145309 0.0600924
0.297104 0.145347 0.0596297
0.297419 0.145385 0.0591669
0.297855 0.145377 0.0589232
0.298232 0.145393 0.0585701
0.298668 0.145385 0.0583264
