ply
format ascii 1.0
element vertex 1282
property float x
property float y
property float z
property uchar diffuse_red
property uchar diffuse_green
property uchar diffuse_blue
end_header
0.287979 0.070457 -0.0221202 87 10 5
0.287957 0.0708242 -0.0222974 86 10 3
0.287697 0.0709084 -0.0220813 83 10 4
0.287683 0.0712725 -0.0222424 83 10 4
0.287425 0.0713643 -0.0220212 83 9 4
0.288303 0.069667 -0.0219681 90 10 5
0.28858 0.0695836 -0.0221691 88 10 5
0.288905 0.0691531 -0.0221563 86 9 5
0.289193 0.0690722 -0.0223483 84 8 4
0.289251 0.0687414 -0.0221252 81 8 4
0.289535 0.0686689 -0.0223202 81 8 3
0.28961 0.0683539 -0.0220902 81 7 3
0.289467 0.0690001 -0.0225494 84 8 4
0.28822 0.0707405 -0.022514 87 10 4
0.28821 0.071102 -0.022673 86 10 4
0.288202 0.0714661 -0.0228321 84 9 3
0.287939 0.0715515 -0.0226143 84 9 4
0.287942 0.0711919 -0.0224633 84 10 4
0.287686 0.0716425 -0.0223951 82 9 3
0.290481 0.0681749 -0.0226584 77 6 3
0.290394 0.068474 -0.0228982 80 7 3
0.290312 0.0687967 -0.0231387 84 8 3
0.290252 0.0691212 -0.023352 83 8 4
0.290103 0.0667394 -0.020193 75 8 5
0.290029 0.0668273 -0.0203224 75 8 5
0.289865 0.0670349 -0.0206276 74 7 4
0.289721 0.0672625 -0.020903 74 7 4
0.2896 0.0675307 -0.0211741 76 7 4
0.289211 0.0678739 -0.0212322 78 7 2
0.289502 0.0678161 -0.0214196 78 7 2
0.289119 0.0681755 -0.0214689 79 7 3
0.288828 0.0682323 -0.0212835 82 8 4
0.28875 0.0685421 -0.0215168 84 9 4
0.28855 0.0682966 -0.0210872 82 7 4
0.288473 0.0686105 -0.0213176 84 9 4
0.28748 0.070276 -0.0215192 87 10 4
0.287198 0.0707218 -0.0214729 84 10 4
0.305972 0.0780716 -0.0364035 153 152 135
0.306335 0.0782486 -0.036534 154 159 139
0.306439 0.0782267 -0.0362014 160 158 136
0.306759 0.07845 -0.0362968 164 164 141
0.306847 0.0784363 -0.0359461 161 163 139
0.307133 0.0786947 -0.0360223 165 167 144
0.307196 0.0787024 -0.0356588 167 165 138
0.307454 0.0789993 -0.0357098 166 165 139
0.307469 0.0789833 -0.0353285 161 157 134
0.307727 0.0792928 -0.0353713 165 162 138
0.307655 0.0792124 -0.0350027 156 151 127
0.306654 0.0784714 -0.036637 159 163 144
0.307053 0.078699 -0.0363748 168 170 147
0.307411 0.0790117 -0.0360769 159 166 144
0.307711 0.0793071 -0.0357588 168 167 140
0.307929 0.0796298 -0.0353867 166 162 139
0.307945 0.0796534 -0.0353571 167 163 140
0.308115 0.0799777 -0.0353895 167 166 142
0.308187 0.0801271 -0.0353194 163 163 140
0.308225 0.0802153 -0.0353849 163 162 140
0.308401 0.0806213 -0.035329 156 159 138
0.308385 0.080578 -0.0353857 155 157 137
0.308499 0.0809461 -0.0353607 149 155 138
0.308327 0.0806471 -0.0357244 153 157 137
0.308405 0.0810051 -0.0356952 143 151 133
0.30825 0.080731 -0.0360721 130 146 132
0.308316 0.0811544 -0.0359975 110 131 123
0.308204 0.0811485 -0.0363174 95 122 116
0.308225 0.0815826 -0.036204 81 104 100
0.30808 0.0813421 -0.0365831 59 79 79
0.308066 0.0817032 -0.0365267 59 71 59
0.30792 0.0814141 -0.0369197 45 63 62
0.30792 0.0818153 -0.0368273 46 57 48
0.307754 0.0818464 -0.0371417 25 33 27
0.307754 0.0822219 -0.0370338 37 33 21
0.307587 0.0823204 -0.0373296 21 21 14
0.307762 0.0826232 -0.036946 27 23 10
0.307639 0.0827266 -0.0372583 30 19 9
0.307772 0.0830411 -0.0368683 42 26 10
0.307682 0.0831235 -0.0372019 18 13 1
0.307715 0.083491 -0.0370876 32 22 4
0.307612 0.0832368 -0.0375234 6 5 0
0.307699 0.0836212 -0.0373545 16 11 0
0.307659 0.0836208 -0.037865 2 1 0
0.307714 0.0838731 -0.0376456 7 5 0
0.307728 0.084112 -0.0379475 1 1 0
0.307691 0.0841194 -0.0374088 3 3 0
0.307714 0.0844335 -0.0377313 1 1 0
0.307667 0.0844232 -0.0372246 5 4 0
0.307656 0.0846972 -0.0375035 1 0 0
0.307599 0.0848743 -0.0372559 1 1 0
0.307584 0.0851303 -0.0375279 0 0 0
0.307546 0.0851259 -0.0370664 0 0 0
0.307527 0.0854427 -0.0373443 0 0 0
0.307482 0.0854121 -0.0368058 1 0 0
0.307449 0.0857534 -0.0371435 0 0 0
0.307352 0.0861123 -0.0370075 0 0 0
0.307229 0.0865598 -0.0369899 0 0 0
0.307104 0.0870258 -0.0370219 0 0 0
0.306881 0.0874955 -0.0370029 0 0 0
0.306512 0.087784 -0.0368056 0 0 0
0.307497 0.085197 -0.036432 3 4 0
0.307554 0.0849641 -0.0366839 3 2 0
0.307533 0.0849385 -0.0361882 16 12 0
0.30761 0.0846494 -0.0364227 13 10 0
0.307568 0.0846782 -0.0359456 31 23 3
0.307631 0.0844173 -0.0360873 32 23 4
0.307631 0.0844117 -0.0355801 54 36 13
0.3077 0.084161 -0.0358308 52 35 12
0.30781 0.0839176 -0.0355023 88 56 25
0.307748 0.0838911 -0.0360247 39 28 7
0.307879 0.0836486 -0.0357107 65 46 22
0.307794 0.0836203 -0.0362342 43 29 11
0.307924 0.0833767 -0.0359271 74 48 23
0.307934 0.0831131 -0.0361567 51 37 18
0.308074 0.0831418 -0.0356382 86 71 45
0.308129 0.0828545 -0.0358088 71 63 44
0.308292 0.0825978 -0.0355118 93 92 65
0.308436 0.0822252 -0.0354144 108 122 111
0.308478 0.081862 -0.0354958 117 132 122
0.308344 0.0819314 -0.0358138 82 101 96
0.308369 0.0815551 -0.0358693 98 118 114
0.308569 0.0815686 -0.0353461 138 149 135
0.308487 0.0814895 -0.0355988 128 142 129
0.308492 0.0813198 -0.0355488 140 150 134
0.308462 0.0812315 -0.0356366 138 148 133
0.308543 0.0810765 -0.0352891 148 154 137
0.307623 0.0846682 -0.0369314 2 1 0
0.30767 0.0843789 -0.0366447 10 9 0
0.307711 0.0841496 -0.0368958 16 12 0
0.307737 0.0838879 -0.0365609 28 20 2
0.307745 0.083628 -0.0367974 21 15 0
0.307807 0.0833708 -0.0364823 33 26 10
0.307789 0.0831181 -0.0367251 36 23 8
0.307858 0.0829378 -0.0365323 62 42 22
0.307696 0.0838651 -0.0371032 12 8 0
0.306946 0.0787347 -0.0367126 164 168 146
0.307349 0.0790475 -0.0364365 165 169 148
0.307666 0.0793378 -0.036122 162 166 147
0.307897 0.0796574 -0.0357597 167 166 142
0.307265 0.0790831 -0.0367824 155 164 146
0.307589 0.079361 -0.0364792 162 169 148
0.307767 0.0797177 -0.0364793 160 167 148
0.307851 0.0796933 -0.03612 161 167 146
0.30793 0.0800918 -0.0364471 149 162 142
0.308014 0.0800507 -0.0361053 150 162 142
0.308117 0.0803395 -0.0360926 144 156 141
0.30819 0.0802746 -0.0357451 161 164 141
0.308068 0.0800067 -0.0357571 166 165 143
0.308042 0.0804118 -0.0364381 136 151 137
0.308139 0.0807864 -0.0364162 114 135 128
0.307937 0.0805038 -0.036759 89 121 121
0.308014 0.0808638 -0.0367243 66 97 103
0.307863 0.0809111 -0.0370294 48 81 95
0.307907 0.0811573 -0.0369779 45 72 80
0.307741 0.0811911 -0.0372928 26 45 46
0.307755 0.0814262 -0.0372486 26 38 37
0.307614 0.081476 -0.0375381 14 29 32
0.307583 0.0818601 -0.0374586 17 25 23
0.307415 0.0815378 -0.0378227 13 28 33
0.307398 0.0819355 -0.0377484 8 21 21
0.307225 0.0817485 -0.0380875 3 12 12
0.30725 0.0820488 -0.0380094 2 6 5
0.307141 0.0820943 -0.0383471 2 3 4
0.3073 0.0824047 -0.0379995 9 6 1
0.307249 0.0824967 -0.0383295 1 0 0
0.307414 0.0828017 -0.0379578 7 4 0
0.307355 0.0828557 -0.0383213 0 0 0
0.30747 0.0832104 -0.0382568 1 0 0
0.307332 0.0829531 -0.0386581 0 0 0
0.307494 0.0833188 -0.0386496 0 0 0
0.307325 0.0830234 -0.0390409 0 0 0
0.307531 0.0833726 -0.0390637 0 0 0
0.307348 0.0830905 -0.0394322 0 0 0
0.30758 0.0834529 -0.039472 0 0 0
0.307363 0.0831536 -0.0398254 0 0 0
0.307603 0.0835243 -0.0398624 0 0 0
0.307378 0.0832376 -0.040193 0 0 0
0.307611 0.0836043 -0.0402336 0 0 0
0.307417 0.0833542 -0.0405788 0 0 0
0.307625 0.0836967 -0.0406009 0 0 0
0.30745 0.0835027 -0.0409177 0 0 0
0.307586 0.0837763 -0.0409617 0 0 0
0.307372 0.083519 -0.0412477 0 0 0
0.307512 0.0838358 -0.0413169 0 0 0
0.307265 0.0835749 -0.0416104 0 0 0
0.307473 0.0840067 -0.0416773 0 0 0
0.307297 0.0838272 -0.0419867 0 0 0
0.307393 0.0840382 -0.0420043 0 0 0
0.307329 0.0840649 -0.0423355 0 0 0
0.307579 0.0843417 -0.0420131 0 0 0
0.307527 0.0843569 -0.0424242 0 0 0
0.307663 0.0845275 -0.0423859 0 0 0
0.307618 0.0843194 -0.0416267 0 0 0
0.307622 0.0841492 -0.0413377 0 0 0
0.307731 0.0843689 -0.0413113 0 0 0
0.307713 0.0840907 -0.0410223 0 0 0
0.307808 0.0843416 -0.0409535 0 0 0
0.307778 0.0840579 -0.0406433 0 0 0
0.307871 0.0843913 -0.040642 0 0 0
0.307902 0.0843262 -0.0403106 0 0 0
0.307943 0.0846232 -0.0405896 0 0 0
0.307963 0.0846373 -0.040135 0 0 0
0.308021 0.0848988 -0.0404504 0 0 0
0.308014 0.084916 -0.0399869 0 0 0
0.308099 0.0851737 -0.0402274 0 0 0
0.308026 0.0851737 -0.0396964 0 0 0
0.308139 0.0854265 -0.0400625 0 0 0
0.30812 0.085633 -0.0398077 0 0 0
0.308221 0.0856938 -0.0402132 0 0 0
0.308227 0.0859674 -0.0400765 0 0 0
0.308302 0.0859064 -0.0405767 0 0 0
0.308329 0.0862439 -0.040387 0 0 0
0.308406 0.0862257 -0.0408753 0 0 0
0.308429 0.0865055 -0.0406762 0 0 0
0.308496 0.0867615 -0.0408809 0 0 0
0.308502 0.0870267 -0.0407531 0 0 0
0.308602 0.0872856 -0.0410405 0 0 0
0.3085 0.0873023 -0.0406295 0 0 0
0.308586 0.0876051 -0.0408432 0 0 0
0.308456 0.0875397 -0.0403677 0 0 0
0.308552 0.0877938 -0.0406076 0 0 0
0.308522 0.0879996 -0.0404191 0 0 0
0.308642 0.0880219 -0.0408866 0 0 0
0.308617 0.0883533 -0.0406446 0 0 0
0.308466 0.0883448 -0.0401296 0 0 0
0.308394 0.0878137 -0.0400578 0 0 0
0.308328 0.0873066 -0.0399956 0 0 0
0.308393 0.0870529 -0.0402973 0 0 0
0.308253 0.0867979 -0.0398806 0 0 0
0.308339 0.0866093 -0.040245 0 0 0
0.308235 0.0863243 -0.0399386 0 0 0
0.308426 0.0867891 -0.0405285 0 0 0
0.308376 0.0886321 -0.0398227 0 0 0
0.308314 0.0883315 -0.0396796 0 0 0
0.308199 0.0886179 -0.0394246 0 0 0
0.308164 0.0880762 -0.039356 0 0 0
0.30804 0.0883554 -0.0390772 0 0 0
0.30802 0.0878289 -0.0390027 0 0 0
0.307909 0.0880873 -0.0387585 0 0 0
0.307898 0.0875745 -0.038688 0 0 0
0.307773 0.0878368 -0.0384534 0 0 0
0.30777 0.087322 -0.0383865 0 0 0
0.307647 0.0875826 -0.0381641 0 0 0
0.30766 0.0870663 -0.038099 0 0 0
0.307531 0.0873247 -0.0378727 0 0 0
0.307562 0.0868332 -0.0378124 0 0 0
0.307422 0.0870771 -0.0375794 0 0 0
0.307466 0.0865959 -0.0375217 0 0 0
0.307301 0.08684 -0.0372892 0 0 0
0.30738 0.0864133 -0.0372594 0 0 0
0.307203 0.0873169 -0.0373335 0 0 0
0.307043 0.0877885 -0.037377 0 0 0
0.306675 0.0879208 -0.037088 0 0 0
0.306706 0.0882431 -0.037348 0 0 0
0.307346 0.0875816 -0.0376468 0 0 0
0.307159 0.0880795 -0.0376872 0 0 0
0.30691 0.0885629 -0.0377758 0 0 0
0.306665 0.0890006 -0.0378355 0 0 0
0.306359 0.0891423 -0.0376967 0 0 0
0.306587 0.0894488 -0.0380324 0 0 0
0.30622 0.0895056 -0.0378791 0 0 0
0.306452 0.0897785 -0.0381769 0 0 0
0.306133 0.0898434 -0.0381168 0 0 0
0.306399 0.0901322 -0.0384331 0 0 0
0.306047 0.0901365 -0.0383385 0 0 0
0.30603 0.0904955 -0.0386074 0 0 0
0.305718 0.0900644 -0.0383801 0 0 0
0.305632 0.0901968 -0.0384333 0 0 0
0.305824 0.0898481 -0.0381454 0 0 0
0.307457 0.087824 -0.0379381 0 0 0
0.307311 0.0882678 -0.0379754 0 0 0
0.307374 0.0886001 -0.0382181 0 0 0
0.307057 0.0889174 -0.0381178 0 0 0
0.307346 0.0890909 -0.0384676 0 0 0
0.306932 0.0893324 -0.038253 0 0 0
0.30719 0.0895987 -0.0386478 0 0 0
0.306788 0.0897953 -0.0384097 0 0 0
0.307049 0.0900391 -0.0387531 0 0 0
0.306737 0.090206 -0.0386332 0 0 0
0.306937 0.0904092 -0.0389061 0 0 0
0.306704 0.0904815 -0.0387948 0 0 0
0.306684 0.090733 -0.0389983 0 0 0
0.306452 0.0905069 -0.0386926 0 0 0
0.306321 0.0908321 -0.038912 0 0 0
0.306013 0.0910082 -0.0390139 0 0 0
0.305874 0.0906365 -0.0386869 0 0 0
0.305792 0.0906914 -0.0388925 0 0 0
0.305491 0.0905367 -0.0386991 0 0 0
0.305426 0.0907396 -0.0388901 0 0 0
0.305129 0.0905626 -0.0387465 0 0 0
0.305046 0.0908311 -0.0390282 0 0 0
0.304784 0.0906151 -0.0390078 0 0 0
0.304714 0.090895 -0.039355 0 0 0
0.30448 0.0906263 -0.0392681 0 0 0
0.304452 0.0908568 -0.0395439 0 0 0
0.304194 0.0905805 -0.0395696 0 0 0
0.304361 0.0908856 -0.0396895 0 0 0
0.304268 0.0908779 -0.03984 0 0 0
0.304569 0.0911461 -0.0398518 0 0 0
0.304188 0.0909138 -0.040201 0 0 0
0.304058 0.0906503 -0.0399544 0 0 0
0.304326 0.090474 -0.0392542 0 0 0
0.304993 0.0911044 -0.0393672 0 0 0
0.305313 0.0909514 -0.0390762 0 0 0
0.305663 0.090972 -0.0390547 0 0 0
0.307573 0.0880975 -0.0382204 0 0 0
0.307719 0.0883368 -0.0384984 0 0 0
0.307626 0.0887361 -0.0385444 0 0 0
0.307727 0.088997 -0.038778 0 0 0
0.307509 0.0893459 -0.0387683 0 0 0
0.307788 0.089257 -0.0389754 0 0 0
0.307558 0.0896388 -0.0390197 0 0 0
0.307893 0.0894194 -0.0392312 0 0 0
0.307304 0.089921 -0.0389366 0 0 0
0.307478 0.0900148 -0.0391749 0 0 0
0.30723 0.090309 -0.0391053 0 0 0
0.307011 0.0906382 -0.0391444 0 0 0
0.306893 0.0909283 -0.0393182 0 0 0
0.306563 0.0910654 -0.0392397 0 0 0
0.306302 0.0911492 -0.0391886 0 0 0
0.306148 0.0913319 -0.0393129 0 0 0
0.30593 0.0913649 -0.0393475 0 0 0
0.30788 0.0885752 -0.0388105 0 0 0
0.308004 0.0888989 -0.0391037 0 0 0
0.30815 0.0891364 -0.0394291 0 0 0
0.308683 0.0878162 -0.0411804 0 0 0
0.308683 0.0875484 -0.0413144 0 0 0
0.30838 0.0859494 -0.0411026 0 0 0
0.308319 0.0856666 -0.0413454 0 0 0
0.308223 0.0853759 -0.0415506 0 0 0
0.308047 0.0850356 -0.0417574 0 0 0
0.307827 0.0847103 -0.0420502 0 0 0
0.307826 0.0846245 -0.0416675 0 0 0
0.307957 0.0848379 -0.0414375 0 0 0
0.307852 0.0846266 -0.0412413 0 0 0
0.308002 0.0848632 -0.0409561 0 0 0
0.307883 0.0845916 -0.0409017 0 0 0
0.308116 0.0851556 -0.0407419 0 0 0
0.308214 0.0854757 -0.0405291 0 0 0
0.308291 0.0856834 -0.0408929 0 0 0
0.307798 0.0839679 -0.0402569 0 0 0
0.3078 0.0838794 -0.0398886 0 0 0
0.307739 0.0837935 -0.0395019 0 0 0
0.307684 0.0837073 -0.0390861 0 0 0
0.307632 0.0836306 -0.038686 1 0 0
0.307626 0.0835983 -0.0382533 1 1 0
0.307551 0.0832644 -0.0378819 11 7 0
0.307533 0.0828133 -0.037587 13 10 5
0.307428 0.0823406 -0.0376641 19 19 14
0.308057 0.0811419 -0.0366537 60 84 87
0.307687 0.0838723 -0.0382241 3 3 0
0.307719 0.0838539 -0.0386957 3 2 0
0.307768 0.0841306 -0.0384822 1 1 0
0.307824 0.084123 -0.0390011 0 0 0
0.307855 0.0844184 -0.0387787 0 0 0
0.30789 0.0843871 -0.039253 0 0 0
0.307905 0.0846897 -0.0391257 0 0 0
0.307945 0.0846514 -0.039627 0 0 0
0.30795 0.0849152 -0.0394029 0 0 0
0.307924 0.0851458 -0.0391539 0 0 0
0.308011 0.085511 -0.0394234 0 0 0
0.307927 0.0855204 -0.0389783 0 0 0
0.307999 0.0858232 -0.0392494 0 0 0
0.307941 0.0860133 -0.0390008 0 0 0
0.308063 0.0862613 -0.0393202 0 0 0
0.308004 0.0865168 -0.0390816 0 0 0
0.308137 0.086769 -0.0394306 0 0 0
0.308056 0.0870271 -0.039149 0 0 0
0.308159 0.0872689 -0.0394435 0 0 0
0.308095 0.0875417 -0.0392198 0 0 0
0.308199 0.0877041 -0.0394906 0 0 0
0.308309 0.0879984 -0.0397544 0 0 0
0.308271 0.0875505 -0.0397416 0 0 0
0.308222 0.087118 -0.0396887 0 0 0
0.308161 0.0864299 -0.0396229 0 0 0
0.308113 0.0859808 -0.0396109 0 0 0
0.307985 0.0873 -0.0389194 0 0 0
0.307936 0.0867791 -0.0388428 0 0 0
0.307882 0.0862555 -0.0387564 0 0 0
0.307838 0.0857353 -0.0386935 0 0 0
0.307826 0.0852296 -0.0386673 0 0 0
0.307851 0.0848825 -0.0387994 0 0 0
0.307863 0.087053 -0.0386196 0 0 0
0.30782 0.0865312 -0.0385363 0 0 0
0.307751 0.0859865 -0.0384116 0 0 0
0.307726 0.0854466 -0.0383596 0 0 0
0.307763 0.0849606 -0.0383557 0 0 0
0.307819 0.0846486 -0.0385002 0 0 0
0.307775 0.084398 -0.0382445 0 0 0
0.307723 0.0846879 -0.0380524 0 0 0
0.307666 0.084919 -0.0377966 0 0 0
0.307694 0.0851376 -0.0380957 0 0 0
0.307613 0.0853989 -0.037858 0 0 0
0.307658 0.0857118 -0.0380931 0 0 0
0.307632 0.0860712 -0.0379591 0 0 0
0.30772 0.0863517 -0.0382577 0 0 0
0.307653 0.0865657 -0.0380411 0 0 0
0.307757 0.0868124 -0.038322 0 0 0
0.307561 0.0863896 -0.0377546 0 0 0
0.307488 0.0861015 -0.0374699 0 0 0
0.307556 0.0857341 -0.0376449 0 0 0
0.307772 0.0838948 -0.0391827 0 0 0
0.307864 0.0841458 -0.0395363 0 0 0
0.307918 0.0842089 -0.0399332 0 0 0
0.307835 0.0801457 -0.0367915 112 139 132
0.307795 0.0805357 -0.0370679 70 109 115
0.307639 0.0806111 -0.0373689 36 66 80
0.307705 0.0809911 -0.0373416 27 48 53
0.30748 0.0807406 -0.03768 24 52 68
0.307575 0.0811669 -0.0376188 17 37 44
0.307397 0.0811374 -0.0379273 16 38 46
0.307225 0.0813399 -0.0381917 6 21 23
0.307052 0.0816758 -0.0384181 1 11 12
0.306955 0.0818994 -0.0386882 0 0 0
0.30706 0.0821996 -0.0386969 0 0 0
0.306991 0.0822845 -0.0390437 0 0 0
0.30693 0.0823704 -0.0393931 0 0 0
0.306877 0.0824336 -0.0397633 0 0 0
0.306873 0.0825379 -0.0401293 0 0 0
0.306709 0.0824936 -0.0404669 0 0 0
0.307004 0.0828046 -0.0405222 0 0 0
0.306875 0.0827821 -0.0408612 0 0 0
0.307129 0.0830612 -0.040914 0 0 0
0.30681 0.0828776 -0.0412267 0 0 0
0.307137 0.0832214 -0.0412933 0 0 0
0.306982 0.083184 -0.0416145 0 0 0
0.307093 0.0835095 -0.0419704 0 0 0
0.307174 0.0838233 -0.0423265 0 0 0
0.307175 0.0839575 -0.042677 0 0 0
0.307344 0.0842011 -0.0427487 0 0 0
0.307059 0.0839757 -0.043047 0 0 0
0.307079 0.0841302 -0.0434047 0 0 0
0.307259 0.0832565 -0.040935 0 0 0
0.307249 0.0831018 -0.0405565 0 0 0
0.307102 0.0828377 -0.0401648 0 0 0
0.307122 0.0827887 -0.0397877 0 0 0
0.30713 0.0827151 -0.0394088 0 0 0
0.307149 0.0826656 -0.0390343 0 0 0
0.307194 0.0825861 -0.0386831 0 0 0
0.306618 0.0825469 -0.0407837 0 0 0
0.306513 0.0826051 -0.0410914 0 0 0
0.306428 0.0827247 -0.0414487 0 0 0
0.306242 0.082848 -0.0417886 0 0 0
0.305963 0.0829231 -0.0419111 0 0 0
0.305866 0.0830988 -0.0421313 0 0 0
0.305814 0.0833171 -0.0424259 0 0 0
0.305613 0.0835365 -0.0425556 0 0 0
0.305798 0.0835388 -0.0427422 0 0 0
0.305714 0.0837631 -0.0430321 0 0 0
0.305933 0.0836402 -0.0429867 0 0 0
0.305918 0.0838247 -0.0432887 0 0 0
0.306177 0.0836514 -0.0430417 0 0 0
0.30613 0.0838598 -0.043414 0 0 0
0.306405 0.0837841 -0.0432164 0 0 0
0.306405 0.0839036 -0.0434895 0 0 0
0.306729 0.0838817 -0.0432784 0 0 0
0.306628 0.0839995 -0.0436378 0 0 0
0.3069 0.0840097 -0.0434112 0 0 0
0.306223 0.0840046 -0.0437816 0 0 0
0.305935 0.0840852 -0.0440063 0 0 0
0.305684 0.0841642 -0.0439002 0 0 0
0.305437 0.0842423 -0.0437628 0 0 0
0.305088 0.0844895 -0.0439433 0 0 0
0.305174 0.0843165 -0.0436298 0 0 0
0.305349 0.0840957 -0.043265 0 0 0
0.305909 0.0839949 -0.0436608 0 0 0
0.305728 0.083971 -0.0434722 0 0 0
0.305581 0.0839954 -0.0433213 0 0 0
0.305493 0.0837861 -0.0428384 0 0 0
0.305616 0.0841065 -0.0436322 0 0 0
0.305346 0.0836549 -0.0425026 0 0 0
0.306706 0.0829265 -0.0415801 0 0 0
0.306822 0.0832076 -0.0419501 0 0 0
0.306938 0.0835358 -0.0423209 0 0 0
0.307022 0.0837926 -0.0426679 0 0 0
0.306998 0.0812871 -0.0384846 6 21 24
0.307339 0.0808327 -0.0379788 21 50 64
0.307686 0.0797784 -0.0368216 131 153 140
0.307712 0.080197 -0.0371146 97 132 129
0.307511 0.0794171 -0.0368203 146 157 142
0.305604 0.0779394 -0.0362561 154 153 133
0.306077 0.0780497 -0.0360624 156 154 133
0.306535 0.0782111 -0.0358544 160 159 135
0.306909 0.0784541 -0.035581 160 156 129
0.307233 0.0787426 -0.0352737 155 151 129
0.307374 0.0788875 -0.0350272 152 148 125
0.307362 0.0789348 -0.0345922 147 139 116
0.244517 0.0641472 -0.0223974 158 159 143
0.24473 0.0641319 -0.0221067 155 159 143
0.244353 0.0644815 -0.0222338 159 161 146
0.244585 0.0644568 -0.0219527 158 162 147
0.244221 0.0648337 -0.02208 159 164 148
0.244456 0.0648158 -0.0218075 162 166 150
0.24412 0.0652004 -0.0219395 162 164 148
0.244348 0.0651787 -0.0216642 165 169 152
0.244018 0.0655746 -0.0218009 165 167 147
0.24424 0.0655513 -0.0215224 166 170 150
0.243914 0.0660376 -0.0216353 169 167 146
0.243884 0.0652233 -0.022222 163 163 144
0.243563 0.0656264 -0.0223624 154 149 127
0.243801 0.0656081 -0.022081 158 157 136
0.24377 0.0657133 -0.0220413 160 159 138
0.243473 0.0659927 -0.0222256 154 145 122
0.243681 0.0660864 -0.0219085 158 151 131
0.243446 0.0661336 -0.0221797 150 141 118
0.240638 0.0726431 -0.0338798 0 0 0
0.240547 0.0729745 -0.0338247 0 0 0
0.240825 0.0727944 -0.0335789 0 0 0
0.240714 0.0731738 -0.0334709 0 0 0
0.241042 0.0729571 -0.0332411 0 0 0
0.240981 0.073304 -0.0330452 0 0 0
0.241259 0.0730629 -0.0328961 0 0 0
0.241301 0.0733164 -0.0326196 0 0 0
0.241541 0.0729467 -0.0325489 0 0 0
0.24158 0.0732293 -0.0323025 0 0 0
0.241807 0.073037 -0.0321089 0 0 0
0.241722 0.0733952 -0.0319065 0 0 0
0.24204 0.0731715 -0.0317046 0 0 0
0.241941 0.0735117 -0.0315143 0 0 0
0.242266 0.0733284 -0.0313303 0 0 0
0.242094 0.0736878 -0.0311904 0 0 0
0.242392 0.0735037 -0.0310686 0 0 0
0.242326 0.0737926 -0.0308846 0 0 0
0.242628 0.0735091 -0.0308237 0 0 0
0.242572 0.0738054 -0.0306552 0 0 0
0.242807 0.0736657 -0.0305435 0 0 0
0.242665 0.0739839 -0.0303702 0 0 0
0.242969 0.0738002 -0.0302586 0 0 0
0.242938 0.074051 -0.0300018 0 0 0
0.242566 0.0741824 -0.0300613 0 0 0
0.242721 0.0743039 -0.0297185 0 0 0
0.24235 0.0742259 -0.029929 0 0 0
0.242348 0.074305 -0.0296113 0 0 0
0.242013 0.0742191 -0.0298172 0 0 0
0.242017 0.07427 -0.0295364 0 0 0
0.241707 0.0741878 -0.0297238 0 0 0
0.241675 0.0742192 -0.0294447 0 0 0
0.241334 0.0741125 -0.0297526 0 0 0
0.241379 0.0741697 -0.0293382 0 0 0
0.241037 0.0740859 -0.0293271 0 0 0
0.241324 0.0741879 -0.028992 0 0 0
0.240991 0.0741257 -0.0288433 0 0 0
0.241334 0.0742395 -0.0285727 0 0 0
0.240966 0.0741581 -0.0284541 0 0 0
0.241299 0.074249 -0.0281622 0 0 0
0.241011 0.074185 -0.0281006 0 0 0
0.241262 0.0742682 -0.0277318 0 0 0
0.240898 0.0741733 -0.0278252 0 0 0
0.24091 0.0741748 -0.0274159 0 0 0
0.240609 0.0740862 -0.0277333 0 0 0
0.240551 0.0740679 -0.0274287 0 0 0
0.24027 0.0739713 -0.0276017 0 0 0
0.240259 0.0739644 -0.0273021 0 0 0
0.239941 0.0738545 -0.0274718 0 0 0
0.240603 0.0740795 -0.0271472 0 0 0
0.241259 0.074299 -0.0272595 0 0 0
0.241628 0.0744099 -0.0274166 0 0 0
0.241629 0.0743585 -0.0278604 0 0 0
0.24198 0.0744817 -0.0277422 0 0 0
0.241936 0.074418 -0.0281862 0 0 0
0.242295 0.0745272 -0.0280605 0 0 0
0.242271 0.0744535 -0.0285048 0 0 0
0.242569 0.0745561 -0.0282194 0 0 0
0.242671 0.0745321 -0.0285809 0 0 0
0.242871 0.0746416 -0.0281693 0 0 0
0.243063 0.0746032 -0.0284788 0 0 0
0.243258 0.0747016 -0.0281059 0 0 0
0.243345 0.0746277 -0.028426 0 0 0
0.242962 0.0745148 -0.0288316 0 0 0
0.242661 0.0744464 -0.0289935 0 0 0
0.242335 0.0744138 -0.028908 0 0 0
0.242357 0.0743549 -0.0292891 0 0 0
0.24201 0.0743156 -0.0292013 0 0 0
0.242651 0.0743578 -0.0294387 0 0 0
0.24298 0.0744022 -0.0292298 0 0 0
0.242666 0.0743959 -0.0292445 0 0 0
0.241995 0.0743443 -0.0288677 0 0 0
0.241939 0.0743755 -0.0285638 0 0 0
0.241644 0.0742875 -0.0287803 0 0 0
0.241681 0.0743294 -0.028472 0 0 0
0.241586 0.0743285 -0.0282345 0 0 0
0.241673 0.0742544 -0.0291187 0 0 0
0.242255 0.0740395 -0.0305248 0 0 0
0.242063 0.0741265 -0.0301765 0 0 0
0.241672 0.0739998 -0.0305413 0 0 0
0.241686 0.074126 -0.0300643 0 0 0
0.241402 0.074051 -0.0301732 0 0 0
0.24105 0.0740151 -0.0301697 0 0 0
0.240939 0.07403 -0.0297638 0 0 0
0.240736 0.0739563 -0.0301301 0 0 0
0.240627 0.0739307 -0.0298445 0 0 0
0.240432 0.0738758 -0.0301852 0 0 0
0.240335 0.0738615 -0.029801 0 0 0
0.240061 0.0737897 -0.030175 0 0 0
0.239992 0.073789 -0.0297189 0 0 0
0.239666 0.0737109 -0.0299741 0 0 0
0.239654 0.0737136 -0.0295532 0 0 0
0.239288 0.0736173 -0.0298271 0 0 0
0.239362 0.0736341 -0.0293935 0 0 0
0.239017 0.0735288 -0.0294869 0 0 0
0.23926 0.0736053 -0.0290122 0 0 0
0.238912 0.0734781 -0.0291431 0 0 0
0.238942 0.0734912 -0.0287725 0 0 0
0.238616 0.0733852 -0.0290422 0 0 0
0.238586 0.0733608 -0.0286003 0 0 0
0.238302 0.0732814 -0.0289798 0 0 0
0.238256 0.0732365 -0.0286625 0 0 0
0.238941 0.0734958 -0.028398 0 0 0
0.239285 0.0736285 -0.028556 0 0 0
0.239603 0.0737491 -0.0287066 0 0 0
0.239637 0.0737329 -0.0291312 0 0 0
0.239959 0.0738489 -0.0289015 0 0 0
0.239979 0.0738179 -0.0292946 0 0 0
0.240342 0.073941 -0.0290461 0 0 0
0.240271 0.0738686 -0.0294426 0 0 0
0.240625 0.0739617 -0.0294451 0 0 0
0.238306 0.073312 -0.0293773 0 0 0
0.238301 0.0733493 -0.0298008 0 0 0
0.238634 0.0734067 -0.0294517 0 0 0
0.238648 0.0734448 -0.0298352 0 0 0
0.238689 0.0734789 -0.0301733 0 0 0
0.23899 0.0735575 -0.0302301 0 0 0
0.239337 0.0736397 -0.0302768 0 0 0
0.239692 0.0737134 -0.030386 0 0 0
0.239731 0.0737182 -0.0307338 0 0 0
0.240033 0.073777 -0.0306204 0 0 0
0.240015 0.0737697 -0.0310143 0 0 0
0.240333 0.0738336 -0.0309463 0 0 0
0.240681 0.0738699 -0.0311591 0 0 0
0.241033 0.0738799 -0.0312907 0 0 0
0.241393 0.0738773 -0.0312394 0 0 0
0.241387 0.0737115 -0.0318226 0 0 0
0.241702 0.0738271 -0.031227 0 0 0
0.241695 0.0736482 -0.0316275 0 0 0
0.241456 0.0734714 -0.0322049 0 0 0
0.241241 0.0735866 -0.0323225 0 0 0
0.241029 0.0735289 -0.0326858 0 0 0
0.240703 0.0735849 -0.0328859 0 0 0
0.240689 0.0734112 -0.033244 0 0 0
0.240368 0.0734962 -0.0334356 0 0 0
0.240407 0.0732633 -0.0337783 0 0 0
0.240301 0.0730511 -0.0340925 0 0 0
0.240213 0.0732768 -0.0340236 0 0 0
0.240077 0.0734218 -0.0339498 0 0 0
0.239941 0.0735609 -0.0337142 0 0 0
0.24003 0.0736277 -0.0333753 0 0 0
0.239655 0.0736163 -0.0336706 0 0 0
0.239706 0.0736704 -0.0333508 0 0 0
0.241959 0.0739253 -0.0308808 0 0 0
0.238945 0.0735285 -0.0298873 0 0 0
0.240354 0.0738385 -0.0305638 0 0 0
0.240638 0.0738827 -0.0308613 0 0 0
0.240994 0.0739235 -0.0308891 0 0 0
0.241338 0.0739483 -0.03091 0 0 0
0.240728 0.0739245 -0.0305209 0 0 0
0.241048 0.073976 -0.0305421 0 0 0
0.241319 0.0740207 -0.0304009 0 0 0
0.241311 0.073989 -0.0306395 0 0 0
0.242967 0.0735434 -0.030422 0 0 0
0.301022 0.073934 -0.0312915 74 9 6
0.300925 0.0742727 -0.0314864 75 8 5
0.301259 0.0743766 -0.0314698 77 9 6
0.301354 0.0740393 -0.0312389 76 10 6
0.301676 0.0741985 -0.0311933 77 9 6
0.305233 0.0778448 -0.036094 150 145 128
0.305723 0.0779314 -0.0359176 151 145 123
0.306171 0.0780495 -0.035721 149 146 126
0.306573 0.0782384 -0.035477 151 144 121
0.306939 0.0784905 -0.0351982 150 144 122
0.307075 0.0786217 -0.0350499 151 145 122
0.307053 0.078674 -0.0346188 143 133 110
0.30699 0.078808 -0.0342123 131 118 99
0.234978 0.0707939 -0.0316396 0 0 0
0.235177 0.070757 -0.0313365 0 0 0
0.235346 0.0707479 -0.031054 0 0 0
0.30405 0.0900642 -0.0519729 0 0 0
0.303662 0.0901527 -0.0515996 0 0 0
0.303253 0.0901818 -0.0512885 0 0 0
0.303613 0.0902408 -0.0511531 0 0 0
0.303958 0.0902041 -0.0512353 0 0 0
0.304038 0.0901431 -0.0515529 0 0 0
0.24178 0.0660046 -0.0249897 4 3 0
0.241995 0.0659835 -0.0246996 11 9 5
0.242098 0.066302 -0.0242674 17 16 10
0.304828 0.077829 -0.0359007 144 136 119
0.305347 0.0778637 -0.0357531 148 138 121
0.305828 0.077953 -0.0355774 142 135 117
0.306213 0.0780947 -0.0353455 143 134 114
0.306428 0.0782295 -0.0350969 140 131 112
0.306387 0.0783278 -0.0346848 134 121 103
0.306361 0.0783957 -0.0344698 123 110 94
0.306752 0.0784006 -0.0350635 141 134 114
0.306713 0.0784903 -0.0346582 135 124 105
0.306674 0.0786174 -0.0342523 119 105 89
0.306655 0.0786624 -0.0341277 117 103 87
0.304612 0.0778453 -0.0357873 144 135 117
0.241459 0.0663963 -0.0251333 0 0 0
0.241667 0.0663657 -0.0248461 2 1 0
0.241524 0.066699 -0.024693 1 1 0
0.241427 0.0670653 -0.0245683 1 0 0
0.241351 0.0674248 -0.0244465 1 1 0
0.241317 0.0677728 -0.0243379 1 1 0
0.241875 0.0663316 -0.0245576 9 7 2
0.241748 0.0666703 -0.0244088 6 5 3
0.241642 0.067031 -0.0242791 5 4 1
0.2416 0.0673456 -0.0241816 6 4 1
0.241874 0.067001 -0.0240009 14 11 8
0.241834 0.0672848 -0.0239075 17 12 6
0.241964 0.0666464 -0.0241215 14 13 8
0.294902 0.0666005 -0.0216852 71 9 7
0.295395 0.0667236 -0.0217153 70 8 6
0.295093 0.0666197 -0.0214979 71 8 6
0.295461 0.0667442 -0.0216499 70 7 5
0.295526 0.0667458 -0.0212899 68 6 4
0.295937 0.0669009 -0.0214608 66 6 4
0.295995 0.0669186 -0.021096 64 5 3
0.296368 0.0670892 -0.0212405 61 4 2
0.29641 0.0671258 -0.0208635 62 3 1
0.29678 0.0673098 -0.0210061 59 3 1
0.296783 0.067358 -0.0206043 60 3 1
0.296987 0.0674242 -0.0211335 59 2 1
0.296996 0.0675004 -0.0205694 57 2 0
0.297272 0.0676464 -0.0208657 55 1 0
0.297208 0.0676649 -0.0205024 55 1 0
0.297504 0.067939 -0.0203934 54 1 0
0.297195 0.0676978 -0.0202902 55 1 1
0.297486 0.0680245 -0.0199693 54 2 0
0.297414 0.0679547 -0.0199853 53 2 0
0.297664 0.0683089 -0.0196358 54 1 0
0.297388 0.0680446 -0.0195594 54 1 0
0.297401 0.0681783 -0.0191519 54 2 0
0.297102 0.0677953 -0.0194753 55 1 0
0.29707 0.0678842 -0.0190585 54 2 0
0.29677 0.0675643 -0.0193642 55 2 0
0.296733 0.0676517 -0.0189423 54 2 0
0.296443 0.0673344 -0.0192539 56 2 0
0.296431 0.067409 -0.0188384 57 2 0
0.296106 0.0671247 -0.0191397 58 2 1
0.296102 0.0671969 -0.0187335 57 2 1
0.295762 0.0669371 -0.0190087 61 3 2
0.295744 0.0669961 -0.0185978 60 3 2
0.295373 0.0667512 -0.0188518 62 4 2
0.295427 0.0668255 -0.0184757 61 4 2
0.295017 0.0665938 -0.01871 64 4 3
0.295095 0.0666571 -0.0183426 62 4 2
0.295482 0.0669228 -0.0180816 60 3 1
0.295725 0.0671325 -0.0177493 57 2 0
0.296036 0.0674321 -0.0174327 55 2 0
0.296328 0.0677559 -0.0170963 56 2 0
0.296584 0.0681168 -0.0167335 57 3 0
0.296827 0.0683716 -0.0168065 59 4 1
0.296793 0.0685184 -0.0163501 60 4 1
0.296934 0.0687268 -0.0163695 61 5 1
0.296894 0.0689651 -0.0158883 64 8 2
0.296815 0.0691689 -0.0153829 65 10 5
0.296938 0.069552 -0.0153405 67 11 5
0.296823 0.0695993 -0.0148468 69 12 5
0.296967 0.0696583 -0.0153245 67 11 5
0.296949 0.0699836 -0.0148156 71 12 5
0.297092 0.07005 -0.015285 71 12 6
0.297054 0.0703679 -0.014763 75 13 5
0.297174 0.0704275 -0.0152183 73 12 6
0.297146 0.0707575 -0.0147066 77 15 7
0.29725 0.0708155 -0.0151495 76 14 7
0.29726 0.0711404 -0.0146629 80 14 6
0.297338 0.0711972 -0.0150929 78 15 7
0.297346 0.0715252 -0.0146122 83 16 8
0.297409 0.0715952 -0.0150359 81 17 8
0.297452 0.0719275 -0.0145684 86 18 9
0.297484 0.0719769 -0.0149753 85 19 10
0.297535 0.0723041 -0.0145103 92 23 12
0.297555 0.0723653 -0.0149089 89 23 12
0.29762 0.0726878 -0.014455 97 26 13
0.297609 0.072756 -0.0148319 93 25 14
0.297693 0.0730796 -0.0143929 103 37 20
0.297663 0.0731478 -0.0147746 99 34 20
0.297761 0.0734698 -0.0143358 110 46 27
0.297712 0.0735393 -0.0147007 107 41 24
0.297757 0.0739268 -0.0146185 110 46 27
0.297694 0.0739923 -0.0149775 108 43 26
0.297708 0.0743892 -0.0148834 115 53 33
0.297633 0.0741636 -0.0153034 105 40 23
0.297628 0.0744505 -0.0152265 111 47 29
0.297603 0.074267 -0.0156653 103 34 21
0.29756 0.0746484 -0.0155433 107 40 24
0.297501 0.0747445 -0.015891 108 39 23
0.297516 0.0749195 -0.0155527 113 47 29
0.297496 0.0747584 -0.0159098 108 39 23
0.297404 0.0751649 -0.0158626 111 44 26
0.297389 0.0750146 -0.0162284 107 36 22
0.297283 0.0754065 -0.0161648 111 41 24
0.297333 0.075145 -0.0163927 108 36 21
0.29715 0.075649 -0.0164707 113 41 25
0.297209 0.0753908 -0.0167089 108 35 21
0.297005 0.0758769 -0.0167648 111 38 23
0.297068 0.0756218 -0.0170018 107 33 20
0.296849 0.0760955 -0.0170524 108 35 20
0.296923 0.0758488 -0.0172966 106 31 18
0.29669 0.0763261 -0.017351 110 36 21
0.296779 0.0760853 -0.0175951 106 30 17
0.296517 0.0765464 -0.0176339 109 34 19
0.296635 0.076313 -0.0178807 104 28 16
0.29649 0.07652 -0.0181506 102 27 15
0.29667 0.0762468 -0.0183554 101 25 15
0.296491 0.0765062 -0.0186853 100 24 15
0.296662 0.0762493 -0.0188956 98 21 12
0.296467 0.076494 -0.0192321 92 20 12
0.296668 0.0762306 -0.0194367 91 18 10
0.296463 0.0764683 -0.0197513 88 17 9
0.296663 0.0762067 -0.0199582 85 15 8
0.29646 0.0764414 -0.0202806 83 14 8
0.296697 0.0761732 -0.0204876 80 13 6
0.296519 0.0764066 -0.020808 78 12 6
0.296797 0.0761652 -0.0210079 74 10 5
0.29666 0.0764065 -0.0213339 77 11 5
0.296988 0.0761611 -0.0215397 72 9 3
0.296872 0.0764263 -0.0218462 75 9 5
0.297265 0.0761653 -0.022063 71 7 3
0.297211 0.0764133 -0.022367 75 8 4
0.297622 0.0761658 -0.0225623 72 7 3
0.297561 0.0764303 -0.0228621 75 8 3
0.298019 0.0761766 -0.0230625 67 5 2
0.297708 0.0765057 -0.0231063 75 8 4
0.298144 0.0762496 -0.0232522 66 5 2
0.298068 0.0765716 -0.0235294 69 7 3
0.298483 0.0763715 -0.0236446 68 5 1
0.298392 0.0767405 -0.0239169 72 7 1
0.298794 0.0766051 -0.0240454 66 5 0
0.298702 0.076961 -0.0242875 71 6 1
0.299089 0.0768766 -0.0244031 65 4 1
0.298985 0.0772363 -0.0246112 69 5 1
0.299379 0.0771697 -0.0247067 65 4 0
0.299264 0.0775603 -0.024915 68 5 1
0.299703 0.0773287 -0.0249058 64 4 0
0.299588 0.0776999 -0.0250752 63 3 0
0.299949 0.0777105 -0.0251473 59 2 0
0.299839 0.0780568 -0.0253135 62 4 0
0.300162 0.0780809 -0.0253582 59 2 0
0.300058 0.0784535 -0.0255105 58 3 0
0.30039 0.0785095 -0.02556 57 3 0
0.300294 0.0788741 -0.0257178 56 3 0
0.300629 0.0789403 -0.0257425 54 3 0
0.300524 0.0793186 -0.0258876 57 3 0
0.300877 0.0793799 -0.0259045 55 4 0
0.300764 0.0797867 -0.0260745 53 3 0
0.301114 0.0798169 -0.026092 53 2 0
0.300999 0.0802179 -0.0262263 54 2 0
0.30135 0.0802854 -0.0262532 51 1 0
0.301206 0.0808061 -0.0264413 53 2 1
0.301556 0.080879 -0.0264589 53 1 0
0.301455 0.0812146 -0.0266267 54 2 0
0.301824 0.0812647 -0.0266526 50 1 0
0.301718 0.0816156 -0.0267897 53 1 0
0.302086 0.0816788 -0.0268082 51 1 0
0.301962 0.0820796 -0.026999 53 2 1
0.302447 0.0817659 -0.0268949 50 1 0
0.302313 0.0821689 -0.0270531 53 1 1
0.302701 0.0822138 -0.0271701 52 1 0
0.302219 0.0825156 -0.0272733 56 2 1
0.302583 0.082578 -0.0273604 57 4 2
0.302117 0.0828451 -0.0275043 60 4 3
0.302468 0.082921 -0.0275672 61 5 3
0.302034 0.0831445 -0.0277028 63 5 2
0.302385 0.0832507 -0.0277841 65 7 4
0.301933 0.0834835 -0.0279181 68 8 3
0.302289 0.0835925 -0.0280177 69 11 7
0.301857 0.0837917 -0.0281707 71 11 6
0.302223 0.0838364 -0.0282228 72 14 9
0.302169 0.0840077 -0.0283779 74 15 10
0.302565 0.0839514 -0.0283924 75 20 13
0.302482 0.0842286 -0.0286725 78 25 19
0.302925 0.0839744 -0.0285124 75 22 16
0.302831 0.0842541 -0.0287981 79 28 20
0.303282 0.0839763 -0.0286692 78 28 20
0.3032 0.0842856 -0.0289501 85 35 25
0.303649 0.0839982 -0.028837 77 27 20
0.303558 0.0843257 -0.0291094 85 36 25
0.304007 0.0840198 -0.0290215 76 30 20
0.303908 0.0843549 -0.0292299 90 48 35
0.304371 0.0840478 -0.0291543 76 32 25
0.304273 0.0843917 -0.0292965 84 43 31
0.304624 0.0844236 -0.0293526 78 42 33
0.304565 0.0845629 -0.0293715 78 42 34
0.304975 0.0844353 -0.029389 66 36 34
0.304852 0.0848609 -0.0294502 71 48 46
0.305235 0.0847763 -0.0294832 63 38 40
0.305168 0.0850349 -0.0295273 65 48 49
0.305545 0.0850311 -0.0296073 65 50 51
0.305453 0.0853764 -0.0297129 66 60 62
0.30582 0.0854171 -0.029864 73 67 68
0.305701 0.0858735 -0.0301196 92 88 84
0.306112 0.0857149 -0.0302615 95 93 89
0.306021 0.0860745 -0.030591 116 112 102
0.306239 0.0859937 -0.0306608 113 110 100
0.305994 0.086182 -0.0306964 119 113 103
0.306197 0.0862359 -0.0309711 124 117 106
0.305923 0.0864477 -0.0310102 123 121 108
0.306054 0.0864619 -0.0312775 125 122 109
0.305849 0.0866385 -0.0313728 129 125 111
0.305785 0.0866973 -0.031569 129 124 111
0.305427 0.0868657 -0.0313799 127 122 110
0.305353 0.0869318 -0.0315767 125 121 109
0.305045 0.0869784 -0.0311986 131 125 111
0.30496 0.0871113 -0.0315983 132 127 111
0.304639 0.0871301 -0.0312871 130 125 110
0.304557 0.087256 -0.0316262 127 124 111
0.304231 0.0871999 -0.0312285 128 123 108
0.304155 0.0873916 -0.0316536 132 124 107
0.303845 0.0872827 -0.0312613 130 125 110
0.303779 0.0874798 -0.0316713 136 130 112
0.303457 0.0873047 -0.0312787 135 129 112
0.303385 0.0875128 -0.0316607 132 130 113
0.303086 0.0872536 -0.0312683 130 126 113
0.303017 0.0874573 -0.031588 127 126 113
0.302738 0.0871783 -0.0312838 131 129 114
0.302674 0.0874134 -0.0316378 129 127 111
0.302363 0.08727 -0.0315957 128 128 112
0.302302 0.0874198 -0.0319282 122 125 110
0.302024 0.0871413 -0.0316711 133 131 113
0.301968 0.0873383 -0.0320637 125 129 113
0.30165 0.0871764 -0.0320407 124 125 110
0.301659 0.0873173 -0.0323399 123 127 111
0.301317 0.0871564 -0.0324094 126 128 110
0.301592 0.0873683 -0.0326039 117 124 108
0.301264 0.087247 -0.0328024 122 125 109
0.301612 0.0874329 -0.0329706 115 120 105
0.301249 0.0873066 -0.0331899 113 114 99
0.301481 0.0873955 -0.0333381 109 114 100
0.301218 0.087294 -0.0336059 107 105 91
0.301438 0.0873541 -0.0337121 105 105 89
0.301243 0.0872482 -0.0340586 110 107 89
0.301542 0.0873416 -0.033971 113 106 88
0.301404 0.0872611 -0.0342855 118 107 84
0.301663 0.0873328 -0.0342768 123 106 78
0.301602 0.0872735 -0.0345821 118 99 72
0.301941 0.0873469 -0.034472 116 95 70
0.29573 0.0670646 -0.0181758 58 2 1
0.296066 0.0673537 -0.0178701 56 2 0
0.296361 0.0676658 -0.0175496 55 2 0
0.296628 0.0680184 -0.0171901 56 3 0
0.296089 0.0672762 -0.0183142 57 2 0
0.296398 0.0675744 -0.0179926 55 2 0
0.29665 0.0679054 -0.0176422 55 2 0
0.296941 0.068188 -0.0177118 55 2 0
0.296943 0.0683273 -0.0172777 58 3 0
0.297195 0.0684779 -0.0177721 56 2 0
0.297184 0.0686313 -0.0173277 58 3 0
0.297289 0.0685989 -0.0178022 56 3 0
0.297378 0.0689671 -0.0173455 60 4 1
0.297516 0.0689169 -0.0178237 58 3 0
0.297447 0.0691374 -0.017323 61 5 1
0.297643 0.0692923 -0.0177942 62 5 1
0.297558 0.0695115 -0.0172796 64 6 1
0.297767 0.0697289 -0.0177327 65 7 2
0.29764 0.0698878 -0.0172163 67 7 3
0.297813 0.0699586 -0.0177092 66 7 2
0.297867 0.0703406 -0.0176373 70 9 4
0.297899 0.07034 -0.017702 70 9 4
0.297867 0.070613 -0.0174796 72 11 4
0.298077 0.0705923 -0.0179717 72 10 4
0.298012 0.0708755 -0.0177618 74 11 5
0.298236 0.0708494 -0.018244 74 11 5
0.298173 0.0711286 -0.0180338 76 11 4
0.298392 0.0711089 -0.0185265 77 11 5
0.298315 0.0713833 -0.0183157 78 11 5
0.298499 0.0713804 -0.0188266 78 12 5
0.298437 0.0716525 -0.0186118 79 12 5
0.298583 0.0716513 -0.0191391 79 11 5
0.298519 0.0719303 -0.0189336 81 11 4
0.298553 0.0721065 -0.0191383 80 11 4
0.298485 0.0723716 -0.018913 83 13 5
0.298542 0.07264 -0.0192243 83 12 5
0.298436 0.0729012 -0.0189999 84 13 5
0.298446 0.0731551 -0.0193088 81 12 4
0.298292 0.0734153 -0.0190967 82 12 5
0.298431 0.0734152 -0.0196261 79 11 4
0.298243 0.0736808 -0.0194134 81 11 5
0.298388 0.0736657 -0.0199325 79 10 4
0.298183 0.0739266 -0.01973 79 11 5
0.298357 0.0739225 -0.0202481 78 11 4
0.29814 0.074177 -0.0200364 77 11 4
0.298263 0.0741776 -0.020566 75 9 3
0.298044 0.0744336 -0.020363 77 10 4
0.298204 0.0744291 -0.0208684 75 9 3
0.297952 0.0746813 -0.0206678 74 8 3
0.298142 0.0746816 -0.0211872 73 8 2
0.297869 0.0749306 -0.020984 73 8 3
0.298074 0.0749221 -0.021509 70 7 1
0.297776 0.075174 -0.0213096 71 7 2
0.298031 0.0751574 -0.0218319 66 5 1
0.297702 0.0754116 -0.021618 68 6 2
0.298027 0.075408 -0.0221391 65 5 1
0.297657 0.0756611 -0.0219349 67 6 2
0.298032 0.0756573 -0.0224422 64 5 1
0.297657 0.0759117 -0.0222649 68 6 2
0.298041 0.0759105 -0.0227617 63 6 1
0.297326 0.0759139 -0.0217407 72 7 2
0.297395 0.0756716 -0.0214165 72 8 3
0.297499 0.075418 -0.02109 71 8 2
0.297615 0.0751636 -0.020778 73 9 4
0.297697 0.0749321 -0.0204672 74 9 4
0.297807 0.0746734 -0.0201465 78 10 5
0.297905 0.0744393 -0.0198344 79 11 5
0.297991 0.0741823 -0.0195145 82 13 5
0.298051 0.0739355 -0.0192 82 13 5
0.298129 0.0736793 -0.0188935 83 14 6
0.29816 0.073421 -0.0185741 84 14 7
0.298305 0.0731596 -0.0187855 83 13 6
0.29828 0.0728987 -0.0184817 83 13 6
0.298388 0.0726377 -0.0186962 83 12 5
0.298328 0.0723779 -0.0183982 82 13 5
0.298423 0.0721163 -0.0186195 80 12 5
0.298355 0.0719346 -0.0184132 81 12 5
0.298244 0.0716611 -0.0181092 79 12 6
0.29811 0.0714006 -0.0178287 78 12 5
0.297961 0.0711405 -0.017545 75 12 5
0.297095 0.0759309 -0.0212172 72 9 3
0.29722 0.0756732 -0.0209051 73 9 3
0.297352 0.0754203 -0.0205758 76 10 4
0.297467 0.0751875 -0.0202706 78 11 4
0.297587 0.0749324 -0.0199408 80 12 5
0.297685 0.0746979 -0.0196266 82 13 6
0.297788 0.0744402 -0.0193045 84 13 6
0.297871 0.0741933 -0.0189965 85 14 7
0.297949 0.0739395 -0.0186832 85 15 7
0.298003 0.0736804 -0.018366 85 15 7
0.298013 0.073425 -0.0180538 86 16 7
0.298156 0.0731666 -0.0182676 84 15 7
0.298098 0.0728983 -0.0179647 84 14 7
0.298214 0.0726383 -0.0181718 83 14 6
0.298137 0.0723746 -0.0178896 83 14 6
0.298235 0.0721125 -0.0180934 81 12 6
0.298123 0.0718433 -0.017805 80 13 5
0.296955 0.0759206 -0.020699 74 10 5
0.297103 0.0756877 -0.02037 80 12 6
0.297245 0.0754475 -0.0200548 83 12 6
0.297373 0.0752039 -0.019738 84 13 7
0.297488 0.0749592 -0.0194172 86 15 7
0.297599 0.0747062 -0.0191025 87 15 7
0.297685 0.0744482 -0.0187846 86 15 8
0.29776 0.0741992 -0.018476 87 16 8
0.297831 0.0739445 -0.0181587 88 17 8
0.297868 0.0736936 -0.0178421 90 17 9
0.297883 0.0734279 -0.0175375 92 18 9
0.29799 0.0731673 -0.0177542 87 16 8
0.297881 0.0731687 -0.0172261 90 17 8
0.297947 0.0729048 -0.0174514 85 16 7
0.297904 0.0726407 -0.0171447 87 15 7
0.297966 0.0723742 -0.0173654 83 14 6
0.297899 0.0721114 -0.0170637 83 15 7
0.297948 0.0718496 -0.0172915 81 14 6
0.297857 0.0715847 -0.0169972 80 13 6
0.298001 0.0715809 -0.0175114 78 12 6
0.297878 0.071314 -0.0172185 78 12 5
0.29784 0.0708777 -0.0172508 76 11 6
0.29773 0.0703476 -0.017198 72 10 4
0.297696 0.0702788 -0.0171397 72 10 4
0.297578 0.0702258 -0.0167044 72 10 5
0.297499 0.0698386 -0.0167679 69 9 4
0.29741 0.0701659 -0.016242 71 11 6
0.297335 0.0697827 -0.0163074 67 9 3
0.297247 0.0701008 -0.0157594 72 13 6
0.297167 0.0697334 -0.0158308 67 11 5
0.297306 0.0704851 -0.0156835 73 13 7
0.29737 0.0708683 -0.015619 75 14 8
0.297436 0.0712653 -0.0155446 80 15 7
0.297485 0.0716577 -0.0154702 81 18 9
0.297544 0.0720427 -0.0153936 84 19 9
0.297591 0.0724274 -0.0153191 88 22 11
0.297624 0.0728201 -0.0152348 92 25 14
0.297652 0.0725979 -0.0157097 87 21 12
0.297664 0.0728789 -0.0156435 88 22 12
0.297693 0.0729219 -0.0158768 90 22 13
0.297702 0.0731191 -0.0160051 91 23 13
0.297715 0.0731824 -0.0161803 91 23 12
0.297677 0.0734446 -0.015959 94 26 15
0.297719 0.0734362 -0.0164861 93 22 12
0.297674 0.0737055 -0.016268 96 25 14
0.297726 0.0736953 -0.0167903 96 22 12
0.297654 0.0739631 -0.0165706 98 26 14
0.297692 0.0739578 -0.0171005 95 22 12
0.297599 0.0742205 -0.0168888 99 24 14
0.29762 0.0742175 -0.0174213 97 22 12
0.297512 0.0744801 -0.0172056 97 24 14
0.297536 0.0744667 -0.0177373 95 21 11
0.297412 0.0747281 -0.017518 98 24 13
0.297447 0.0747215 -0.018048 94 20 11
0.297313 0.0749774 -0.0178286 98 23 13
0.297358 0.0749676 -0.0183637 93 19 10
0.297211 0.0752316 -0.018146 98 21 12
0.297239 0.0752298 -0.0186795 94 18 9
0.297093 0.0754883 -0.0184661 97 21 12
0.297132 0.0754727 -0.0189939 93 19 9
0.296973 0.0757332 -0.0187841 94 19 10
0.297006 0.075723 -0.0193162 90 16 8
0.29684 0.0759855 -0.019103 94 19 10
0.296851 0.0759644 -0.0196371 88 15 8
0.296828 0.0759913 -0.0185801 99 23 13
0.296887 0.0758545 -0.0184072 98 22 12
0.296999 0.0756141 -0.0180874 100 24 14
0.297121 0.0753767 -0.0177925 101 25 15
0.29724 0.0751325 -0.0174853 102 26 15
0.297343 0.0748873 -0.0171715 100 25 14
0.297455 0.0746405 -0.0168615 101 27 15
0.297516 0.0744857 -0.0166681 101 27 16
0.297593 0.0742297 -0.0163551 99 26 15
0.297542 0.0744983 -0.0161316 102 33 19
0.297595 0.0742399 -0.0158239 103 34 21
0.297633 0.0738852 -0.0157761 97 29 16
0.297632 0.0739702 -0.0160437 98 28 16
0.297664 0.0735072 -0.0158934 94 26 15
0.297656 0.0732732 -0.0155461 93 26 15
0.297648 0.0737678 -0.0154036 99 34 21
0.297651 0.0736672 -0.0154347 95 28 17
0.297675 0.073598 -0.0150621 102 36 21
0.297651 0.0732094 -0.0151562 95 28 16
0.296756 0.0760879 -0.0181515 102 26 15
0.29688 0.0758397 -0.0178371 102 28 16
0.297013 0.075609 -0.0175402 104 29 17
0.297144 0.0753803 -0.0172427 103 29 17
0.297268 0.0751297 -0.0169302 104 30 19
0.297389 0.0748929 -0.0166243 104 32 19
0.297461 0.0747515 -0.0164445 105 33 20
0.297484 0.0705532 -0.0161824 73 12 6
0.297534 0.0709295 -0.0161098 75 13 6
0.297558 0.0713154 -0.0160022 79 14 7
0.297697 0.0713823 -0.0164626 79 14 7
0.297711 0.0717771 -0.0163674 82 16 7
0.29772 0.0715852 -0.0164732 79 14 7
0.297722 0.0719609 -0.0163273 83 16 7
0.297779 0.0721127 -0.0165478 84 16 7
0.297741 0.072379 -0.0163236 86 18 9
0.29785 0.0723732 -0.0168344 85 16 8
0.297799 0.072644 -0.0166238 86 16 8
0.297839 0.0729031 -0.0169256 89 18 10
0.297806 0.0734295 -0.0170106 93 19 11
0.297784 0.0736893 -0.0173162 93 20 10
0.297735 0.0739584 -0.0176378 93 20 10
0.297679 0.0742109 -0.0179479 90 17 9
0.297597 0.0744582 -0.0182662 91 18 9
0.297514 0.0747067 -0.018573 90 17 8
0.297409 0.0749712 -0.018891 90 17 8
0.297298 0.0752176 -0.0192103 89 16 8
0.297182 0.0754632 -0.019529 88 15 8
0.297044 0.0757162 -0.0198474 86 14 7
0.296883 0.0759475 -0.0201637 83 13 6
0.297786 0.0731742 -0.0167039 92 20 10
0.29776 0.0729093 -0.016405 88 19 10
0.297712 0.0726491 -0.0161055 88 19 11
0.29773 0.0723449 -0.0162267 86 18 9
0.297635 0.0721016 -0.0158271 84 17 9
0.297594 0.071711 -0.0159165 81 16 8
0.297634 0.0722039 -0.0158045 85 19 10
0.297814 0.0718508 -0.016773 81 14 7
0.297815 0.0714361 -0.0168974 80 13 6
0.297807 0.0711415 -0.0170247 76 12 5
0.297777 0.0710423 -0.0169723 77 12 5
0.297753 0.0706564 -0.0170683 74 12 6
0.297632 0.0706013 -0.0166338 74 12 6
0.297674 0.0709872 -0.016548 77 13 7
0.297404 0.0694535 -0.0168188 66 7 3
0.297248 0.0690281 -0.0168591 62 5 1
0.29724 0.0693961 -0.0163529 67 8 3
0.297099 0.0690274 -0.0163759 63 6 2
0.297073 0.0686845 -0.0168663 60 5 1
0.297044 0.0693396 -0.0158609 66 8 4
0.297093 0.0694854 -0.0158457 67 9 4
0.298048 0.0721106 -0.0175849 81 14 6
0.298037 0.0726436 -0.0176701 85 15 7
0.296411 0.0674872 -0.018418 56 2 0
0.296692 0.067822 -0.0180804 55 1 0
0.296717 0.0677345 -0.0185145 55 2 0
0.296966 0.0680992 -0.0181557 54 2 0
0.29701 0.0679999 -0.0186143 53 1 0
0.297238 0.068372 -0.0182287 54 2 0
0.297299 0.0682579 -0.018698 53 2 0
0.297429 0.0685687 -0.0182852 55 3 0
0.297577 0.0685105 -0.0187672 56 1 0
0.297662 0.0688769 -0.0183017 58 3 0
0.297588 0.0690629 -0.0178801 58 3 1
0.297786 0.06956 -0.017893 62 6 1
0.294936 0.0665477 -0.0190725 63 5 2
0.295362 0.066704 -0.0192555 63 4 2
0.29573 0.0668757 -0.0194018 62 4 2
0.296099 0.0670645 -0.0195393 59 2 1
0.296444 0.0672725 -0.0196673 57 2 1
0.296781 0.0674912 -0.0197785 56 2 1
0.297115 0.0677183 -0.0198877 55 2 0
0.294847 0.0665047 -0.0194345 65 6 3
0.295224 0.0666242 -0.0195975 64 5 2
0.295328 0.0666641 -0.0196425 64 5 2
0.295134 0.0665785 -0.0199576 66 5 4
0.295289 0.0666357 -0.0200183 66 6 4
0.295037 0.0665492 -0.0203084 67 6 4
0.295249 0.0666199 -0.0203994 66 6 4
0.29494 0.0665184 -0.020654 69 7 5
0.295292 0.0666437 -0.0208082 69 6 4
0.294824 0.0665198 -0.0209904 70 8 5
0.295198 0.0666279 -0.0211551 69 6 5
0.294716 0.0665228 -0.0213332 72 9 7
0.295598 0.0667572 -0.0209353 67 5 4
0.29564 0.0667733 -0.020558 66 5 3
0.295682 0.0667979 -0.0201785 65 5 2
0.295701 0.0668263 -0.0197908 63 4 2
0.296084 0.0670149 -0.0199336 62 4 2
0.296442 0.0672117 -0.0200723 58 2 1
0.29677 0.0674182 -0.0201863 57 2 1
0.297119 0.0676369 -0.0203049 55 1 1
0.296445 0.0671676 -0.0204807 60 3 1
0.296031 0.0669442 -0.0207166 63 3 2
0.296065 0.0669772 -0.0203322 60 3 1
0.294765 0.0664644 -0.0197978 68 6 4
0.294674 0.0664402 -0.0201516 69 7 5
0.294575 0.0664263 -0.020498 70 8 5
0.295918 0.0669005 -0.0216934 67 7 4
0.296455 0.0671185 -0.0216949 64 5 3
0.29619 0.0670005 -0.0213949 63 4 3
0.296981 0.0673721 -0.021724 61 3 2
0.296723 0.0672559 -0.021411 61 4 2
0.297254 0.0675447 -0.0215062 58 3 1
0.297564 0.0677814 -0.0213203 56 2 0
0.297831 0.068099 -0.0209725 53 1 0
0.298082 0.0684751 -0.0205458 53 1 0
0.29815 0.0685568 -0.0205045 53 1 0
0.29837 0.0690559 -0.0204838 55 3 0
0.298584 0.0695431 -0.0204791 59 3 1
0.29876 0.0700457 -0.0205125 63 5 2
0.298894 0.0705679 -0.0205483 68 6 2
0.298956 0.0711041 -0.0206226 73 9 4
0.299032 0.0713879 -0.0209395 73 10 4
0.29911 0.0716634 -0.0212568 74 10 5
0.299195 0.0719424 -0.0215735 75 11 5
0.299305 0.0721966 -0.0218621 73 11 4
0.29945 0.0724646 -0.0221581 70 9 3
0.299586 0.0727139 -0.0224385 69 10 3
0.299709 0.0729746 -0.0227348 66 8 2
0.29986 0.0732258 -0.0230167 64 7 1
0.299994 0.0734681 -0.023311 58 5 0
0.300191 0.0737142 -0.0235612 56 4 0
0.300379 0.07396 -0.0238183 56 4 0
0.300559 0.0742004 -0.0240821 56 4 0
0.300745 0.0744474 -0.0243441 53 3 0
0.300952 0.0746822 -0.0245953 52 3 0
0.300555 0.0747558 -0.0241997 52 4 0
0.300758 0.0750034 -0.0244597 53 4 0
0.300332 0.0750816 -0.0240921 54 3 0
0.300506 0.0751853 -0.0242921 52 3 0
0.300102 0.0754722 -0.0241118 53 3 0
0.300433 0.0756522 -0.0244456 51 3 0
0.300068 0.0758524 -0.0243154 55 3 0
0.300334 0.0761612 -0.0246067 52 3 0
0.299991 0.076217 -0.0244569 56 3 0
0.300247 0.07655 -0.0247362 53 3 0
0.299887 0.0765947 -0.0245927 59 4 0
0.300151 0.0769387 -0.024861 60 4 0
0.299791 0.0769573 -0.0247545 64 3 0
0.299757 0.0770974 -0.0248158 64 4 0
0.300991 0.075228 -0.0247055 49 3 0
0.301153 0.0755479 -0.0248898 47 3 0
0.301064 0.0759902 -0.0249127 49 4 0
0.301347 0.0761909 -0.0251217 48 3 0
0.300949 0.0764513 -0.0249821 50 4 0
0.301264 0.0765909 -0.0251546 51 3 0
0.300846 0.0768751 -0.0250709 54 4 0
0.301159 0.0770401 -0.0252291 52 3 0
0.300738 0.0773087 -0.0251766 55 4 0
0.301087 0.0773007 -0.0252911 56 4 0
0.300988 0.0777014 -0.0253791 54 4 0
0.297237 0.0675933 -0.021088 57 2 1
0.297536 0.0678536 -0.0208662 54 1 0
0.297793 0.0681973 -0.0205204 53 1 0
0.297766 0.0683008 -0.0200943 54 2 0
0.297958 0.0685875 -0.0199961 54 2 0
0.298159 0.0688211 -0.0202362 55 2 0
0.298143 0.0689429 -0.0198483 58 3 0
0.298225 0.0690489 -0.019962 57 2 0
0.298258 0.0692873 -0.0196942 60 3 0
0.298429 0.069535 -0.0199551 60 3 1
0.298456 0.0697867 -0.0197053 63 5 1
0.298617 0.0700368 -0.0199732 63 5 1
0.298618 0.0702939 -0.0197325 67 7 2
0.298764 0.0705567 -0.0200148 70 7 3
0.298739 0.0708232 -0.0197801 73 9 4
0.298834 0.0710982 -0.0200858 74 10 4
