ply
format ascii 1.0
element vertex 1731
property float x
property float y
property float z
end_header
0.296041 0.131165 0.0672394
0.296509 0.131099 0.0670769
0.297012 0.131004 0.0670261
0.297514 0.130909 0.0669754
0.298052 0.130784 0.0670364
0.298624 0.130629 0.0672092
0.299196 0.130475 0.067382
0.299734 0.13035 0.0674431
0.300237 0.130255 0.0673923
0.30074 0.130159 0.0673416
0.301208 0.130093 0.0671791
0.301746 0.129969 0.0672402
0.302248 0.129873 0.0671895
0.302786 0.129748 0.0672505
0.303289 0.129653 0.0671998
0.303792 0.129558 0.0671491
0.304295 0.129462 0.0670983
0.304797 0.129367 0.0670475
0.305335 0.129242 0.0671086
0.305872 0.129117 0.0671696
0.30641 0.128992 0.0672307
0.306913 0.128897 0.06718
0.307416 0.128802 0.0671292
0.307953 0.128677 0.0671902
0.308456 0.128582 0.0671395
0.308959 0.128486 0.0670888
0.309497 0.128361 0.0671498
0.309999 0.128266 0.0670991
0.310502 0.128171 0.0670484
0.310971 0.128105 0.0668859
0.311439 0.128039 0.0667235
0.311838 0.128032 0.0663374
0.312202 0.128055 0.0658396
0.312532 0.128107 0.0652301
0.312966 0.128071 0.0649558
0.313399 0.128035 0.0646816
0.313868 0.127969 0.0645191
0.31437 0.127873 0.0644684
0.314839 0.127808 0.0643059
0.315307 0.127742 0.0641434
0.315775 0.127676 0.0639809
0.316209 0.12764 0.0637067
0.316643 0.127603 0.0634324
0.317076 0.127567 0.0631581
0.31744 0.12759 0.0626603
0.31784 0.127583 0.0622744
0.318204 0.127606 0.0617766
0.318672 0.12754 0.0616141
0.31914 0.127474 0.0614516
0.319609 0.127408 0.0612891
0.320042 0.127372 0.0610148
0.32051 0.127306 0.0608523
0.320909 0.1273 0.0604663
0.321274 0.127322 0.0599686
0.321638 0.127345 0.0594708
0.321968 0.127397 0.0588612
0.322298 0.12745 0.0582518
0.322662 0.127473 0.0577539
0.322992 0.127525 0.0571444
0.323322 0.127577 0.0565348
0.323617 0.127659 0.0558135
0.323977 0.127686 0.0553038
0.324373 0.127684 0.0549059
0.324768 0.127681 0.0545079
0.3252 0.127647 0.0542277
0.325668 0.127581 0.0540652
0.326064 0.127579 0.0536672
0.326496 0.127545 0.0533869
0.326928 0.127511 0.0531067
0.327359 0.127477 0.0528266
0.327755 0.127474 0.0524286
0.32815 0.127472 0.0520306
0.32851 0.127501 0.051515
0.328796 0.127594 0.0507637
0.329082 0.127687 0.0500126
0.329295 0.127843 0.049026
0.329654 0.127872 0.0485102
0.329941 0.127965 0.0477591
0.330227 0.128057 0.047008
0.330586 0.128087 0.0464922
0.3308 0.128243 0.0455056
0.331122 0.128304 0.0448721
0.331518 0.128301 0.0444742
0.33195 0.128267 0.044194
0.332309 0.128297 0.0436782
0.332704 0.128294 0.0432802
0.333063 0.128324 0.0427646
0.333386 0.128385 0.0421311
0.333781 0.128382 0.0417333
0.334213 0.128348 0.041453
0.334609 0.128346 0.041055
0.33504 0.128312 0.0407748
0.335327 0.128404 0.0400236
0.335722 0.128402 0.0396257
0.336008 0.128495 0.0388745
0.336258 0.128619 0.0380057
0.336545 0.128712 0.0372544
0.336795 0.128836 0.0363855
0.337117 0.128897 0.0357521
0.337403 0.12899 0.0350009
0.337726 0.129051 0.0343675
0.338049 0.129112 0.0337341
0.338444 0.129109 0.0333362
0.338912 0.129044 0.0331737
0.339417 0.128946 0.0331289
0.339885 0.12888 0.0329664
0.34039 0.128783 0.0329216
0.340895 0.128685 0.0328769
0.341399 0.128588 0.0328322
0.341904 0.12849 0.0327874
0.342409 0.128393 0.0327426
0.342914 0.128295 0.0326979
0.343418 0.128198 0.0326532
0.343886 0.128132 0.0324907
0.344391 0.128034 0.0324459
0.344859 0.127968 0.0322835
0.345327 0.127903 0.032121
0.345759 0.127869 0.0318407
0.346228 0.127803 0.0316783
0.346659 0.127769 0.031398
0.347091 0.127735 0.0311178
0.347523 0.1277 0.0308375
0.347919 0.127698 0.0304395
0.348278 0.127727 0.0299239
0.348637 0.127757 0.0294082
0.349032 0.127754 0.0290102
0.349355 0.127815 0.0283768
0.349678 0.127876 0.0277433
0.350037 0.127906 0.0272277
0.350396 0.127935 0.0267119
0.350646 0.128059 0.025843
0.351005 0.128089 0.0253273
0.351327 0.12815 0.024694
0.35165 0.128211 0.0240604
0.351936 0.128303 0.0233093
0.352259 0.128364 0.0226758
0.352509 0.128489 0.021807
0.352831 0.12855 0.0211736
0.353081 0.128674 0.0203047
0.353368 0.128767 0.0195534
0.35369 0.128828 0.0189201
0.353976 0.128921 0.0181689
0.354299 0.128982 0.0175355
0.35444 0.129201 0.0163133
0.35469 0.129326 0.0154444
0.242942 0.148619 0.0402384
0.243565 0.148426 0.040572
0.244361 0.148074 0.0414691
0.245047 0.147818 0.042013
0.24577 0.14753 0.0426747
0.246421 0.147305 0.0431009
0.247071 0.147081 0.0435271
0.247612 0.146952 0.0436001
0.248226 0.146759 0.0439085
0.248876 0.146534 0.0443347
0.249417 0.146405 0.0444077
0.249994 0.146244 0.0445983
0.25523 0.142019 0.0598591
0.256026 0.141667 0.0607563
0.256967 0.141189 0.0621244
0.25769 0.140901 0.062786
0.258413 0.140613 0.0634477
0.259027 0.14042 0.063756
0.259677 0.140195 0.0641823
0.2604 0.139907 0.0648439
0.261014 0.139714 0.0651524
0.261628 0.139521 0.0654608
0.262242 0.139329 0.0657693
0.262819 0.139168 0.06596
0.26336 0.139038 0.066033
0.263865 0.138941 0.0659882
0.264406 0.138811 0.0660612
0.264947 0.138682 0.0661342
0.265488 0.138553 0.0662072
0.266029 0.138423 0.0662801
0.26657 0.138294 0.0663531
0.267075 0.138197 0.0663084
0.267579 0.138099 0.0662637
0.268084 0.138001 0.0662189
0.268552 0.137936 0.0660564
0.268984 0.137902 0.0657762
0.269489 0.137804 0.0657314
0.269921 0.13777 0.0654512
0.270389 0.137704 0.0652887
0.270857 0.137638 0.0651262
0.271289 0.137604 0.064846
0.271721 0.13757 0.0645657
0.272153 0.137536 0.0642855
0.272621 0.13747 0.064123
0.273017 0.137468 0.0637251
0.273448 0.137434 0.0634449
0.27388 0.1374 0.0631647
0.274276 0.137397 0.0627667
0.274744 0.137332 0.0626042
0.275139 0.137329 0.0622062
0.275535 0.137327 0.0618083
0.27593 0.137325 0.0614103
0.276362 0.137291 0.0611301
0.276794 0.137256 0.0608498
0.277226 0.137222 0.0605696
0.277658 0.137188 0.0602894
0.27809 0.137154 0.0600092
0.278558 0.137088 0.0598467
0.279026 0.137023 0.0596842
0.279531 0.136925 0.0596394
0.280035 0.136827 0.0595947
0.280577 0.136698 0.0596677
0.281154 0.136537 0.0598584
0.281768 0.136344 0.0601669
0.282345 0.136183 0.0603576
0.282995 0.135959 0.0607838
0.283573 0.135798 0.0609745
0.284187 0.135605 0.0612829
0.284873 0.135348 0.0618268
0.285523 0.135124 0.0622531
0.286137 0.134931 0.0625615
0.286824 0.134675 0.0631054
0.287511 0.134418 0.0636494
0.288161 0.134194 0.0640755
0.288811 0.133969 0.0645017
0.289498 0.133713 0.0650456
0.290148 0.133488 0.0654717
0.290798 0.133264 0.065898
0.291412 0.133071 0.0662064
0.292026 0.132878 0.0665149
0.292672 0.132658 0.0669291
0.293279 0.132474 0.0672135
0.293886 0.132289 0.067498
0.294458 0.132135 0.0676707
0.29503 0.13198 0.0678434
0.295567 0.131855 0.0679043
0.29607 0.13176 0.0678536
0.296573 0.131664 0.0678028
0.297007 0.131628 0.0675286
0.297475 0.131562 0.0673661
0.298013 0.131437 0.0674272
0.29855 0.131312 0.0674881
0.299122 0.131158 0.0676608
0.29966 0.131033 0.0677218
0.300197 0.130908 0.0677827
0.3007 0.130812 0.067732
0.301203 0.130717 0.0676813
0.301706 0.130621 0.0676305
0.302209 0.130526 0.0675798
0.302746 0.130401 0.0676407
0.303249 0.130305 0.0675899
0.303752 0.13021 0.0675392
0.304255 0.130114 0.0674885
0.304758 0.130019 0.0674377
0.305295 0.129894 0.0674988
0.305832 0.129769 0.0675597
0.306335 0.129674 0.0675089
0.306873 0.129549 0.0675699
0.307376 0.129453 0.0675192
0.307879 0.129358 0.0674684
0.308381 0.129262 0.0674176
0.308884 0.129167 0.0673669
0.309422 0.129042 0.0674279
0.309925 0.128946 0.0673772
0.310428 0.128851 0.0673263
0.310931 0.128756 0.0672756
0.311399 0.12869 0.0671131
0.311867 0.128624 0.0669506
0.312231 0.128647 0.0664529
0.312596 0.12867 0.0659552
0.31296 0.128693 0.0654576
0.313394 0.128657 0.0651833
0.313828 0.12862 0.0649091
0.314296 0.128555 0.0647466
0.314764 0.128489 0.0645841
0.315232 0.128423 0.0644216
0.315701 0.128357 0.0642591
0.316134 0.128321 0.0639849
0.316568 0.128285 0.0637107
0.317001 0.128249 0.0634365
0.317435 0.128212 0.0631623
0.317834 0.128206 0.0627763
0.318199 0.128229 0.0622786
0.318632 0.128193 0.0620044
0.319101 0.128127 0.0618419
0.319603 0.128031 0.0617911
0.320037 0.127995 0.061517
0.320505 0.127929 0.0613545
0.320974 0.127863 0.0611919
0.321338 0.127886 0.0606942
0.321737 0.12788 0.0603082
0.322067 0.127932 0.0596989
0.322431 0.127956 0.0592012
0.322761 0.128008 0.0585917
0.323091 0.128061 0.0579824
0.323421 0.128113 0.0573728
0.32375 0.128166 0.0567635
0.32408 0.128219 0.0561541
0.324445 0.128242 0.0556563
0.32484 0.128239 0.0552584
0.325272 0.128205 0.0549781
0.325704 0.128171 0.0546979
0.326172 0.128105 0.0545354
0.326568 0.128103 0.0541375
0.327036 0.128037 0.053975
0.327468 0.128003 0.0536947
0.3279 0.127969 0.0534145
0.328259 0.127999 0.0528988
0.328654 0.127996 0.0525009
0.329013 0.128026 0.0519852
0.3293 0.128119 0.051234
0.329586 0.128211 0.0504828
0.329872 0.128304 0.0497318
0.330158 0.128397 0.0489805
0.330445 0.12849 0.0482294
0.330731 0.128583 0.0474783
0.33109 0.128613 0.0469626
0.331304 0.128769 0.0459759
0.331626 0.12883 0.0453425
0.332022 0.128828 0.0449445
0.332454 0.128794 0.0446643
0.332849 0.128791 0.0442663
0.333172 0.128853 0.0436329
0.333531 0.128882 0.0431172
0.33389 0.128911 0.0426015
0.334285 0.128909 0.0422036
0.334681 0.128907 0.0418056
0.335113 0.128873 0.0415254
0.335472 0.128902 0.0410097
0.335831 0.128932 0.040494
0.33619 0.128961 0.0399782
0.33644 0.129086 0.0391094
0.336763 0.129147 0.0384759
0.337013 0.129272 0.037607
0.337299 0.129365 0.0368558
0.337585 0.129457 0.0361047
0.337871 0.12955 0.0353536
0.338121 0.129675 0.0344847
0.338444 0.129736 0.0338513
0.338876 0.129702 0.033571
0.339308 0.129668 0.0332908
0.339776 0.129602 0.0331283
0.340281 0.129505 0.0330836
0.340785 0.129407 0.0330388
0.34129 0.12931 0.0329941
0.341795 0.129212 0.0329493
0.342299 0.129114 0.0329046
0.342804 0.129017 0.0328598
0.343309 0.128919 0.0328151
0.343777 0.128853 0.0326526
0.344282 0.128756 0.0326078
0.344786 0.128658 0.0325631
0.345218 0.128624 0.0322828
0.345723 0.128527 0.0322381
0.346155 0.128493 0.0319579
0.346623 0.128427 0.0317954
0.347055 0.128393 0.0315151
0.347523 0.128327 0.0313527
0.347918 0.128325 0.0309547
0.348314 0.128322 0.0305567
0.348709 0.12832 0.0301588
0.349105 0.128318 0.0297608
0.349464 0.128347 0.0292451
0.349787 0.128408 0.0286117
0.350146 0.128438 0.028096
0.350468 0.128499 0.0274625
0.350828 0.128528 0.0269469
0.35115 0.128589 0.0263134
0.351509 0.128619 0.0257978
0.351832 0.12868 0.0251643
0.352191 0.12871 0.0246486
0.352477 0.128802 0.0238974
0.3528 0.128864 0.023264
0.353086 0.128957 0.0225129
0.353409 0.129018 0.0218794
0.353623 0.129174 0.0208928
0.353909 0.129267 0.0201416
0.354231 0.129328 0.0195082
0.354445 0.129485 0.0185216
0.354877 0.129451 0.0182414
0.355054 0.129639 0.017137
0.355195 0.129859 0.0159149
0.355154 0.130237 0.0141041
0.243064 0.149477 0.0394732
0.243847 0.149155 0.0403194
0.244648 0.148802 0.0412333
0.245517 0.148387 0.0423658
0.246094 0.148226 0.0425565
0.246744 0.148001 0.0429827
0.247394 0.147776 0.0434089
0.247972 0.147615 0.0435996
0.248586 0.147422 0.0439081
0.249272 0.147165 0.044452
0.249813 0.147036 0.044525
0.250354 0.146906 0.0445979
0.255698 0.14258 0.0602118
0.256567 0.142165 0.0613444
0.257363 0.141813 0.0622415
0.258085 0.141525 0.0629032
0.258808 0.141236 0.0635648
0.259459 0.141012 0.063991
0.260072 0.140818 0.0642995
0.260795 0.14053 0.064961
0.261446 0.140305 0.0653873
0.262023 0.140144 0.065578
0.262637 0.139951 0.0658865
0.263214 0.13979 0.0660771
0.263755 0.139661 0.0661501
0.264296 0.139531 0.0662231
0.264837 0.139402 0.066296
0.265378 0.139272 0.0663691
0.265919 0.139143 0.066442
0.26646 0.139014 0.066515
0.267001 0.138884 0.0665879
0.267506 0.138787 0.0665433
0.267974 0.138721 0.0663808
0.268479 0.138623 0.066336
0.268947 0.138557 0.0661735
0.269415 0.138491 0.066011
0.269884 0.138426 0.0658485
0.270352 0.13836 0.065686
0.270784 0.138326 0.0654059
0.271252 0.13826 0.0652434
0.271648 0.138258 0.0648453
0.272116 0.138192 0.0646829
0.272584 0.138126 0.0645204
0.27298 0.138124 0.0641224
0.273411 0.13809 0.0638422
0.273843 0.138056 0.063562
0.274275 0.138022 0.0632818
0.274671 0.13802 0.0628838
0.275103 0.137985 0.0626036
0.275462 0.138015 0.0620879
0.275894 0.137981 0.0618077
0.276289 0.137979 0.0614097
0.276721 0.137945 0.0611295
0.277153 0.137911 0.0608493
0.277585 0.137877 0.060569
0.278017 0.137843 0.0602888
0.278448 0.137809 0.0600086
0.27888 0.137775 0.0597284
0.279349 0.137709 0.0595659
0.279817 0.137643 0.0594034
0.280321 0.137545 0.0593586
0.280899 0.137384 0.0595494
0.281476 0.137223 0.0597401
0.28209 0.13703 0.0600485
0.282704 0.136837 0.060357
0.283354 0.136612 0.0607831
0.284004 0.136388 0.0612093
0.284691 0.136131 0.0617532
0.285341 0.135906 0.0621794
0.286028 0.13565 0.0627234
0.286714 0.135393 0.0632672
0.287364 0.135168 0.0636934
0.288087 0.13488 0.064355
0.288774 0.134623 0.0648989
0.289388 0.13443 0.0652075
0.290074 0.134174 0.0657513
0.290688 0.133981 0.0660598
0.291302 0.133788 0.0663682
0.291952 0.133563 0.0667945
0.292599 0.133342 0.0672086
0.293171 0.133188 0.0673812
0.293812 0.132973 0.0677772
0.294419 0.132789 0.0680615
0.294991 0.132634 0.0682341
0.295528 0.132509 0.0682951
0.296065 0.132384 0.0683561
0.296568 0.132288 0.0683052
0.297037 0.132222 0.0681427
0.29747 0.132186 0.0678686
0.297973 0.132091 0.0678178
0.298476 0.131995 0.067767
0.299048 0.13184 0.0679396
0.299585 0.131715 0.0680006
0.300123 0.13159 0.0680615
0.30066 0.131465 0.0681224
0.301163 0.131369 0.0680716
0.301666 0.131274 0.0680209
0.302203 0.131149 0.0680817
0.302706 0.131053 0.068031
0.303209 0.130957 0.0679802
0.303712 0.130862 0.0679294
0.304215 0.130766 0.0678786
0.304718 0.130671 0.0678278
0.305221 0.130575 0.067777
0.305758 0.13045 0.0678379
0.306295 0.130325 0.0678989
0.306798 0.13023 0.0678481
0.307301 0.130134 0.0677973
0.307804 0.130039 0.0677465
0.308307 0.129943 0.0676957
0.30881 0.129848 0.067645
0.309312 0.129752 0.0675942
0.30985 0.129627 0.0676551
0.310353 0.129531 0.0676043
0.310856 0.129436 0.0675535
0.311358 0.12934 0.0675028
0.311792 0.129304 0.0672286
0.312226 0.129268 0.0669543
0.312625 0.129262 0.0665685
0.312989 0.129285 0.0660708
0.313354 0.129308 0.0655733
0.313787 0.129272 0.065299
0.314256 0.129206 0.0651366
0.314689 0.12917 0.0648624
0.315158 0.129104 0.0646999
0.315626 0.129038 0.0645374
0.31606 0.129002 0.0642632
0.316493 0.128966 0.063989
0.316962 0.1289 0.0638266
0.31736 0.128894 0.0634406
0.317794 0.128858 0.0631664
0.318193 0.128851 0.0627805
0.318627 0.128815 0.0625063
0.319095 0.128749 0.0623439
0.319529 0.128713 0.0620696
0.320032 0.128618 0.0620189
0.3205 0.128552 0.0618564
0.320968 0.128486 0.0616939
0.321367 0.12848 0.061308
0.321766 0.128473 0.0609221
0.322166 0.128467 0.0605361
0.32253 0.12849 0.0600386
0.32286 0.128543 0.0594293
0.323224 0.128566 0.0589317
0.323485 0.128678 0.0580989
0.32385 0.128702 0.0576013
0.324179 0.128754 0.056992
0.324509 0.128807 0.0563827
0.324908 0.128801 0.0559968
0.325308 0.128795 0.0556109
0.325739 0.12876 0.0553307
0.326208 0.128695 0.0551682
0.32664 0.128661 0.054888
0.327071 0.128627 0.0546078
0.32754 0.128561 0.0544453
0.327972 0.128527 0.0541651
0.328367 0.128525 0.053767
0.328763 0.128522 0.0533691
0.329158 0.12852 0.0529712
0.329444 0.128613 0.0522201
0.329803 0.128643 0.0517043
0.33009 0.128736 0.0509532
0.330376 0.128829 0.050202
0.330662 0.128922 0.0494509
0.330949 0.129015 0.0486997
0.331199 0.12914 0.0478307
0.331558 0.12917 0.0473151
0.331844 0.129263 0.046564
0.332167 0.129324 0.0459305
0.332562 0.129322 0.0455326
0.332958 0.12932 0.0451346
0.333317 0.129349 0.0446189
0.333676 0.129379 0.0441032
0.334035 0.129408 0.0435876
0.334394 0.129438 0.0430718
0.33479 0.129436 0.0426739
0.335185 0.129434 0.042276
0.335581 0.129431 0.041878
0.33594 0.129461 0.0413622
0.336299 0.129491 0.0408466
0.336622 0.129552 0.0402132
0.336908 0.129645 0.039462
0.337231 0.129706 0.0388285
0.337481 0.129831 0.0379597
0.337767 0.129924 0.0372085
0.338053 0.130018 0.0364574
0.338303 0.130143 0.0355885
0.33859 0.130236 0.0348373
0.338912 0.130297 0.0342039
0.339271 0.130327 0.0336882
0.339703 0.130292 0.033408
0.340171 0.130227 0.0332455
0.340676 0.130129 0.0332008
0.341181 0.130031 0.033156
0.341685 0.129934 0.0331112
0.34219 0.129836 0.0330665
0.342695 0.129739 0.0330217
0.343199 0.129641 0.032977
0.343668 0.129575 0.0328145
0.344172 0.129478 0.0327698
0.344677 0.12938 0.032725
0.345145 0.129314 0.0325625
0.34565 0.129217 0.0325177
0.346118 0.129151 0.0323552
0.34655 0.129117 0.032075
0.347055 0.129019 0.0320303
0.347486 0.128985 0.0317501
0.347918 0.128951 0.0314698
0.348314 0.128949 0.0310718
0.348746 0.128915 0.0307916
0.349141 0.128913 0.0303937
0.349537 0.12891 0.0299957
0.349896 0.12894 0.02948
0.350218 0.129001 0.0288466
0.350578 0.129031 0.0283309
0.3509 0.129092 0.0276975
0.351259 0.129122 0.0271818
0.351618 0.129151 0.0266661
0.351978 0.129181 0.0261504
0.352337 0.12921 0.0256347
0.352696 0.12924 0.025119
0.353019 0.129301 0.0244855
0.353341 0.129363 0.0238522
0.353664 0.129424 0.0232187
0.35395 0.129517 0.0224676
0.354164 0.129674 0.021481
0.354487 0.129735 0.0208476
0.354773 0.129828 0.0200964
0.355023 0.129953 0.0192274
0.355382 0.129983 0.0187118
0.355595 0.13014 0.0177251
0.355773 0.130328 0.0166209
0.355768 0.130676 0.0149278
0.243304 0.150239 0.0390867
0.244322 0.149724 0.0406889
0.244936 0.14953 0.0409974
0.24595 0.148987 0.0426009
0.246491 0.148858 0.0426739
0.247104 0.148665 0.0429823
0.247791 0.148408 0.0435262
0.248368 0.148246 0.0437169
0.248982 0.148053 0.0440254
0.249632 0.147828 0.0444515
0.250246 0.147635 0.04476
0.250714 0.147569 0.0445975
0.25613 0.143174 0.0604467
0.256962 0.14279 0.0614616
0.257794 0.142405 0.0624765
0.25859 0.142053 0.0633735
0.259277 0.141796 0.0639174
0.259927 0.141571 0.0643436
0.26054 0.141378 0.064652
0.261191 0.141153 0.0650782
0.261841 0.140928 0.0655044
0.262454 0.140735 0.0658128
0.263068 0.140542 0.0661213
0.263646 0.14038 0.066312
0.264187 0.140251 0.066385
0.264764 0.14009 0.0665757
0.265305 0.13996 0.0666487
0.265846 0.139831 0.0667217
0.266387 0.139701 0.0667947
0.266892 0.139604 0.0667498
0.267433 0.139474 0.0668228
0.267937 0.139376 0.066778
0.268406 0.139311 0.0666156
0.26891 0.139213 0.0665708
0.269379 0.139147 0.0664083
0.269847 0.139081 0.0662458
0.270315 0.139016 0.0660833
0.270747 0.138982 0.0658031
0.271215 0.138916 0.0656406
0.271647 0.138882 0.0653605
0.272115 0.138816 0.065198
0.272547 0.138782 0.0649177
0.272979 0.138748 0.0646375
0.273375 0.138746 0.0642395
0.273807 0.138712 0.0639593
0.274238 0.138678 0.0636791
0.274634 0.138676 0.0632811
0.275066 0.138642 0.0630009
0.275461 0.13864 0.062603
0.275857 0.138637 0.062205
0.276289 0.138603 0.0619248
0.27672 0.138569 0.0616446
0.277116 0.138567 0.0612466
0.277548 0.138533 0.0609664
0.27798 0.138499 0.0606862
0.278412 0.138465 0.0604059
0.278807 0.138463 0.060008
0.279239 0.138429 0.0597278
0.279707 0.138363 0.0595653
0.280176 0.138298 0.0594028
0.280717 0.138168 0.0594757
0.281258 0.138039 0.0595488
0.281871 0.137845 0.0598572
0.282485 0.137652 0.0601657
0.283172 0.137395 0.0607095
0.283785 0.137202 0.061018
0.284472 0.136945 0.0615619
0.285195 0.136657 0.0622236
0.285845 0.136432 0.0626497
0.286532 0.136175 0.0631936
0.287218 0.135918 0.0637376
0.287941 0.135629 0.0643992
0.288664 0.135341 0.0650608
0.289314 0.135116 0.065487
0.289964 0.134891 0.0659132
0.290578 0.134698 0.0662216
0.291192 0.134505 0.0665301
0.291842 0.13428 0.0669562
0.29249 0.134057 0.0673764
0.293131 0.133842 0.0677722
0.293703 0.133687 0.0679449
0.294345 0.133472 0.0683407
0.294916 0.133317 0.0685132
0.295488 0.133162 0.0686859
0.296026 0.133037 0.0687466
0.296563 0.132911 0.0688076
0.297031 0.132846 0.0686451
0.2975 0.13278 0.0684826
0.297933 0.132744 0.0682084
0.298436 0.132648 0.0681576
0.298974 0.132523 0.0682184
0.299511 0.132398 0.0682793
0.300048 0.132272 0.0683402
0.30062 0.132117 0.0685127
0.301123 0.132022 0.068462
0.301626 0.131926 0.068411
0.302164 0.131801 0.0684719
0.302666 0.131705 0.0684212
0.303169 0.131609 0.0683703
0.303672 0.131514 0.0683195
0.30414 0.131448 0.068157
0.304678 0.131323 0.0682178
0.30518 0.131227 0.0681671
0.305718 0.131102 0.068228
0.306221 0.131006 0.0681771
0.306724 0.130911 0.0681263
0.307226 0.130815 0.0680756
0.307695 0.130749 0.067913
0.308197 0.130654 0.0678622
0.308666 0.130588 0.0676996
0.309203 0.130463 0.0677606
0.309706 0.130367 0.0677098
0.310243 0.130242 0.0677706
0.310746 0.130146 0.0677198
0.311249 0.13005 0.0676691
0.311717 0.129985 0.0675065
0.312185 0.129919 0.0673441
0.312619 0.129883 0.0670699
0.313018 0.129876 0.0666841
0.313383 0.1299 0.0661865
0.313747 0.129923 0.065689
0.314181 0.129887 0.0654148
0.314615 0.129851 0.0651407
0.315083 0.129785 0.0649782
0.315517 0.129749 0.064704
0.315985 0.129684 0.0645415
0.316419 0.129648 0.0642673
0.316887 0.129582 0.0641049
0.31732 0.129546 0.0638306
0.317754 0.12951 0.0635565
0.318188 0.129473 0.0632823
0.318622 0.129437 0.0630082
0.319055 0.129401 0.0627341
0.319524 0.129336 0.0625716
0.319992 0.12927 0.0624091
0.32046 0.129204 0.0622466
0.320928 0.129138 0.0620841
0.321362 0.129102 0.0618099
0.321796 0.129066 0.0615357
0.322195 0.12906 0.0611499
0.322559 0.129083 0.0606524
0.322924 0.129107 0.0601548
0.323289 0.12913 0.0596573
0.323619 0.129183 0.0590481
0.323914 0.129266 0.0583273
0.324278 0.12929 0.0578297
0.324574 0.129373 0.0571089
0.324973 0.129366 0.056723
0.325338 0.12939 0.0562255
0.325771 0.129354 0.0559514
0.326205 0.129318 0.0556772
0.326673 0.129252 0.0555147
0.327141 0.129186 0.0553522
0.327575 0.12915 0.055078
0.328007 0.129116 0.0547978
0.328439 0.129082 0.0545176
0.328834 0.12908 0.0541196
0.32923 0.129078 0.0537217
0.329589 0.129107 0.053206
0.329912 0.129169 0.0525725
0.330234 0.12923 0.0519391
0.330557 0.129292 0.0513057
0.330807 0.129417 0.0504368
0.33113 0.129479 0.0498034
0.331416 0.129572 0.0490523
0.331666 0.129697 0.0481834
0.332025 0.129727 0.0476677
0.332384 0.129757 0.047152
0.332707 0.129818 0.0465185
0.333103 0.129816 0.0461206
0.333462 0.129846 0.0456049
0.333821 0.129875 0.0450892
0.33418 0.129905 0.0445736
0.334503 0.129967 0.0439401
0.334898 0.129964 0.0435421
0.335294 0.129962 0.0431442
0.335689 0.12996 0.0427463
0.336048 0.12999 0.0422306
0.336444 0.129988 0.0418326
0.336767 0.130049 0.0411992
0.33709 0.130111 0.0405657
0.337339 0.130236 0.0396969
0.337699 0.130266 0.0391812
0.337985 0.130359 0.03843
0.338235 0.130484 0.0375612
0.338558 0.130546 0.0369277
0.338808 0.130671 0.0360589
0.339058 0.130796 0.0351899
0.339344 0.130889 0.0344388
0.339703 0.130919 0.0339231
0.340062 0.130949 0.0334074
0.340531 0.130883 0.0332449
0.341035 0.130785 0.0332002
0.34154 0.130688 0.0331554
0.342044 0.13059 0.0331106
0.342549 0.130492 0.0330659
0.343054 0.130395 0.0330212
0.343558 0.130297 0.0329764
0.344063 0.130199 0.0329316
0.344531 0.130134 0.0327691
0.345036 0.130036 0.0327243
0.345541 0.129938 0.0326796
0.346009 0.129872 0.0325172
0.346477 0.129807 0.0323547
0.346982 0.129709 0.0323099
0.347413 0.129675 0.0320297
0.347882 0.129609 0.0318672
0.348314 0.129575 0.0315869
0.348746 0.129541 0.0313067
0.349141 0.129539 0.0309088
0.349573 0.129505 0.0306286
0.349968 0.129503 0.0302306
0.350291 0.129564 0.0295972
0.350687 0.129562 0.0291993
0.351009 0.129624 0.0285658
0.351369 0.129653 0.0280501
0.351728 0.129683 0.0275344
0.35205 0.129745 0.026901
0.352446 0.129742 0.026503
0.352805 0.129772 0.0259873
0.3532 0.12977 0.0255894
0.353523 0.129832 0.024956
0.353846 0.129893 0.0243226
0.354169 0.129955 0.0236892
0.354455 0.130048 0.022938
0.354705 0.130173 0.0220691
0.355028 0.130235 0.0214357
0.355278 0.13036 0.0205668
0.355601 0.130421 0.0199333
0.355814 0.130578 0.0189468
0.356101 0.130672 0.0181956
0.356278 0.130861 0.0170912
0.356346 0.131145 0.0156337
0.243702 0.150874 0.0392046
0.244755 0.150325 0.040924
0.24526 0.150227 0.0408792
0.246382 0.149587 0.0428359
0.246887 0.14949 0.0427912
0.247501 0.149296 0.0430996
0.248224 0.149007 0.0437613
0.248801 0.148846 0.0439519
0.249415 0.148653 0.0442604
0.249992 0.148491 0.0444512
0.250642 0.148266 0.0448772
0.255621 0.144247 0.0593136
0.256562 0.143767 0.0606816
0.257467 0.143319 0.061932
0.258226 0.142998 0.0627113
0.259022 0.142645 0.0636084
0.259708 0.142388 0.0641524
0.260358 0.142163 0.0645785
0.261008 0.141938 0.0650046
0.261659 0.141712 0.0654308
0.262309 0.141487 0.0658571
0.262886 0.141326 0.0660478
0.2635 0.141132 0.0663561
0.264077 0.140971 0.0665469
0.264654 0.14081 0.0667376
0.265195 0.14068 0.0668105
0.265773 0.140518 0.0670013
0.266277 0.140421 0.0669565
0.266818 0.140291 0.0670295
0.267359 0.140162 0.0671025
0.267864 0.140064 0.0670577
0.268369 0.139966 0.0670129
0.268837 0.139901 0.0668504
0.269342 0.139803 0.0668057
0.26981 0.139737 0.0666432
0.270278 0.139671 0.0664807
0.27071 0.139637 0.0662004
0.271178 0.139571 0.066038
0.271647 0.139506 0.0658755
0.272078 0.139472 0.0655953
0.272547 0.139406 0.0654328
0.272942 0.139404 0.0650348
0.273374 0.13937 0.0647546
0.273806 0.139336 0.0644744
0.274201 0.139334 0.0640765
0.274597 0.139332 0.0636785
0.275029 0.139298 0.0633983
0.275461 0.139264 0.063118
0.275856 0.139262 0.0627201
0.276252 0.13926 0.0623221
0.276684 0.139226 0.0620419
0.277079 0.139224 0.061644
0.277511 0.13919 0.0613638
0.277943 0.139156 0.0610835
0.278339 0.139154 0.0606856
0.27877 0.13912 0.0604053
0.279166 0.139118 0.0600074
0.279598 0.139084 0.0597272
0.280066 0.139018 0.0595647
0.280571 0.13892 0.05952
0.281112 0.138791 0.0595929
0.281689 0.138629 0.0597836
0.282303 0.138436 0.0600921
0.282917 0.138243 0.0604005
0.283639 0.137954 0.0610622
0.284253 0.13776 0.0613706
0.285049 0.137408 0.0622677
0.285735 0.137151 0.0628116
0.286349 0.136957 0.0631201
0.287072 0.136668 0.0637817
0.287758 0.136411 0.0643256
0.288518 0.13609 0.0651049
0.289168 0.135865 0.0655311
0.289818 0.13564 0.0659573
0.290468 0.135415 0.0663834
0.291118 0.135189 0.0668097
0.291768 0.134964 0.0672358
0.292382 0.134771 0.0675442
0.293023 0.134556 0.06794
0.29363 0.134371 0.0682241
0.294201 0.134215 0.0683965
0.294808 0.13403 0.0686807
0.295414 0.133845 0.0689647
0.295952 0.13372 0.0690256
0.296489 0.133594 0.0690864
0.296992 0.133499 0.0690356
0.29746 0.133433 0.0688731
0.297928 0.133367 0.0687106
0.298397 0.133301 0.0685481
0.298899 0.133206 0.0684972
0.299437 0.13308 0.0685581
0.299974 0.132955 0.0686188
0.300546 0.132799 0.0687913
0.301083 0.132674 0.0688521
0.301586 0.132578 0.0688013
0.302124 0.132453 0.068862
0.302661 0.132327 0.0689229
0.303164 0.132231 0.068872
0.303632 0.132166 0.0687095
0.304135 0.13207 0.0686587
0.304638 0.131974 0.0686078
0.30514 0.131879 0.068557
0.305678 0.131753 0.0686179
0.306181 0.131658 0.068567
0.306683 0.131562 0.0685162
0.307152 0.131496 0.0683537
0.30762 0.13143 0.0681912
0.308088 0.131364 0.0680287
0.308556 0.131299 0.0678663
0.309059 0.131203 0.0678154
0.309562 0.131107 0.0677645
0.310065 0.131012 0.0677137
0.310602 0.130886 0.0677745
0.311105 0.13079 0.0677237
0.311573 0.130725 0.0675612
0.312076 0.130629 0.0675103
0.31251 0.130593 0.0672362
0.312978 0.130527 0.0670737
0.313377 0.130521 0.0666879
0.313776 0.130515 0.0663021
0.314176 0.130509 0.0659164
0.314575 0.130503 0.0655306
0.315008 0.130467 0.0652564
0.315442 0.130431 0.0649823
0.31591 0.130365 0.0648198
0.316344 0.130329 0.0645456
0.316812 0.130263 0.0643831
0.317246 0.130227 0.064109
0.317714 0.130161 0.0639466
0.318113 0.130155 0.0635608
0.318582 0.130089 0.0633983
0.319015 0.130053 0.0631241
0.319484 0.129988 0.0629616
0.319952 0.129922 0.0627992
0.32042 0.129856 0.0626367
0.320854 0.12982 0.0623625
0.321322 0.129754 0.0622
0.32179 0.129688 0.0620375
0.32219 0.129682 0.0616518
0.322589 0.129676 0.061266
0.322953 0.1297 0.0607686
0.323318 0.129723 0.0602711
0.323683 0.129747 0.0597737
0.324013 0.1298 0.0591646
0.324308 0.129884 0.0584439
0.324673 0.129907 0.0579465
0.325003 0.129961 0.0573373
0.325402 0.129955 0.0569516
0.325801 0.129949 0.0565657
0.326235 0.129913 0.0562916
0.326669 0.129877 0.0560175
0.327137 0.129811 0.055855
0.327605 0.129745 0.0556925
0.328039 0.129709 0.0554183
0.328472 0.129673 0.0551443
0.328906 0.129637 0.0548701
0.329302 0.129635 0.0544721
0.329661 0.129665 0.0539564
0.330056 0.129663 0.0535585
0.330343 0.129756 0.0528074
0.330665 0.129818 0.052174
0.330988 0.12988 0.0515405
0.331275 0.129973 0.0507893
0.331525 0.130099 0.0499205
0.331847 0.13016 0.0492871
0.332134 0.130254 0.0485359
0.332493 0.130284 0.0480202
0.332852 0.130314 0.0475045
0.333211 0.130343 0.0469889
0.33357 0.130373 0.0464732
0.333966 0.130371 0.0460752
0.334289 0.130433 0.0454418
0.334648 0.130463 0.0449261
0.335007 0.130493 0.0444105
0.335366 0.130522 0.0438948
0.335798 0.130488 0.0436145
0.336157 0.130518 0.0430988
0.336516 0.130548 0.0425831
0.336912 0.130546 0.0421852
0.337198 0.13064 0.041434
0.337594 0.130637 0.0410361
0.337844 0.130763 0.0401672
0.33813 0.130857 0.039416
0.338416 0.13095 0.038665
0.338703 0.131044 0.0379138
0.338989 0.131137 0.0371626
0.339239 0.131263 0.0362937
0.339526 0.131356 0.0355426
0.339776 0.131482 0.0346737
0.340098 0.131543 0.0340403
0.340494 0.131541 0.0336423
0.340926 0.131507 0.0333621
0.34143 0.13141 0.0333173
0.341935 0.131312 0.0332725
0.342403 0.131246 0.03311
0.342944 0.131117 0.0331831
0.343449 0.131019 0.0331383
0.343954 0.130921 0.0330936
0.344422 0.130855 0.0329311
0.344927 0.130758 0.0328863
0.345431 0.13066 0.0328415
0.345899 0.130594 0.032679
0.346404 0.130496 0.0326343
0.346872 0.130431 0.0324718
0.347341 0.130365 0.0323093
0.347809 0.130299 0.0321469
0.348277 0.130233 0.0319844
0.348745 0.130167 0.0318219
0.349141 0.130165 0.0314239
0.349536 0.130163 0.0310259
0.349968 0.130129 0.0307457
0.350327 0.130159 0.0302301
0.350723 0.130157 0.029832
0.351082 0.130187 0.0293164
0.351441 0.130217 0.0288007
0.351764 0.130278 0.0281673
0.35216 0.130276 0.0277693
0.352519 0.130306 0.0272536
0.352914 0.130304 0.0268557
0.353273 0.130334 0.02634
0.353669 0.130332 0.0259421
0.353992 0.130394 0.0253086
0.354314 0.130455 0.0246753
0.354674 0.130485 0.0241595
0.354923 0.13061 0.0232907
0.35521 0.130704 0.0225395
0.355533 0.130766 0.0219061
0.355746 0.130923 0.0209195
0.356069 0.130985 0.0202861
0.356319 0.13111 0.0194172
0.356605 0.131204 0.018666
0.356746 0.131425 0.017444
0.356815 0.13171 0.0159864
0.244059 0.15154 0.0391966
0.245188 0.150926 0.0411591
0.245693 0.150828 0.0411143
0.246779 0.15022 0.0429533
0.247284 0.150122 0.0429085
0.248006 0.149833 0.0435701
0.248657 0.149607 0.0439964
0.249198 0.149477 0.0440693
0.249848 0.149252 0.0444954
0.250461 0.149059 0.0448039
0.251039 0.148897 0.0449946
0.256162 0.144745 0.0599017
0.257067 0.144296 0.061152
0.258008 0.143816 0.06252
0.258694 0.143558 0.0630639
0.25949 0.143205 0.063961
0.260176 0.142948 0.0645049
0.260826 0.142722 0.0649311
0.26144 0.142529 0.0652395
0.262126 0.142272 0.0657834
0.26274 0.142078 0.0660919
0.263354 0.141885 0.0664003
0.263968 0.141691 0.0667088
0.264545 0.141529 0.0668995
0.265086 0.1414 0.0669724
0.265663 0.141238 0.0671631
0.266204 0.141109 0.0672361
0.266745 0.140979 0.0673091
0.267286 0.140849 0.067382
0.267791 0.140751 0.0673373
0.268296 0.140654 0.0672925
0.2688 0.140556 0.0672478
0.269305 0.140458 0.067203
0.269773 0.140392 0.0670405
0.270241 0.140327 0.0668781
0.27071 0.140261 0.0667156
0.271178 0.140195 0.0665531
0.27161 0.140161 0.0662729
0.272078 0.140095 0.0661104
0.27251 0.140061 0.0658301
0.272942 0.140027 0.06555
0.273374 0.139994 0.0652697
0.273805 0.13996 0.0649895
0.274237 0.139926 0.0647092
0.274633 0.139924 0.0643113
0.275028 0.139922 0.0639133
0.275424 0.13992 0.0635154
0.275856 0.139886 0.0632352
0.276251 0.139884 0.0628372
0.276647 0.139882 0.0624393
0.277079 0.139848 0.0621591
0.277474 0.139846 0.0617611
0.277906 0.139812 0.0614809
0.278302 0.13981 0.0610829
0.278697 0.139808 0.0606849
0.279129 0.139774 0.0604048
0.279561 0.139741 0.0601245
0.279993 0.139707 0.0598443
0.280461 0.139641 0.0596818
0.281002 0.139511 0.0597548
0.281543 0.139381 0.0598278
0.282121 0.13922 0.0600185
0.282734 0.139026 0.0603269
0.283493 0.138705 0.0611063
0.284144 0.13848 0.0615324
0.28483 0.138222 0.0620763
0.285553 0.137933 0.062738
0.286203 0.137708 0.0631642
0.286889 0.13745 0.063708
0.287576 0.137193 0.0642519
0.288262 0.136936 0.0647958
0.288985 0.136646 0.0654575
0.289635 0.136421 0.0658837
0.290322 0.136164 0.0664276
0.290972 0.135938 0.0668537
0.291658 0.135681 0.0673977
0.292308 0.135455 0.0678238
0.292915 0.13527 0.0681078
0.293521 0.135085 0.0683918
0.294127 0.134899 0.0686757
0.294734 0.134714 0.0689598
0.29534 0.134528 0.0692437
0.295912 0.134373 0.0694161
0.296449 0.134247 0.0694769
0.296952 0.134151 0.069426
0.297455 0.134056 0.0693751
0.297923 0.13399 0.0692126
0.298391 0.133924 0.0690501
0.29886 0.133858 0.0688876
0.299397 0.133733 0.0689484
0.299934 0.133607 0.0690092
0.300506 0.133451 0.0691816
0.301043 0.133326 0.0692423
0.301615 0.13317 0.0694147
0.302153 0.133045 0.0694754
0.302655 0.132949 0.0694245
0.303158 0.132853 0.0693737
0.303627 0.132787 0.0692112
0.304129 0.132692 0.0691603
0.304667 0.132566 0.069221
0.305204 0.13244 0.0692818
0.305672 0.132374 0.0691193
0.306175 0.132279 0.0690685
0.306643 0.132213 0.068906
0.307112 0.132147 0.0687435
0.307545 0.132111 0.0684693
0.307979 0.132075 0.0681952
0.308447 0.132009 0.0680327
0.308915 0.131944 0.0678702
0.309418 0.131848 0.0678194
0.309921 0.131752 0.0677686
0.310424 0.131656 0.0677176
0.310961 0.131531 0.0677784
0.311429 0.131465 0.0676159
0.311932 0.131369 0.0675651
0.312435 0.131274 0.0675142
0.312903 0.131208 0.0673517
0.313372 0.131142 0.0671893
0.313771 0.131136 0.0668034
0.31417 0.13113 0.0664177
0.314569 0.131124 0.066032
0.315003 0.131088 0.0657579
0.315402 0.131082 0.0653722
0.315836 0.131046 0.0650981
0.316304 0.13098 0.0649356
0.316738 0.130944 0.0646615
0.317206 0.130879 0.064499
0.317674 0.130813 0.0643365
0.318108 0.130777 0.0640624
0.318542 0.130741 0.0637883
0.31901 0.130675 0.0636258
0.319444 0.130639 0.0633517
0.319912 0.130573 0.0631892
0.320346 0.130537 0.0629151
0.320814 0.130472 0.0627526
0.321248 0.130436 0.0624785
0.321716 0.13037 0.062316
0.32215 0.130334 0.0620418
0.322583 0.130298 0.0617678
0.322948 0.130322 0.0612704
0.323313 0.130346 0.0607731
0.323712 0.13034 0.0603874
0.324042 0.130394 0.0597784
0.324372 0.130448 0.0591694
0.324702 0.130501 0.0585605
0.325067 0.130525 0.0580631
0.325397 0.130579 0.0574542
0.325831 0.130543 0.05718
0.32623 0.130537 0.0567943
0.326664 0.130501 0.0565202
0.327132 0.130435 0.0563577
0.3276 0.13037 0.0561952
0.328034 0.130334 0.0559211
0.328468 0.130298 0.055647
0.328936 0.130232 0.0554845
0.329335 0.130226 0.0550988
0.329696 0.130254 0.0545892
0.330055 0.130284 0.0540735
0.330451 0.130282 0.0536756
0.330774 0.130344 0.0530422
0.331097 0.130406 0.0524087
0.331383 0.130499 0.0516576
0.331633 0.130625 0.0507887
0.331956 0.130687 0.0501553
0.332279 0.130749 0.0495219
0.332601 0.130811 0.0488884
0.332961 0.130841 0.0483728
0.33332 0.130871 0.0478572
0.333715 0.130869 0.0474591
0.334038 0.13093 0.0468258
0.334397 0.13096 0.04631
0.334756 0.13099 0.0457944
0.335115 0.13102 0.0452786
0.335475 0.13105 0.044763
0.335834 0.13108 0.0442473
0.336229 0.131078 0.0438494
0.336625 0.131076 0.0434514
0.336984 0.131106 0.0429357
0.337343 0.131136 0.0424201
0.337666 0.131198 0.0417866
0.338061 0.131196 0.0413887
0.338348 0.13129 0.0406376
0.338634 0.131384 0.0398863
0.338884 0.131509 0.0390175
0.339207 0.131571 0.0383841
0.339457 0.131697 0.0375153
0.339707 0.131823 0.0366463
0.339957 0.131948 0.0357774
0.340207 0.132074 0.0349086
0.340494 0.132168 0.0341574
0.340853 0.132198 0.0336418
0.341321 0.132132 0.0334793
0.34179 0.132066 0.0333168
0.342294 0.131968 0.033272
0.342799 0.13187 0.0332273
0.34334 0.131741 0.0333002
0.343808 0.131675 0.0331377
0.344313 0.131577 0.033093
0.344817 0.13148 0.0330483
0.345322 0.131382 0.0330035
0.34579 0.131316 0.032841
0.346295 0.131218 0.0327962
0.346763 0.131152 0.0326337
0.347268 0.131055 0.032589
0.347736 0.130989 0.0324265
0.348204 0.130923 0.032264
0.348672 0.130857 0.0321015
0.349104 0.130823 0.0318213
0.349536 0.130789 0.0315411
0.349968 0.130756 0.0312609
0.350363 0.130754 0.0308629
0.350723 0.130784 0.0303472
0.351118 0.130782 0.0299492
0.351477 0.130812 0.0294336
0.351837 0.130841 0.0289179
0.352196 0.130871 0.0284023
0.352591 0.130869 0.0280043
0.352987 0.130867 0.0276063
0.353346 0.130897 0.0270906
0.353705 0.130927 0.0265749
0.354101 0.130925 0.026177
0.35446 0.130955 0.0256613
0.354783 0.131017 0.0250279
0.355105 0.131079 0.0243945
0.355392 0.131173 0.0236433
0.355642 0.131298 0.0227745
0.355965 0.13136 0.022141
0.356178 0.131518 0.0211545
0.356501 0.13158 0.020521
0.356751 0.131706 0.0196521
0.357038 0.131799 0.018901
0.357215 0.131989 0.0177966
0.356956 0.132562 0.0152795
0.357133 0.132751 0.0141752
0.243714 0.152468 0.0385955
0.244496 0.152142 0.0394404
0.245621 0.151527 0.0413941
0.246089 0.151461 0.0412316
0.247176 0.150852 0.0430706
0.24768 0.150754 0.0430258
0.248512 0.150368 0.0440406
0.249053 0.150239 0.0441137
0.249703 0.150013 0.0445398
0.250317 0.149819 0.0448482
0.25093 0.149626 0.0451566
0.255871 0.145628 0.059475
0.256703 0.145243 0.0604899
0.257753 0.144666 0.062211
0.258476 0.144376 0.0628726
0.259235 0.144054 0.063652
0.259994 0.143733 0.0644314
0.260644 0.143507 0.0648576
0.261294 0.143282 0.0652838
0.261908 0.143088 0.0655922
0.262594 0.14283 0.0661361
0.263208 0.142637 0.0664445
0.263822 0.142443 0.0667529
0.264435 0.142249 0.0670614
0.265013 0.142088 0.067252
0.265554 0.141958 0.0673251
0.266131 0.141796 0.0675157
0.266672 0.141667 0.0675887
0.267213 0.141537 0.0676617
0.267718 0.141439 0.067617
0.268259 0.141309 0.0676899
0.268763 0.141211 0.0676451
0.269231 0.141146 0.0674826
0.269736 0.141048 0.0674379
0.270204 0.140982 0.0672754
0.270673 0.140916 0.0671129
0.271141 0.14085 0.0669504
0.271609 0.140785 0.0667879
0.272041 0.140751 0.0665077
0.272509 0.140685 0.0663452
0.272941 0.140651 0.0660651
0.273373 0.140617 0.0657848
0.273805 0.140583 0.0655046
0.274237 0.14055 0.0652243
0.274632 0.140548 0.0648263
0.275028 0.140546 0.0644284
0.275423 0.140544 0.0640304
0.275819 0.140542 0.0636325
0.276251 0.140508 0.0633523
0.276646 0.140506 0.0629544
0.277078 0.140472 0.0626742
0.277474 0.14047 0.0622762
0.277906 0.140437 0.061996
0.278301 0.140435 0.061598
0.278697 0.140433 0.0612001
0.279092 0.140431 0.0608021
0.279524 0.140397 0.0605219
0.279956 0.140363 0.0602417
0.280424 0.140297 0.0600792
0.280893 0.140232 0.0599167
0.281434 0.140102 0.0599896
0.282011 0.13994 0.0601804
0.282588 0.139778 0.0603711
0.283275 0.139521 0.0609149
0.283925 0.139295 0.0613411
0.284684 0.138974 0.0621205
0.28537 0.138716 0.0626644
0.286057 0.138458 0.0632083
0.286707 0.138233 0.0636344
0.28743 0.137943 0.064296
0.288043 0.13775 0.0646046
0.288766 0.13746 0.0652662
0.289453 0.137202 0.06581
0.290175 0.136913 0.0664717
0.290825 0.136687 0.0668978
0.291512 0.13643 0.0674417
0.292198 0.136172 0.0679857
0.292841 0.135954 0.0683872
0.293447 0.135769 0.0686711
0.294053 0.135583 0.068955
0.294694 0.135367 0.0693504
0.295266 0.135211 0.0695227
0.295838 0.135056 0.069695
0.296375 0.13493 0.0697557
0.296912 0.134804 0.0698164
0.297381 0.134738 0.0696539
0.297849 0.134672 0.0694915
0.298352 0.134577 0.0694405
0.29882 0.134511 0.069278
0.299357 0.134385 0.0693387
0.299895 0.134259 0.0693994
0.300466 0.134103 0.0695717
0.301073 0.133918 0.0698556
0.30161 0.133792 0.0699163
0.302147 0.133666 0.0699769
0.30265 0.13357 0.0699261
0.303118 0.133505 0.0697636
0.303655 0.133379 0.0698242
0.304193 0.133253 0.0698849
0.304764 0.133097 0.0700573
0.305267 0.133001 0.0700063
0.305736 0.132936 0.0698438
0.306204 0.13287 0.0696814
0.306672 0.132804 0.0695189
0.307106 0.132768 0.0692448
0.30754 0.132732 0.0689707
0.307939 0.132726 0.0685851
0.308372 0.132691 0.068311
0.308841 0.132625 0.0681485
0.309309 0.132559 0.067986
0.309812 0.132463 0.0679351
0.31028 0.132397 0.0677726
0.310783 0.132301 0.0677217
0.311286 0.132206 0.0676708
0.311788 0.13211 0.0676199
0.312291 0.132014 0.067569
0.312794 0.131918 0.0675181
0.313297 0.131822 0.0674672
0.31373 0.131787 0.0671931
0.314164 0.131751 0.066919
0.314563 0.131745 0.0665333
0.314997 0.131709 0.0662593
0.315431 0.131673 0.0659852
0.315865 0.131637 0.0657112
0.316298 0.131602 0.0654371
0.316767 0.131536 0.0652746
0.3172 0.1315 0.0650006
0.317634 0.131464 0.0647264
0.318102 0.131398 0.0645639
0.318536 0.131362 0.0642898
0.31897 0.131327 0.0640158
0.319404 0.131291 0.0637417
0.319872 0.131225 0.0635792
0.320306 0.131189 0.0633051
0.320739 0.131153 0.063031
0.321173 0.131117 0.062757
0.321641 0.131052 0.0625945
0.322075 0.131016 0.0623204
0.322509 0.13098 0.0620463
0.322908 0.130974 0.0616607
0.323307 0.130968 0.061275
0.323672 0.130992 0.0607777
0.324037 0.131017 0.0602804
0.324333 0.131101 0.0595601
0.324732 0.131095 0.0591743
0.325062 0.131149 0.0585655
0.325427 0.131173 0.0580683
0.325826 0.131167 0.0576825
0.326225 0.131161 0.0572968
0.326659 0.131125 0.0570228
0.327127 0.13106 0.0568603
0.327561 0.131024 0.0565862
0.328029 0.130958 0.0564237
0.328463 0.130922 0.0561497
0.328897 0.130886 0.0558755
0.32933 0.13085 0.0556015
0.32973 0.130845 0.0552159
0.330127 0.130841 0.0548241
0.330486 0.130871 0.0543083
0.330809 0.130933 0.053675
0.331132 0.130995 0.0530415
0.331491 0.131025 0.0525258
0.331778 0.131119 0.0517747
0.332028 0.131245 0.0509058
0.332387 0.131275 0.0503901
0.33271 0.131337 0.0497567
0.333033 0.131399 0.0491233
0.333428 0.131397 0.0487253
0.333824 0.131395 0.0483274
0.334183 0.131425 0.0478117
0.334506 0.131487 0.0471783
0.334865 0.131517 0.0466626
0.335188 0.13158 0.0460292
0.335547 0.13161 0.0455135
0.335906 0.13164 0.0449978
0.336301 0.131638 0.0445999
0.336697 0.131636 0.044202
0.337056 0.131666 0.0436863
0.337452 0.131664 0.0432883
0.337811 0.131694 0.0427726
0.33817 0.131724 0.0422569
0.338493 0.131786 0.0416236
0.338888 0.131784 0.0412256
0.339102 0.131942 0.040239
0.339389 0.132036 0.0394878
0.339639 0.132162 0.038619
0.339925 0.132256 0.0378678
0.340139 0.132414 0.0368812
0.340353 0.132572 0.0358947
0.340675 0.132634 0.0352613
0.340926 0.13276 0.0343923
0.341248 0.132822 0.0337589
0.34168 0.132788 0.0334787
0.342149 0.132722 0.0333162
0.342653 0.132625 0.0332714
0.343194 0.132495 0.0333444
0.343699 0.132397 0.0332996
0.344203 0.132299 0.0332549
0.344708 0.132202 0.0332102
0.345213 0.132104 0.0331654
0.345681 0.132038 0.0330029
0.346149 0.131972 0.0328405
0.346654 0.131874 0.0327957
0.347122 0.131808 0.0326332
0.347627 0.131711 0.0325884
0.348095 0.131645 0.0324259
0.348563 0.131579 0.0322634
0.349031 0.131513 0.0321009
0.349463 0.131479 0.0318207
0.349895 0.131446 0.0315405
0.350327 0.131412 0.0312604
0.350723 0.13141 0.0308623
0.351118 0.131408 0.0304644
0.351477 0.131438 0.0299487
0.351873 0.131436 0.0295507
0.352232 0.131466 0.029035
0.352591 0.131496 0.0285195
0.352987 0.131494 0.0281215
0.353382 0.131492 0.0277235
0.353778 0.131491 0.0273255
0.354137 0.131521 0.0268098
0.354532 0.131519 0.0264119
0.354892 0.131549 0.0258962
0.355215 0.131611 0.0252628
0.355537 0.131673 0.0246294
0.355824 0.131767 0.0238783
0.356074 0.131893 0.0230094
0.35636 0.131987 0.0222582
0.356611 0.132113 0.0213894
0.35686 0.132239 0.0205205
0.357147 0.132333 0.0197693
0.35747 0.132395 0.019136
0.357647 0.132585 0.0180316
0.357679 0.132902 0.0164563
0.24419 0.153038 0.0389655
0.244814 0.152842 0.0393065
0.246017 0.15216 0.0415115
0.247031 0.151614 0.0431149
0.247572 0.151484 0.0431879
0.248295 0.151194 0.0438495
0.248908 0.151 0.044158
0.249522 0.150806 0.0444664
0.250172 0.15058 0.0448925
0.250822 0.150355 0.0453187
0.255653 0.146448 0.0592838
0.256303 0.146222 0.0597099
0.257462 0.145548 0.0617843
0.258294 0.145162 0.0627991
0.25898 0.144904 0.0633431
0.259776 0.144551 0.0642401
0.260498 0.144261 0.0649017
0.261112 0.144067 0.0652102
0.261762 0.143841 0.0656364
0.262376 0.143647 0.0659448
0.263062 0.143389 0.0664887
0.263676 0.143195 0.0667971
0.264289 0.143002 0.0671055
0.264903 0.142808 0.0674139
0.265444 0.142678 0.0674869
0.266021 0.142516 0.0676776
0.266599 0.142354 0.0678683
0.26714 0.142224 0.0679412
0.267644 0.142127 0.0678965
0.268185 0.141997 0.0679694
0.268726 0.141867 0.0680425
0.269195 0.141801 0.06788
0.269699 0.141703 0.0678352
0.270167 0.141637 0.0676727
0.270636 0.141572 0.0675102
0.27114 0.141474 0.0674655
0.271572 0.14144 0.0671853
0.27204 0.141374 0.0670228
0.272472 0.14134 0.0667426
0.272904 0.141307 0.0664623
0.273372 0.141241 0.0662998
0.273768 0.141239 0.0659019
0.274236 0.141173 0.0657394
0.274632 0.141171 0.0653414
0.275027 0.14117 0.0649435
0.275459 0.141136 0.0646633
0.275855 0.141134 0.0642653
0.27625 0.141132 0.0638673
0.276646 0.14113 0.0634695
0.277078 0.141096 0.0631892
0.277473 0.141095 0.0627913
0.277869 0.141093 0.0623933
0.278264 0.141091 0.0619954
0.278696 0.141057 0.0617151
0.279092 0.141055 0.0613172
0.279524 0.141022 0.061037
0.279956 0.140988 0.0607567
0.280388 0.140954 0.0604766
0.280856 0.140888 0.0603141
0.281361 0.14079 0.0602693
0.281902 0.14066 0.0603423
0.282479 0.140499 0.060533
0.283093 0.140305 0.0608414
0.283742 0.140079 0.0612675
0.284502 0.139757 0.0620469
0.285115 0.139563 0.0623554
0.285911 0.139209 0.0632524
0.286488 0.139048 0.0634431
0.287211 0.138758 0.0641047
0.287897 0.1385 0.0646486
0.288584 0.138242 0.0651926
0.289234 0.138016 0.0656186
0.289956 0.137726 0.0662803
0.290715 0.137404 0.0670596
0.291366 0.137179 0.0674858
0.292088 0.136889 0.0681475
0.292698 0.136699 0.0684435
0.293408 0.136423 0.0690619
0.294014 0.136236 0.0693457
0.29462 0.13605 0.0696295
0.295226 0.135864 0.0699132
0.295764 0.135738 0.0699739
0.296335 0.135582 0.070146
0.296838 0.135487 0.0700952
0.297341 0.135391 0.0700443
0.297809 0.135325 0.0698818
0.298312 0.135229 0.0698308
0.298815 0.135133 0.0697799
0.299317 0.135037 0.0697289
0.299855 0.134911 0.0697896
0.300495 0.134695 0.0701849
0.301102 0.134509 0.0704687
0.301639 0.134383 0.0705293
0.302142 0.134287 0.0704784
0.30261 0.134222 0.0703159
0.303147 0.134096 0.0703766
0.303719 0.13394 0.0705487
0.30429 0.133784 0.070721
0.304828 0.133658 0.0707816
0.305296 0.133592 0.0706191
0.30573 0.133556 0.070345
0.306233 0.13346 0.0702941
0.306666 0.133424 0.07002
0.3071 0.133389 0.0697461
0.307534 0.133353 0.069472
0.307968 0.133317 0.0691978
0.308401 0.133281 0.0689239
0.3088 0.133276 0.0685382
0.309234 0.13324 0.0682642
0.309703 0.133174 0.0681017
0.310171 0.133108 0.0679392
0.310674 0.133012 0.0678882
0.311176 0.132917 0.0678374
0.311679 0.132821 0.0677864
0.312216 0.132695 0.067847
0.312719 0.132599 0.0677962
0.313222 0.132503 0.0677452
0.31369 0.132437 0.0675827
0.314158 0.132371 0.0674202
0.314627 0.132306 0.0672577
0.31506 0.13227 0.0669837
0.315529 0.132204 0.0668213
0.315997 0.132138 0.0666588
0.316431 0.132102 0.0663847
0.316864 0.132067 0.0661106
0.317298 0.132031 0.0658366
0.317732 0.131995 0.0655625
0.318166 0.131959 0.0652884
0.3186 0.131924 0.0650144
0.318999 0.131918 0.0646288
0.319398 0.131912 0.0642432
0.319832 0.131876 0.0639691
0.320266 0.131841 0.0636951
0.320699 0.131805 0.063421
0.321133 0.131769 0.063147
0.321567 0.131733 0.0628729
0.322001 0.131698 0.0625989
0.322435 0.131662 0.0623248
0.322868 0.131626 0.0620507
0.323233 0.13165 0.0615537
0.323598 0.131675 0.0610564
0.323963 0.131699 0.0605592
0.324327 0.131724 0.0600621
0.324658 0.131778 0.0594533
0.325023 0.131802 0.0589562
0.325422 0.131797 0.0585706
0.325821 0.131791 0.058185
0.32622 0.131785 0.0577993
0.326654 0.131749 0.0575252
0.327088 0.131714 0.0572512
0.327522 0.131678 0.0569771
0.32799 0.131612 0.0568146
0.328424 0.131576 0.0565406
0.328857 0.131541 0.0562665
0.329326 0.131475 0.056104
0.32976 0.131439 0.05583
0.330159 0.131433 0.0554444
0.330522 0.13146 0.0549411
0.330881 0.13149 0.0544254
0.331204 0.131552 0.0537919
0.331563 0.131582 0.0532763
0.331886 0.131644 0.0526429
0.332136 0.131771 0.051774
0.332459 0.131833 0.0511406
0.332782 0.131895 0.0505072
0.333141 0.131925 0.0499915
0.3335 0.131955 0.0494758
0.333932 0.131922 0.0491956
0.334291 0.131952 0.0486799
0.33465 0.131982 0.0481643
0.334973 0.132044 0.0475308
0.335296 0.132106 0.0468975
0.335582 0.132201 0.0461463
0.335978 0.132199 0.0457483
0.336374 0.132197 0.0453504
0.336733 0.132227 0.0448348
0.337128 0.132225 0.0444368
0.337524 0.132224 0.0440388
0.337883 0.132254 0.0435232
0.338242 0.132284 0.0430075
0.338601 0.132314 0.0424918
0.338961 0.132344 0.0419762
0.33932 0.132375 0.0414605
0.339606 0.132469 0.0407093
0.339893 0.132563 0.0399582
0.340143 0.132689 0.0390893
