ply
format ascii 1.0
element vertex 1264
property float x
property float y
property float z
property uchar diffuse_red
property uchar diffuse_green
property uchar diffuse_blue
end_header
0.245423 0.0661636 -0.0165405 78 25 20
0.245318 0.0666934 -0.0166648 78 25 20
0.245236 0.0672067 -0.0168093 79 25 21
0.245224 0.0677207 -0.0169312 78 24 20
0.24523 0.0682542 -0.0170876 82 26 22
0.245347 0.0687911 -0.0172146 85 28 25
0.245491 0.0693249 -0.0173602 89 30 25
0.245661 0.0698719 -0.0175091 92 32 27
0.245883 0.0701865 -0.0173221 97 38 34
0.246065 0.0704951 -0.0171371 103 49 45
0.246191 0.0707987 -0.016943 106 56 53
0.246259 0.0710875 -0.0167468 114 68 65
0.246186 0.0713867 -0.0165613 123 84 80
0.246358 0.071603 -0.016856 116 74 70
0.246219 0.0719153 -0.0166977 120 81 77
0.246271 0.0724376 -0.0168101 121 83 77
0.246073 0.0641274 -0.0141787 132 115 104
0.246067 0.0643608 -0.0145052 123 101 92
0.246145 0.0646062 -0.014817 110 82 79
0.246282 0.0648611 -0.0151428 104 68 67
0.2464 0.0650997 -0.0155343 99 53 53
0.246289 0.0650157 -0.016027 93 43 40
0.247087 0.063122 -0.0132277 128 117 105
0.247114 0.0628296 -0.01342 130 119 108
0.247143 0.0625482 -0.0136143 133 122 111
0.247457 0.0624255 -0.0133984 137 123 109
0.247182 0.0622603 -0.0138223 130 120 110
0.247497 0.0621365 -0.0135958 133 122 109
0.247217 0.0619763 -0.0140379 125 115 106
0.24755 0.0618619 -0.0138163 133 122 110
0.247277 0.0617055 -0.0142462 130 121 110
0.247609 0.0615831 -0.0140288 129 118 107
0.247331 0.0614372 -0.0144708 123 114 105
0.247688 0.0613227 -0.0142581 127 118 107
0.247422 0.0611824 -0.0147049 126 114 101
0.247769 0.0610747 -0.0145005 126 117 105
0.247537 0.0609391 -0.0149524 118 109 99
0.247865 0.0608302 -0.0147355 124 117 106
0.24769 0.0607081 -0.0151928 114 103 92
0.248006 0.0605742 -0.0149729 123 117 107
0.245762 0.0632178 -0.0171776 65 16 10
0.245248 0.0636646 -0.017262 60 9 7
0.244859 0.0641366 -0.0173567 56 7 4
0.244579 0.0646285 -0.0174682 57 8 5
0.244429 0.0651333 -0.0175949 59 6 5
0.244305 0.0656487 -0.0177411 60 5 4
0.244224 0.0661514 -0.0178642 62 5 4
0.244178 0.0666718 -0.0180067 63 6 5
0.244169 0.067192 -0.0181288 65 7 5
0.24419 0.0677226 -0.0182845 66 9 7
0.24427 0.0682383 -0.0184374 70 11 8
0.244407 0.0687675 -0.0185815 76 13 11
0.244631 0.0693192 -0.0187265 80 16 12
0.244901 0.0698724 -0.0188665 84 18 14
0.244964 0.0696534 -0.0185379 84 17 14
0.244709 0.0690983 -0.0184059 79 16 12
0.244533 0.0685572 -0.0182495 74 13 10
0.244429 0.068033 -0.0181165 68 10 8
0.244417 0.0675188 -0.0179493 67 10 7
0.244402 0.0669988 -0.0178257 65 9 7
0.244455 0.0664695 -0.0176878 64 8 6
0.244541 0.065962 -0.0175412 64 7 5
0.244658 0.0654456 -0.0174081 61 7 6
0.244796 0.0649477 -0.0172755 61 10 7
0.245057 0.0644523 -0.0171589 62 13 8
0.245418 0.0639538 -0.0170642 62 12 8
0.24584 0.0635168 -0.0170055 67 17 12
0.247155 0.0621325 -0.0167144 77 31 27
0.247019 0.062388 -0.016469 78 33 27
0.247303 0.0619399 -0.0163944 81 40 34
0.24718 0.0621964 -0.0161288 87 48 43
0.247192 0.0616116 -0.015863 92 61 55
0.247033 0.0619641 -0.0157668 91 61 56
0.246976 0.0617623 -0.0154788 91 64 59
0.246877 0.0622343 -0.0155994 90 61 58
0.246829 0.0619824 -0.0152615 105 86 79
0.246724 0.0625013 -0.0153983 94 65 61
0.246707 0.0622431 -0.0150528 110 90 82
0.246599 0.0627506 -0.0151852 106 83 80
0.246598 0.0625199 -0.0148572 120 104 94
0.246514 0.0627674 -0.0146267 126 109 98
0.246595 0.0628374 -0.0141186 136 119 107
0.246797 0.062965 -0.0136513 132 121 111
0.246838 0.062681 -0.013856 136 124 112
0.246871 0.0623879 -0.0140563 135 123 111
0.246993 0.0620726 -0.0142067 130 119 109
0.247064 0.0618041 -0.0144112 126 118 108
0.247152 0.0615334 -0.0146321 124 112 101
0.247272 0.06127 -0.0148386 120 108 97
0.246655 0.0625635 -0.0143204 130 116 106
0.246725 0.0622947 -0.0145425 124 111 103
0.246818 0.0620256 -0.0147442 123 105 94
0.246928 0.0617529 -0.0149476 119 103 94
0.24707 0.0614765 -0.0151328 119 101 92
0.247334 0.0610725 -0.0151423 119 103 92
0.24715 0.0614477 -0.0156066 96 66 60
0.247222 0.0612138 -0.0153241 109 88 81
0.247344 0.0611179 -0.0157114 97 69 61
0.247399 0.0609298 -0.0154868 109 88 80
0.24751 0.0614588 -0.0162021 89 49 43
0.246744 0.063007 -0.0155365 90 53 52
0.246852 0.0626684 -0.0156358 87 50 50
0.247041 0.0624835 -0.0159579 86 48 42
0.247029 0.0627143 -0.016304 83 39 34
0.24692 0.0632611 -0.0158969 89 44 42
0.247002 0.062988 -0.0161144 86 42 38
0.2545 0.0809185 -0.0105671 42 9 2
0.254766 0.0810472 -0.0110203 47 9 3
0.254803 0.0812534 -0.0105652 18 7 1
0.255116 0.081305 -0.0107531 30 7 1
0.255106 0.0816519 -0.0104856 7 13 2
0.255497 0.0814903 -0.0108202 13 9 2
0.255529 0.0817263 -0.0105251 7 10 2
0.255867 0.0815948 -0.0109483 12 9 2
0.255932 0.0818221 -0.0106184 7 10 2
0.256359 0.0816945 -0.0110561 14 6 0
0.256363 0.0818676 -0.0106561 8 8 1
0.256733 0.0819773 -0.0107271 12 6 0
0.256712 0.0822387 -0.0104739 6 6 0
0.257094 0.0823239 -0.0105407 5 5 0
0.257037 0.0826349 -0.0103819 1 6 0
0.25745 0.082708 -0.0104519 2 4 0
0.257011 0.082998 -0.0102955 0 7 0
0.257388 0.083091 -0.0103776 1 7 0
0.256964 0.0833845 -0.0102354 0 8 1
0.257361 0.083469 -0.0103191 0 8 0
0.256918 0.0837496 -0.0101379 0 10 1
0.257322 0.0838567 -0.0102481 0 9 1
0.256889 0.0841074 -0.01004 0 10 2
0.257282 0.0842343 -0.0101548 0 9 1
0.256863 0.0844566 -0.00993116 0 12 1
0.257235 0.0846052 -0.0100659 0 11 1
0.256821 0.0848181 -0.00982452 0 11 2
0.257195 0.0849703 -0.00998095 0 12 2
0.256783 0.0851726 -0.00971821 0 12 2
0.257157 0.085331 -0.00986939 0 13 2
0.256755 0.0855147 -0.00959869 0 12 1
0.257116 0.0856705 -0.00973707 0 14 3
0.256739 0.0858356 -0.00944366 0 11 2
0.25709 0.0859945 -0.00960121 0 14 3
0.256703 0.0861534 -0.00928594 0 13 2
0.257076 0.0863225 -0.00946041 0 15 3
0.256683 0.0864661 -0.00911873 0 12 1
0.257092 0.0866689 -0.00928226 0 15 3
0.256674 0.0867783 -0.00895964 0 13 2
0.257001 0.086999 -0.00905131 0 15 4
0.25662 0.0870981 -0.00877604 0 9 2
0.25693 0.0872543 -0.00890444 0 13 2
0.256666 0.0874181 -0.00867537 0 12 2
0.257004 0.0874777 -0.00878858 0 14 2
0.256942 0.08771 -0.00854066 0 13 2
0.257273 0.0875624 -0.00873611 0 16 2
0.257313 0.0878101 -0.00850719 0 13 2
0.257664 0.0875936 -0.00878133 0 16 3
0.257728 0.0878315 -0.00856274 0 15 2
0.258065 0.0875903 -0.00874411 0 16 2
0.258101 0.0878347 -0.00847054 0 15 1
0.258479 0.0875283 -0.00858273 0 16 3
0.258528 0.0878052 -0.00825696 0 16 2
0.258956 0.0874969 -0.0084923 0 16 2
0.258948 0.0877033 -0.00825384 0 17 3
0.259293 0.0876733 -0.00820749 0 17 4
0.259162 0.08788 -0.00793404 0 17 3
0.259506 0.0878535 -0.00780994 0 17 3
0.259066 0.0880905 -0.00759395 0 16 2
0.259409 0.0880667 -0.00744166 0 16 3
0.258978 0.0883094 -0.00722142 0 14 2
0.259318 0.0882728 -0.00709502 0 14 2
0.259226 0.0884575 -0.00685678 0 15 2
0.259582 0.088411 -0.00677308 0 14 3
0.259455 0.0886808 -0.00646628 0 14 2
0.259803 0.0886438 -0.00639485 0 15 2
0.259704 0.0887747 -0.00606352 0 16 3
0.260104 0.0886587 -0.00624296 0 15 2
0.260022 0.088753 -0.00590356 0 14 2
0.260425 0.0886065 -0.00614901 0 15 2
0.26034 0.0886915 -0.00578835 0 14 1
0.260768 0.088503 -0.00603033 0 15 2
0.26067 0.0885404 -0.00566499 0 15 1
0.261108 0.0883517 -0.00592459 0 15 2
0.261009 0.0883692 -0.00553493 0 15 2
0.261452 0.0882494 -0.00578422 0 14 1
0.261345 0.0881824 -0.00539768 0 15 3
0.261786 0.0881712 -0.00567827 0 14 1
0.261681 0.0880424 -0.00526575 0 15 3
0.26212 0.0880468 -0.00556064 0 15 3
0.262007 0.0878841 -0.00512978 0 15 3
0.262457 0.0878877 -0.00541813 0 14 2
0.262332 0.0877297 -0.00499969 0 15 3
0.262782 0.087694 -0.00526687 0 15 2
0.262654 0.0875589 -0.00486297 0 15 3
0.26311 0.0875229 -0.00512069 0 15 3
0.26299 0.0874019 -0.00472894 0 15 3
0.263441 0.0873789 -0.00500086 0 15 3
0.263325 0.0872684 -0.0045978 0 16 3
0.263768 0.087261 -0.00487672 0 16 3
0.263649 0.0871621 -0.00447852 0 17 4
0.264101 0.0871663 -0.00474792 0 17 3
0.263993 0.0870675 -0.00437669 0 17 4
0.264439 0.0870478 -0.0046535 0 18 4
0.26434 0.0869714 -0.00428889 0 18 5
0.264796 0.0869235 -0.00456304 0 19 5
0.26468 0.0868691 -0.0041882 0 18 5
0.265021 0.0867757 -0.00408992 0 20 7
0.264902 0.0867502 -0.00371706 1 20 6
0.26524 0.086665 -0.00361501 1 21 7
0.265117 0.0866802 -0.00322196 1 21 6
0.265456 0.0865795 -0.00312537 0 21 6
0.265325 0.0866266 -0.00272809 1 21 7
0.265661 0.0865301 -0.00263777 0 21 7
0.265598 0.0865773 -0.00241152 0 21 7
0.26592 0.0864733 -0.00229579 1 19 6
0.26579 0.0865736 -0.00197633 1 21 8
0.26602 0.0865014 -0.00181112 1 20 6
0.265688 0.0866647 -0.00162478 1 23 8
0.265908 0.086599 -0.00136689 1 22 8
0.265564 0.0867652 -0.0012552 1 22 8
0.265814 0.0867173 -0.00091381 0 22 7
0.2654 0.086851 -0.000824023 1 21 7
0.265645 0.0868509 -0.000489447 1 21 7
0.265381 0.0869015 -0.000341054 1 22 7
0.265744 0.0868743 -6.86012e-06 0 21 8
0.265346 0.0869426 -2.8016e-05 0 19 5
0.265462 0.0869748 0.00016197 0 21 8
0.265178 0.0869643 0.000241498 0 19 6
0.26549 0.0869651 0.000443403 0 21 7
0.265093 0.0869606 0.000623282 0 19 6
0.265412 0.0869716 0.000810105 0 21 7
0.265228 0.0869725 0.00101155 0 21 8
0.265543 0.0869105 0.00116714 0 21 7
0.265178 0.0869468 0.00137066 0 19 5
0.265527 0.0868755 0.00151328 0 20 6
0.265385 0.0868865 0.00171971 0 20 7
0.265771 0.0867461 0.00180375 0 21 6
0.265337 0.0868578 0.00206889 0 19 6
0.265711 0.0867288 0.00217903 0 19 5
0.26557 0.0867461 0.00239222 0 18 5
0.265937 0.0865647 0.00245494 1 18 5
0.265514 0.086707 0.00274261 0 17 4
0.265861 0.086519 0.00283847 1 17 3
0.26543 0.0866357 0.00311585 1 16 2
0.265771 0.0864029 0.00319784 0 15 3
0.265564 0.0864431 0.00340527 1 16 2
0.265655 0.0863207 0.00356757 0 13 1
0.265628 0.0862572 0.00373293 0 12 1
0.266024 0.0860249 0.00367004 0 12 1
0.265929 0.0858973 0.00405739 0 13 1
0.266331 0.0856508 0.00388256 0 13 1
0.266346 0.085422 0.00416977 0 11 0
0.266652 0.0851259 0.00394461 0 11 1
0.266314 0.0852447 0.00439223 0 11 0
0.266583 0.0848792 0.00428533 0 10 0
0.266249 0.0849671 0.00472532 0 11 0
0.266554 0.0846168 0.00462454 0 9 0
0.266426 0.0846945 0.00475277 0 10 0
0.266589 0.0842145 0.00481697 0 10 0
0.266377 0.0844108 0.00503012 0 10 0
0.26652 0.0839128 0.00506365 0 10 0
0.266289 0.0841153 0.00524929 2 14 1
0.266127 0.083726 0.00539798 7 19 2
0.265889 0.0840109 0.00545464 5 17 1
0.265648 0.0834484 0.005605 18 25 5
0.265442 0.0839538 0.00547532 5 17 2
0.265156 0.0833874 0.00557543 15 22 5
0.264924 0.083845 0.00543813 13 19 4
0.264642 0.0833068 0.0055068 29 30 9
0.264452 0.0838213 0.00540322 12 19 3
0.264191 0.0833043 0.00549256 24 27 8
0.264022 0.0838361 0.00539368 17 20 4
0.263804 0.0833572 0.00553238 34 28 11
0.263614 0.0838521 0.00542209 16 16 3
0.263431 0.0833739 0.00558141 30 24 7
0.263218 0.0838124 0.00548004 16 15 5
0.263097 0.0833893 0.00562724 34 26 9
0.262799 0.0836576 0.00564187 24 21 8
0.262885 0.0831439 0.00577816 53 41 20
0.262584 0.0832203 0.00590022 41 34 19
0.262864 0.0828229 0.00608454 65 60 32
0.262568 0.0829527 0.00622382 45 50 32
0.262647 0.0827781 0.00652194 53 61 42
0.26235 0.0829885 0.00662344 52 61 46
0.262794 0.0827735 0.00681253 52 63 46
0.262555 0.0830058 0.00696063 81 86 64
0.263014 0.0829 0.00714997 80 88 66
0.262757 0.0831522 0.00726639 94 96 71
0.263251 0.0830849 0.00749554 103 105 79
0.262999 0.0833501 0.00759609 105 107 82
0.263483 0.0832527 0.00782879 115 117 92
0.263222 0.083492 0.0079104 120 120 94
0.26369 0.0833871 0.0081471 127 127 99
0.263449 0.0836526 0.0082292 127 126 99
0.263932 0.0835677 0.0084775 138 136 108
0.263681 0.0838311 0.00855373 147 143 112
0.264158 0.0837376 0.00879499 155 149 119
0.26391 0.0840051 0.00886863 155 150 118
0.264375 0.0838995 0.00911907 160 155 124
0.26414 0.0841822 0.00921143 159 157 125
0.264589 0.084047 0.0094645 166 164 134
0.26433 0.0842959 0.00956249 163 163 133
0.264773 0.0841351 0.00981446 169 170 140
0.264515 0.0843711 0.00991376 169 171 142
0.264951 0.0842119 0.0101813 175 174 146
0.264672 0.0844255 0.0102725 173 175 147
0.264856 0.0844547 0.0106404 178 182 154
0.264432 0.0846104 0.0104034 177 181 152
0.265835 0.0868544 0.00045047 0 22 8
0.266162 0.0866724 0.000292042 0 22 7
0.266088 0.0867165 0.000769971 0 23 6
0.266426 0.0865185 0.000669928 0 21 6
0.266348 0.0865304 0.00118158 1 22 7
0.266664 0.0863537 0.000898095 0 21 6
0.266784 0.086227 0.00118595 0 22 9
0.266969 0.0860133 0.000885312 0 22 9
0.267142 0.0858347 0.00119526 0 23 9
0.267278 0.0856103 0.000912212 0 23 9
0.26747 0.08542 0.00119836 0 24 9
0.267549 0.0851946 0.000898637 0 24 9
0.26771 0.0849654 0.00124292 1 23 9
0.267619 0.084861 0.000743022 0 23 9
0.267758 0.0846565 0.00103756 0 22 8
0.267681 0.0845665 0.000555959 0 23 8
0.26781 0.0843593 0.000849154 0 23 8
0.267755 0.0842833 0.000348318 0 24 9
0.267888 0.0840746 0.000640102 0 23 8
0.267919 0.0838346 0.000401745 0 23 8
0.268021 0.0835805 0.000755999 0 21 7
0.267983 0.0835107 0.000244163 0 23 8
0.268061 0.0832944 0.00055439 0 22 8
0.268076 0.0829947 0.000365829 0 21 7
0.268121 0.0830757 0.00086811 0 21 6
0.268149 0.0827316 0.000746116 0 21 6
0.26807 0.0827934 0.00126773 0 19 5
0.268076 0.0825013 0.00106416 0 18 5
0.268041 0.0826071 0.00154329 0 17 4
0.268055 0.0823042 0.00135595 0 18 4
0.267917 0.0823808 0.00184068 0 17 3
0.267943 0.0820804 0.00165496 0 17 3
0.267787 0.0821412 0.00215613 0 16 3
0.267836 0.0818519 0.00196284 0 15 3
0.267642 0.0815901 0.00230232 0 16 3
0.267714 0.0813183 0.00209202 0 13 2
0.267449 0.081048 0.00245481 0 13 2
0.267745 0.0810336 0.00190447 0 12 1
0.267472 0.0807585 0.00225998 0 11 1
0.267711 0.0807298 0.00173271 0 12 1
0.267498 0.0804669 0.00205563 0 11 1
0.267672 0.0804334 0.00153355 0 11 1
0.26751 0.0801818 0.00185428 0 9 1
0.267646 0.0801401 0.00133517 0 9 1
0.267462 0.0798886 0.00167001 0 8 1
0.267592 0.0798483 0.00113982 0 9 1
0.267443 0.0795945 0.00146392 0 7 1
0.267526 0.0795524 0.000941725 0 8 1
0.267417 0.0793131 0.00127112 0 6 1
0.267482 0.0792608 0.000749627 0 9 2
0.267394 0.0790261 0.00108857 0 7 1
0.267445 0.0789826 0.000611566 0 8 2
0.267346 0.0787456 0.000883652 0 9 2
0.267441 0.0787264 0.000373932 0 10 2
0.267246 0.0784426 0.000674263 0 10 2
0.267404 0.0784301 0.000138629 0 12 3
0.26717 0.0781265 0.000482809 0 11 2
0.267323 0.0781086 -5.37932e-05 0 12 3
0.268092 0.0833409 0.00111378 0 21 6
0.268036 0.0830821 0.00147455 0 19 5
0.268003 0.0828918 0.00173087 0 18 5
0.267921 0.0831562 0.00194144 0 18 4
0.267866 0.0826627 0.00203243 0 17 4
0.267806 0.082945 0.00222159 0 17 3
0.267752 0.0828792 0.00231822 0 17 3
0.267685 0.0831673 0.00250237 0 17 2
0.267556 0.0826468 0.00262809 0 15 2
0.267463 0.0829379 0.0028022 0 15 2
0.267284 0.082716 0.00308721 0 15 2
0.267209 0.0830157 0.00327024 0 15 2
0.267052 0.0827995 0.00355231 0 14 2
0.266969 0.0830911 0.00373105 0 13 1
0.266788 0.0828758 0.00401886 0 14 1
0.266904 0.083383 0.00393294 0 11 1
0.26677 0.0831679 0.00422977 0 11 1
0.26687 0.0836653 0.00413313 0 11 0
0.266751 0.0834451 0.00443934 0 8 0
0.266724 0.0837436 0.00462972 0 12 0
0.266676 0.0836586 0.00477675 0 10 0
0.266749 0.0839625 0.00452499 0 9 0
0.266719 0.0842911 0.00447917 0 10 0
0.266774 0.0845293 0.00414216 0 10 0
0.266827 0.0847885 0.00379692 1 12 1
0.26688 0.0850789 0.00341769 1 15 3
0.266655 0.0853655 0.0036412 0 14 1
0.266677 0.0855981 0.00331968 0 16 2
0.266286 0.0858848 0.00354417 0 16 2
0.266623 0.0858384 0.0030168 0 18 3
0.266219 0.0860914 0.00320896 0 15 3
0.26658 0.085946 0.00288414 0 17 3
0.266102 0.0863229 0.00291727 1 17 4
0.266503 0.0861567 0.0025607 0 18 4
0.266243 0.0863473 0.00258565 0 18 4
0.266363 0.0863499 0.00220015 0 19 4
0.266022 0.0865872 0.00208096 0 20 4
0.266113 0.0861286 0.00330593 0 15 3
0.266386 0.0835363 0.00523827 1 15 0
0.266561 0.083336 0.00497512 2 15 0
0.266458 0.0829997 0.00515097 6 18 1
0.266627 0.0832271 0.0047387 0 10 0
0.266564 0.0827285 0.00476142 2 15 2
0.266657 0.0829545 0.00451854 0 13 2
0.266694 0.0826361 0.00434008 0 14 2
0.266883 0.0825605 0.00385584 0 14 2
0.267045 0.0824306 0.00346559 0 13 1
0.2671 0.0825087 0.00336134 0 14 2
0.267112 0.0821464 0.00327914 0 14 2
0.26736 0.0824336 0.00290361 0 14 2
0.267185 0.081867 0.00307481 0 14 3
0.267443 0.0821493 0.00270306 0 15 3
0.26731 0.0816032 0.00284732 0 15 2
0.267562 0.0818781 0.00250109 0 15 3
0.267399 0.0813214 0.00265926 0 14 3
0.267704 0.0824222 0.00235089 0 16 3
0.265979 0.0833384 0.00553328 17 25 5
0.26622 0.0831229 0.00542485 8 20 2
0.265807 0.0829049 0.00570865 33 33 11
0.26608 0.0827427 0.00558354 21 27 6
0.265865 0.0823303 0.00569808 37 34 11
0.266244 0.0824525 0.00542631 21 25 6
0.266045 0.0820234 0.00556431 37 32 11
0.266371 0.0821032 0.0052639 17 23 5
0.26622 0.0817303 0.00539877 30 28 8
0.266391 0.081929 0.00523315 16 23 4
0.266389 0.0814878 0.00514142 28 28 8
0.266503 0.081736 0.00499312 18 22 6
0.266472 0.0812346 0.00507254 34 31 11
0.266609 0.0814624 0.00477483 15 22 7
0.266602 0.0809565 0.00489355 22 26 9
0.266758 0.0811925 0.00456738 12 21 5
0.266714 0.0806651 0.00471456 23 26 8
0.26685 0.0809123 0.00438949 15 21 7
0.266794 0.0803846 0.00452449 13 21 5
0.266889 0.0806228 0.0042038 9 19 5
0.26686 0.0801031 0.00432869 13 18 3
0.266926 0.080331 0.00400162 9 17 4
0.266956 0.0798188 0.00411726 8 15 2
0.267008 0.0800571 0.00379799 5 12 1
0.266985 0.0795612 0.00391423 8 13 1
0.267078 0.0797831 0.00359454 4 11 0
0.267056 0.079511 0.0033952 3 12 1
0.267082 0.0800014 0.00327094 0 10 0
0.267158 0.0797283 0.00306433 0 10 0
0.267102 0.079963 0.00275728 0 10 1
0.267175 0.0796888 0.00255053 0 8 0
0.267171 0.0801965 0.00243818 0 11 0
0.267272 0.0799226 0.00220041 0 8 1
0.267332 0.079637 0.00197276 0 7 1
0.267336 0.0793625 0.0017987 0 7 1
0.267314 0.079078 0.00159982 0 7 1
0.267223 0.0787792 0.00140223 0 8 1
0.267113 0.0784619 0.00120707 0 9 2
0.267029 0.078156 0.00102204 0 9 2
0.266964 0.0782037 0.00155393 3 7 2
0.266895 0.0779718 0.00188871 7 6 1
0.26693 0.078266 0.00208211 3 6 1
0.26687 0.0780251 0.00240524 7 5 1
0.266888 0.0783151 0.00261212 7 7 1
0.267031 0.0785139 0.00173975 0 7 1
0.266971 0.0785636 0.00228126 3 7 1
0.266916 0.0786102 0.00281325 3 7 1
0.266855 0.0786564 0.00334376 7 9 0
0.266796 0.0786963 0.00388382 8 10 1
0.266804 0.0789928 0.00408092 10 13 1
0.266692 0.0790278 0.00462089 12 14 1
0.266799 0.0792863 0.0042698 10 14 1
0.26666 0.0793232 0.0048033 13 16 2
0.266812 0.0795881 0.00445179 11 16 2
0.266608 0.0796119 0.00498479 31 23 6
0.266795 0.0798804 0.00463879 21 21 6
0.266719 0.0801495 0.00482079 22 23 6
0.266924 0.0792594 0.00373036 7 12 1
0.266975 0.0792079 0.00320042 1 9 0
0.267151 0.0794599 0.00286301 0 9 0
0.267081 0.0791651 0.00266495 0 8 0
0.267245 0.0794289 0.00232602 0 8 0
0.267191 0.079123 0.00212838 0 7 0
0.266886 0.078961 0.00354329 4 10 0
0.266936 0.0789068 0.00301016 3 7 0
0.26701 0.0788661 0.00247126 0 7 0
0.2671 0.0788219 0.00193791 0 7 1
0.266556 0.079077 0.00514128 21 18 3
0.266531 0.0793596 0.0053483 45 25 8
0.266471 0.0798844 0.00518657 35 28 9
0.266445 0.0796362 0.00553342 47 30 11
0.266314 0.0801441 0.00539673 48 37 13
0.266267 0.0799581 0.00580163 59 47 21
0.266041 0.0802956 0.0057704 49 47 20
0.266131 0.0801062 0.00616648 80 68 36
0.265742 0.0804303 0.00590245 54 50 21
0.265878 0.0803116 0.00632791 80 71 37
0.265572 0.0804861 0.00643799 89 82 47
0.265962 0.0803135 0.00663527 111 97 58
0.265706 0.0804644 0.00678291 113 99 60
0.266105 0.0803192 0.00697347 127 110 71
0.265808 0.0804836 0.00707713 128 111 73
0.265983 0.0805232 0.00742214 137 124 89
0.265549 0.0806432 0.00721164 127 117 81
0.265747 0.080691 0.00757516 138 126 90
0.265481 0.0808888 0.0076109 138 132 100
0.265671 0.080975 0.00794381 146 140 108
0.26525 0.0811625 0.00766995 135 133 104
0.265477 0.0812965 0.00799077 139 138 109
0.265056 0.0814911 0.00773511 124 127 102
0.265266 0.0816753 0.0080654 136 137 110
0.264826 0.0818538 0.00775269 121 126 100
0.265073 0.0820652 0.0081216 136 140 113
0.264637 0.0822346 0.00782447 120 125 100
0.264864 0.0824267 0.00817893 131 136 111
0.264424 0.0825765 0.00789844 122 126 99
0.264661 0.082753 0.00824932 135 140 114
0.264189 0.0828712 0.00798538 122 125 98
0.264405 0.0830141 0.00831099 135 135 108
0.263948 0.083146 0.00807359 124 127 102
0.26417 0.0832871 0.00839449 138 138 111
0.263723 0.0829848 0.0077376 113 116 93
0.263493 0.0828051 0.00739685 106 107 80
0.263179 0.0825813 0.00695807 85 89 66
0.26304 0.0825032 0.00671596 61 69 50
0.262906 0.082549 0.00643218 73 73 48
0.26322 0.0822033 0.00659679 83 82 53
0.263152 0.0823728 0.00629377 88 77 41
0.263433 0.0822155 0.00620272 101 85 47
0.263176 0.0826134 0.00603767 77 60 27
0.263506 0.0825102 0.00590709 86 67 31
0.263232 0.0829434 0.00576472 53 38 15
0.263619 0.0828986 0.00568758 63 45 19
0.263528 0.0823662 0.0070242 88 91 65
0.263664 0.0819854 0.0067974 84 88 61
0.263949 0.082197 0.00723458 105 105 79
0.264123 0.081878 0.00715131 109 110 85
0.264374 0.0820183 0.00747716 110 111 89
0.264378 0.0815779 0.00714625 111 111 84
0.264814 0.0813689 0.00741455 121 123 98
0.264186 0.0823714 0.00756346 112 115 91
0.263965 0.0826978 0.00764258 113 116 91
0.263752 0.0825213 0.0073206 102 102 78
0.266576 0.0804061 0.00502291 41 30 11
0.26634 0.0806372 0.00520354 33 32 10
0.26627 0.0804004 0.00534748 52 37 14
0.266127 0.0808118 0.00538618 53 43 18
0.265937 0.0806024 0.00542172 45 43 17
0.265765 0.0808479 0.00557924 56 47 21
0.265463 0.0806683 0.00601489 72 62 31
0.265265 0.0806267 0.00649097 101 90 53
0.265402 0.0806187 0.00687114 115 105 70
0.264996 0.0807749 0.00662092 111 102 67
0.265131 0.0807915 0.0070183 122 113 80
0.264714 0.0809681 0.0067589 115 105 68
0.265005 0.0810636 0.00730725 124 122 92
0.2645 0.0812028 0.00691446 110 104 71
0.265295 0.0808238 0.00733088 130 124 92
0.266486 0.0808132 0.00505203 31 30 10
0.266243 0.0811237 0.00522344 35 35 13
0.266072 0.0812985 0.00549231 49 36 13
0.265888 0.0815817 0.00562031 58 45 19
0.265627 0.0817664 0.00576764 63 46 18
0.265505 0.0823377 0.00578819 56 44 18
0.265358 0.0828931 0.00570821 33 32 11
0.265672 0.0811723 0.00577912 75 57 27
0.265332 0.0812163 0.00592804 75 63 30
0.265145 0.0808247 0.00617022 101 78 41
0.264926 0.0812714 0.00598789 95 72 39
0.264864 0.0809421 0.00631375 113 93 54
0.264594 0.081135 0.00632613 109 89 53
0.264336 0.0812048 0.00653231 111 90 53
0.264064 0.0813975 0.0066208 117 104 64
0.263835 0.081663 0.00671014 101 95 62
0.26522 0.0817914 0.00586548 73 57 28
0.264839 0.081851 0.00590259 79 60 26
0.264622 0.0814809 0.00606549 92 73 38
0.264453 0.0819089 0.00596552 80 60 26
0.264263 0.0814691 0.00617718 98 76 39
0.264095 0.0819749 0.00603445 96 73 37
0.263947 0.0816376 0.00627283 111 92 52
0.263759 0.0820836 0.00610081 94 72 34
0.263665 0.0817886 0.00633376 110 90 49
0.263445 0.0819307 0.00648736 106 95 59
0.263857 0.0824306 0.00584593 76 52 21
0.264004 0.0828492 0.00565684 46 36 14
0.264236 0.0823775 0.00580805 74 55 23
0.264424 0.0828293 0.00564154 51 41 16
0.264658 0.0823624 0.00580363 60 46 20
0.264889 0.0828539 0.00566961 34 32 12
0.26509 0.082353 0.00580509 57 43 17
0.267067 0.0804527 0.00265003 0 11 0
0.267045 0.0802387 0.00295463 0 10 1
0.267042 0.0802906 0.00347697 0 11 1
0.266321 0.0826889 0.00532987 15 24 4
0.266466 0.0824272 0.00503086 9 17 1
0.266615 0.0824116 0.00465831 1 15 2
0.266783 0.0823369 0.00417444 0 16 2
0.266926 0.0821841 0.00380404 1 15 2
0.254124 0.0808708 -0.00993834 18 13 2
0.254329 0.0809953 -0.010209 18 12 2
0.254279 0.0812859 -0.0100393 3 17 3
0.254481 0.0813687 -0.0102239 5 13 4
0.254448 0.0816878 -0.0100087 1 18 6
0.254809 0.0815282 -0.0102942 7 16 2
0.254842 0.0818243 -0.0101181 2 18 5
0.255102 0.0819407 -0.0102752 2 16 4
0.2555 0.0820329 -0.0103344 2 11 3
0.255923 0.0820827 -0.0103623 4 10 2
0.256354 0.0821529 -0.0103919 5 8 1
0.256671 0.0825407 -0.0102888 2 6 1
0.256651 0.0828674 -0.01015 1 9 1
0.256587 0.0831904 -0.0100416 0 10 2
0.256502 0.0835532 -0.00993885 0 11 1
0.2565 0.0839206 -0.0098535 0 13 2
0.256516 0.084287 -0.00976656 0 13 2
0.256477 0.0846413 -0.0096509 0 14 3
0.256428 0.0849873 -0.00951933 0 12 2
0.256401 0.085326 -0.00938749 0 12 2
0.256401 0.0856404 -0.00927129 0 12 2
0.256345 0.0859105 -0.0090836 0 11 3
0.256323 0.0862023 -0.00886512 0 9 2
0.256334 0.0865455 -0.00870936 0 11 2
0.25635 0.0868413 -0.00859404 0 11 2
0.256282 0.0871174 -0.00831806 0 12 2
0.256595 0.087585 -0.00835106 0 11 1
0.256934 0.0879549 -0.00823739 0 11 0
0.257283 0.0880392 -0.00826505 0 13 0
0.257672 0.0880709 -0.00828223 0 14 1
0.257278 0.0882451 -0.00800064 0 12 0
0.257671 0.0882816 -0.00795297 1 12 0
0.25728 0.08842 -0.00763398 1 10 0
0.257667 0.0884442 -0.00757126 0 10 0
0.257271 0.0885642 -0.0071815 1 8 0
0.257591 0.088527 -0.00738936 1 10 0
0.25752 0.0886445 -0.00703239 1 9 0
0.257895 0.0885353 -0.00729604 1 10 0
0.257825 0.0886928 -0.0069792 0 11 0
0.258217 0.0885519 -0.00716827 0 12 1
0.258137 0.0887216 -0.00683908 0 10 0
0.258544 0.088534 -0.00703193 0 12 1
0.258492 0.0887324 -0.00672946 0 12 1
0.258862 0.0885505 -0.00687336 0 13 1
0.258807 0.0887435 -0.00657724 0 13 1
0.259127 0.0887157 -0.00653422 0 14 2
0.258965 0.0888599 -0.00616723 0 14 2
0.259345 0.0888272 -0.00611473 0 15 2
0.259213 0.0888883 -0.0057888 0 14 1
0.259564 0.0888514 -0.0056619 0 14 2
0.259145 0.0888938 -0.00542075 0 14 2
0.259464 0.0888271 -0.00529062 0 15 2
0.259041 0.0888142 -0.00509819 0 16 3
0.259349 0.0886289 -0.00489831 0 16 4
0.258979 0.088743 -0.00495923 0 16 3
0.258899 0.0884113 -0.00453606 0 16 5
0.258563 0.0885352 -0.00464941 0 15 4
0.258468 0.0883581 -0.00430498 0 16 4
0.258127 0.0884078 -0.00438981 0 16 4
0.258014 0.0882886 -0.00398819 0 17 5
0.257678 0.0883425 -0.00413881 0 17 5
0.257569 0.088269 -0.00374254 0 17 5
0.25733 0.0884067 -0.00418244 0 17 6
0.257213 0.0883325 -0.00378327 0 17 6
0.256983 0.0884651 -0.00424795 0 16 4
0.256858 0.0884194 -0.00384471 0 16 5
0.256633 0.0885221 -0.00430055 0 14 5
0.25651 0.0884843 -0.00391101 0 16 6
0.256257 0.0884951 -0.00427777 0 13 4
0.256132 0.0884467 -0.00391025 0 16 6
0.255854 0.0883649 -0.00414015 0 16 4
0.255746 0.0883057 -0.00372925 0 17 7
0.255458 0.0881316 -0.00401904 0 19 7
0.255351 0.0880293 -0.003594 0 22 8
0.255161 0.0878482 -0.00393052 0 22 7
0.255002 0.0876389 -0.00361021 0 23 9
0.254872 0.0874178 -0.00395686 0 20 7
0.254735 0.0871576 -0.00359069 1 19 7
0.254636 0.0869121 -0.00388446 1 20 6
0.254649 0.0869768 -0.00336143 0 21 7
0.254518 0.0866197 -0.00349343 1 20 7
0.254559 0.0867219 -0.00306794 1 21 8
0.254461 0.0864663 -0.00330505 1 22 8
0.254373 0.0862431 -0.00299967 1 22 8
0.254269 0.0859827 -0.00324945 0 22 8
0.254203 0.0857479 -0.00292831 0 22 8
0.254106 0.0854825 -0.00318129 0 22 9
0.254063 0.0852422 -0.00284104 0 23 9
0.253983 0.0849699 -0.00308919 0 22 9
0.253942 0.0847231 -0.00274805 0 23 9
0.253889 0.0844569 -0.00299077 0 24 10
0.253857 0.0842059 -0.00264336 0 23 8
0.25381 0.083933 -0.00287599 0 24 9
0.253766 0.0840036 -0.00238923 0 22 7
0.253753 0.0837108 -0.00257377 0 23 8
0.253718 0.0834932 -0.00227284 0 22 8
0.2537 0.0832543 -0.00252941 0 23 8
0.253607 0.0829618 -0.00213985 0 22 8
0.253715 0.0829704 -0.00273076 0 22 9
0.253629 0.0826707 -0.00232507 0 21 7
0.253744 0.0826641 -0.00291489 0 22 8
0.25366 0.0823932 -0.00253237 0 22 8
0.253751 0.082359 -0.00308448 0 21 8
0.253697 0.0821114 -0.0027279 0 21 8
0.253778 0.082073 -0.0032701 0 22 9
0.253736 0.0818228 -0.00293131 0 21 7
0.253827 0.0817762 -0.00346839 0 22 8
0.253747 0.0815145 -0.00310698 0 20 7
0.2569 0.0881623 -0.00788892 0 10 0
0.256886 0.0883323 -0.0075041 1 9 0
0.256853 0.08847 -0.00710691 0 8 0
0.257019 0.0886249 -0.00669875 0 8 0
0.256699 0.0885054 -0.00671717 0 10 0
0.256669 0.0885692 -0.00640758 0 8 0
0.256311 0.0883784 -0.00652837 0 8 0
0.256485 0.088557 -0.00608354 0 9 0
0.256156 0.0883802 -0.00614063 0 8 0
0.256324 0.088548 -0.00574283 0 10 1
0.256017 0.0883846 -0.00577836 0 10 1
0.256238 0.0885286 -0.00536087 0 12 2
0.255866 0.0883504 -0.00538715 0 11 2
0.256077 0.0884785 -0.00496383 0 13 2
0.255776 0.0883318 -0.00504418 0 13 3
0.25565 0.08827 -0.00472855 0 13 3
0.255505 0.0881612 -0.00514818 0 14 4
0.255358 0.0880592 -0.00488409 0 14 4
0.255334 0.087998 -0.00535101 0 14 3
0.255097 0.0877959 -0.00507608 0 15 3
0.254958 0.0876403 -0.00548312 0 13 3
0.25476 0.0874157 -0.00515974 0 15 4
0.254655 0.0872325 -0.00559924 0 14 2
0.254588 0.0871192 -0.0054747 0 14 2
0.254459 0.0868576 -0.00574978 0 15 3
0.254317 0.0866716 -0.00543008 0 16 4
0.254203 0.0863967 -0.00573031 0 15 3
0.254149 0.0861761 -0.00535473 0 16 4
0.254079 0.0859015 -0.00561722 0 16 4
0.254057 0.0856596 -0.00526911 0 18 6
0.25398 0.0853878 -0.00557373 0 19 6
0.253997 0.0851387 -0.0051011 0 20 6
0.253937 0.0848778 -0.00542206 0 20 7
0.25396 0.0846066 -0.00501539 0 21 8
0.253917 0.0843854 -0.00534167 0 21 8
0.253922 0.0840804 -0.00492581 0 23 9
0.253928 0.0840033 -0.00538155 0 23 8
0.253908 0.083794 -0.00509656 0 25 10
0.253906 0.0835368 -0.00531114 0 24 10
0.25389 0.0835578 -0.00479486 0 24 9
0.253892 0.0832801 -0.00501288 1 25 9
0.253839 0.0830669 -0.00467353 1 24 10
0.2539 0.08299 -0.00512937 1 23 9
0.253863 0.082758 -0.0048483 1 24 9
0.253924 0.0827163 -0.00535501 1 22 9
0.253889 0.0824634 -0.00502642 1 23 9
0.253925 0.0823444 -0.0054643 1 21 8
0.253923 0.0821676 -0.00515045 0 22 9
0.25393 0.0819029 -0.00540606 0 21 8
0.253909 0.0819255 -0.00488123 1 23 8
0.253934 0.0816301 -0.00506376 0 22 8
0.253868 0.0816987 -0.00455946 1 23 10
0.253905 0.081394 -0.00473509 0 22 8
0.253855 0.0814447 -0.00422012 1 22 9
0.253853 0.0814888 -0.00366995 0 22 8
0.253863 0.0817421 -0.00402261 1 22 8
0.253854 0.0820108 -0.00378759 0 22 9
0.253819 0.0822775 -0.0041875 1 24 9
0.253828 0.0825447 -0.00395009 1 23 9
0.253812 0.0828078 -0.00433032 1 24 10
0.253818 0.0830757 -0.00410291 1 24 10
0.253823 0.0833226 -0.00444611 0 24 10
0.253817 0.083591 -0.00423033 0 24 10
0.25389 0.0838374 -0.00453287 0 24 9
0.253829 0.0838809 -0.00405405 0 24 9
0.253899 0.0841399 -0.00431583 0 23 9
0.253858 0.0841626 -0.00382032 0 24 10
0.253911 0.0844346 -0.00414487 0 23 9
0.253918 0.0846832 -0.00393009 0 23 9
0.253948 0.0849132 -0.00427117 0 22 8
0.253996 0.0851939 -0.00401239 0 21 8
0.25406 0.0854298 -0.00433337 0 21 8
0.254126 0.085702 -0.00408531 0 21 8
0.25416 0.0859458 -0.00441285 0 21 8
0.254277 0.0862125 -0.00415623 0 21 8
0.254336 0.0864698 -0.00448585 0 19 6
0.254546 0.086686 -0.00420728 1 19 6
0.254594 0.0869425 -0.00452133 0 18 5
0.254741 0.0872024 -0.00424895 0 17 6
0.25484 0.0874126 -0.00454743 0 17 5
0.25504 0.0876797 -0.00434885 0 18 4
0.254891 0.0875165 -0.00470315 0 16 4
0.254983 0.0876539 -0.00483478 0 17 5
0.253833 0.0819861 -0.00439756 1 23 9
0.253867 0.0822231 -0.00470041 0 24 10
0.253819 0.0823034 -0.00359913 0 23 9
0.253799 0.0825915 -0.00340583 1 23 9
0.253781 0.0828733 -0.00321024 1 23 9
0.253766 0.0830159 -0.00279881 0 23 9
0.25378 0.0831509 -0.00298494 0 23 8
0.253766 0.0834211 -0.00276472 0 24 9
0.253797 0.0836613 -0.00309763 0 24 9
0.253838 0.0841838 -0.00322668 0 23 9
0.253929 0.0847019 -0.00333097 0 23 9
0.254015 0.0852157 -0.00343045 0 23 9
0.254166 0.0857197 -0.00349716 0 23 8
0.254336 0.0862194 -0.00356439 1 22 8
0.253824 0.0828291 -0.0037331 1 23 10
0.253832 0.0833464 -0.00386714 0 25 9
0.25384 0.0836613 -0.00371031 0 24 10
0.253816 0.0830996 -0.00352609 0 24 9
0.253804 0.0833865 -0.0033272 0 24 9
0.253826 0.0839109 -0.00345382 0 25 9
0.253881 0.0844359 -0.00357385 0 23 9
0.253964 0.084955 -0.00369224 0 22 9
0.254084 0.0854587 -0.00375306 0 22 9
0.254212 0.085962 -0.00382228 0 22 9
0.254412 0.0864168 -0.00381863 0 20 7
0.255177 0.0878658 -0.00417499 0 19 5
0.255307 0.0880026 -0.00446418 0 18 6
0.255608 0.0882349 -0.00434989 0 16 4
0.255974 0.0884266 -0.0045386 0 13 4
0.256382 0.0885642 -0.00470174 0 14 4
0.256518 0.0886253 -0.00513885 0 11 2
0.256752 0.0885953 -0.00470359 0 15 3
0.256869 0.0886931 -0.005093 0 12 2
0.257101 0.088569 -0.00463568 0 15 3
0.257223 0.088719 -0.00502587 0 13 2
0.257463 0.0885183 -0.00458529 0 16 4
0.257564 0.0887348 -0.0049924 0 13 2
0.257882 0.0886665 -0.00484894 0 15 3
0.257974 0.0888529 -0.00518396 0 13 2
0.258312 0.0888236 -0.00510077 0 14 2
0.258374 0.0888994 -0.00526469 0 15 2
0.258694 0.0888556 -0.00514718 0 15 2
0.258789 0.0889252 -0.00544039 0 14 2
0.25864 0.0887921 -0.00501976 0 14 2
0.258229 0.0886036 -0.00473882 0 15 3
0.257809 0.0884526 -0.00449068 0 16 4
0.256667 0.0886813 -0.005588 0 11 1
0.257003 0.088781 -0.00545671 0 11 2
0.25711 0.0888323 -0.00584501 0 12 1
0.257321 0.0888331 -0.00539847 0 12 2
0.257445 0.0888986 -0.00574114 0 12 1
0.257652 0.0888526 -0.00532895 0 13 2
0.257771 0.0889364 -0.00564345 0 13 1
0.25804 0.0889146 -0.00537353 0 13 2
0.258131 0.088961 -0.00572209 0 13 2
0.258468 0.0889526 -0.00558739 0 13 1
0.258554 0.0889392 -0.00596696 0 14 2
0.258877 0.0889272 -0.00578002 0 15 2
0.255215 0.0879105 -0.0046798 0 16 4
0.253928 0.0843383 -0.00466728 0 22 9
0.253932 0.0845793 -0.0044447 0 21 8
0.25398 0.0848174 -0.00471492 0 21 7
0.254014 0.085197 -0.00462798 0 21 8
0.254062 0.0854747 -0.00492157 0 19 6
0.254107 0.0856797 -0.00466643 0 19 6
0.254113 0.085936 -0.00499844 0 18 5
0.254181 0.0861996 -0.00473382 0 19 6
0.254242 0.0864453 -0.00507671 0 18 4
0.254409 0.0867032 -0.00480675 0 18 4
0.254503 0.0869238 -0.00513702 0 16 3
0.254638 0.0871945 -0.00483045 0 18 5
0.253831 0.0825147 -0.00453588 1 24 10
0.255555 0.0881413 -0.00554879 0 13 3
0.2552 0.0878221 -0.00575478 0 12 2
0.254867 0.0874425 -0.00589696 0 11 1
0.254639 0.0870925 -0.00600394 0 12 1
0.254534 0.0868039 -0.00622779 0 13 2
0.254348 0.08661 -0.00599353 0 14 2
0.254315 0.0863389 -0.00622346 0 15 2
0.254152 0.0860823 -0.00592582 0 15 3
0.254074 0.0856738 -0.00590302 0 17 5
0.254035 0.0853603 -0.00599186 0 19 6
0.253924 0.0850662 -0.0058271 0 21 8
0.254065 0.0851376 -0.00623821 0 19 6
0.253952 0.0848521 -0.00608274 0 20 8
0.254095 0.0848339 -0.00648743 0 21 8
0.253951 0.0845612 -0.00620166 0 21 9
0.254089 0.0844879 -0.00666246 0 21 7
0.253929 0.0842329 -0.00636909 0 22 8
0.254067 0.0841563 -0.00681246 0 21 7
0.253936 0.0839811 -0.00659177 0 22 9
0.25398 0.0837368 -0.00680371 0 22 9
0.25385 0.0837634 -0.00632511 0 24 10
0.253808 0.0834728 -0.00655993 0 23 10
0.253835 0.0832528 -0.00615983 0 23 9
0.253795 0.0829794 -0.00642051 0 22 8
0.253833 0.0827829 -0.00603553 0 21 7
0.253811 0.082459 -0.00621324 0 20 7
0.253876 0.082575 -0.00578856 0 21 8
0.253871 0.0821655 -0.005818 0 19 7
0.253803 0.0820177 -0.00622212 0 19 6
0.253726 0.0818761 -0.00665158 0 17 5
0.253695 0.081635 -0.00693186 0 17 5
0.253688 0.081366 -0.00715035 0 16 4
0.253756 0.0822353 -0.00654854 0 18 5
0.25375 0.0821292 -0.00699675 0 20 6
0.25375 0.0818424 -0.00727333 0 17 5
0.253739 0.0815065 -0.00743646 1 16 5
0.25388 0.0829836 -0.00574156 1 22 8
0.253853 0.083985 -0.00605362 0 21 8
0.25387 0.0842812 -0.00583803 0 23 9
0.253897 0.0838246 -0.00567242 0 23 9
0.253874 0.08466 -0.00575001 0 22 9
0.254118 0.0811471 -0.0097743 5 16 5
0.254271 0.081554 -0.00981061 1 19 4
0.254423 0.0819451 -0.00975649 0 20 6
0.254672 0.0820637 -0.00985949 0 19 5
0.254433 0.0822342 -0.0095519 0 20 5
0.254656 0.082332 -0.00962744 0 20 6
0.254421 0.0824637 -0.00927798 0 22 6
0.25468 0.0826255 -0.00945997 0 21 5
0.254442 0.0827213 -0.00903516 0 22 6
0.254701 0.0829141 -0.00929253 0 21 7
0.254669 0.0831625 -0.0090938 0 21 8
0.254997 0.0831061 -0.00940444 0 20 6
0.254964 0.0834106 -0.00919778 0 19 6
0.255292 0.0835234 -0.00940883 0 17 4
0.255216 0.0838337 -0.00919675 0 20 6
0.255574 0.0839711 -0.00939417 0 18 5
0.255502 0.0842738 -0.00921565 0 19 4
0.255853 0.0844089 -0.00938792 0 15 4
0.255771 0.0847308 -0.00919867 0 17 5
0.256126 0.0848231 -0.0093987 0 14 3
0.256052 0.0851613 -0.00922491 0 13 3
0.256195 0.0844787 -0.00953982 0 15 2
0.255929 0.0840882 -0.00954842 0 16 4
0.255641 0.0836647 -0.0095761 0 16 5
0.25535 0.0832231 -0.00961625 0 18 5
0.255036 0.0828084 -0.00961381 0 19 5
0.25627 0.0841577 -0.00966392 0 14 2
0.256056 0.0837583 -0.0096894 0 15 4
0.255699 0.0833883 -0.00975066 0 17 5
0.255733 0.0830423 -0.00987875 0 17 4
0.255358 0.0829165 -0.0097963 0 18 5
0.255412 0.0826382 -0.00997525 0 17 7
0.25506 0.0825092 -0.00982836 0 19 5
0.255107 0.0822232 -0.0100481 0 18 6
0.256068 0.0834231 -0.00981581 0 13 3
0.253635 0.0812787 -0.00279886 0 20 6
0.253645 0.081566 -0.00258082 0 19 6
0.253631 0.0818959 -0.00243397 0 19 6
0.253523 0.0816462 -0.00208693 0 18 5
0.253453 0.0816882 -0.00156453 0 18 5
0.253419 0.0819875 -0.00137013 0 17 4
0.253355 0.0820922 -0.00091451 0 17 5
0.25332 0.0823456 -0.000665601 0 17 5
0.25329 0.0826289 -0.000461575 0 17 5
0.253389 0.0822624 3.61875e-05 0 16 5
0.253339 0.0825909 0.000195814 0 16 5
0.253401 0.0820685 0.000461943 0 14 4
0.253388 0.0823517 0.000637468 0 15 4
0.253363 0.0821212 0.00090009 1 15 5
0.253382 0.0825819 0.000865372 0 14 3
0.253343 0.082363 0.00115739 0 15 4
0.253361 0.0828533 0.00107657 0 14 3
0.253341 0.0826344 0.00137591 0 14 3
0.253375 0.083122 0.00131356 0 14 3
0.253311 0.0828968 0.00162211 0 14 3
0.253284 0.083196 0.00178612 0 14 3
0.253222 0.0829617 0.0020975 0 15 4
0.25319 0.0832644 0.00225454 0 14 3
0.253148 0.0830723 0.0025297 0 15 3
0.253172 0.0835531 0.00246323 0 15 4
0.253137 0.0833444 0.00276517 0 16 5
0.253138 0.0837189 0.00281459 0 16 4
0.253114 0.0835371 0.00311597 0 15 4
0.253132 0.0839969 0.0030123 0 16 4
0.253121 0.0838069 0.00333502 0 16 4
0.253133 0.0842974 0.00319968 0 15 4
0.253173 0.0840889 0.00356122 0 15 4
0.253178 0.0846136 0.00339634 0 14 4
0.253233 0.0844007 0.00374817 0 14 5
0.253306 0.0849118 0.00363815 0 14 3
0.253321 0.0846714 0.00395178 0 14 4
0.253462 0.0849852 0.00414335 0 14 3
0.253418 0.0844758 0.00427964 0 12 4
0.253572 0.084791 0.00447818 0 11 3
0.253495 0.0842776 0.00457723 0 12 4
0.253748 0.0845536 0.00476274 0 5 0
0.253634 0.0840786 0.00483278 0 9 2
0.253779 0.0841969 0.00493722 0 10 2
0.253808 0.083885 0.00505362 0 7 1
0.254023 0.084222 0.00513131 0 8 3
0.25405 0.0838555 0.00521947 0 5 1
0.254327 0.0841939 0.00526478 0 4 0
0.254328 0.0837183 0.00526415 0 5 1
0.254643 0.0841242 0.00532911 0 2 0
0.254668 0.0836006 0.00533027 0 5 0
0.254966 0.0840119 0.00534561 0 4 0
0.254988 0.0834973 0.00538366 0 7 0
0.255297 0.083896 0.00537826 0 5 0
0.255338 0.0834273 0.00542518 0 6 1
0.255675 0.0838455 0.00540868 0 6 1
0.255693 0.0833383 0.00547178 0 9 5
0.256029 0.0837835 0.00546713 0 6 1
0.256012 0.0832084 0.00555604 0 13 7
0.256348 0.0836144 0.00558134 0 9 6
0.256335 0.08308 0.00571392 4 18 13
0.256696 0.0834494 0.00573285 3 15 9
0.256685 0.0829836 0.00589594 13 30 20
0.257073 0.0833123 0.00589305 15 30 21
0.257033 0.0828632 0.00614813 21 39 28
0.257407 0.0831619 0.0061127 22 39 30
0.257346 0.0829514 0.00648397 36 51 39
0.257684 0.0831875 0.00649361 38 51 34
0.257525 0.0832103 0.00687147 59 70 51
0.257867 0.0834126 0.00689571 50 61 45
0.257609 0.0835239 0.0072468 70 79 59
0.257993 0.0836944 0.00728467 65 74 56
0.257559 0.0838423 0.00761996 74 80 60
0.257908 0.0839901 0.00770068 75 83 65
0.257456 0.0840827 0.00798349 77 85 67
0.25781 0.0842226 0.008078 83 82 60
0.25735 0.0843229 0.00833659 96 99 78
0.257752 0.0844535 0.00841464 106 99 72
0.253577 0.082146 -0.00219105 0 20 6
0.253476 0.0812937 -0.000381868 0 13 4
0.253497 0.0810806 -0.000121797 0 13 4
0.253498 0.0810593 -0.000637602 1 13 4
0.253534 0.0807894 -0.000355428 1 12 3
0.253538 0.080715 -0.000802502 2 14 4
0.253543 0.080519 -0.000425771 2 12 4
0.253514 0.0802631 -0.000683777 5 12 4
0.253538 0.0803112 -0.000281764 5 11 3
0.253507 0.0800133 -0.000386737 9 10 3
0.253489 0.0801685 2.02507e-05 6 11 3
0.253441 0.0797981 -9.50098e-05 13 10 3
0.253388 0.0798779 0.000340208 20 10 3
0.253354 0.079531 0.000200598 24 11 3
0.253268 0.0794158 0.000529733 32 12 3
0.253311 0.0791038 0.000181228 40 12 2
0.253274 0.0790755 0.000470493 41 12 2
0.253235 0.0787994 0.000413913 48 12 3
0.253222 0.0788355 0.000642626 44 12 2
0.253177 0.0785234 0.000459736 49 12 3
0.253111 0.0786322 0.000901928 46 11 3
0.253089 0.0783594 0.000717962 56 11 4
0.252991 0.0781731 0.000975262 55 12 3
0.253078 0.0781156 0.000499522 53 12 3
0.252934 0.0778793 0.000801057 57 14 3
0.252989 0.077861 0.000318553 59 13 4
0.252753 0.0776737 0.000497572 57 12 5
0.25288 0.077716 -0.000105979 57 13 4
0.252678 0.0775733 0.000170158 57 12 5
0.252722 0.0776048 -0.000192322 56 13 4
0.252398 0.0774667 1.70358e-05 52 11 4
0.252515 0.0775165 -0.000437392 46 11 3
0.252101 0.077371 -0.000172216 47 10 5
0.252246 0.0774244 -0.000662591 42 10 4
0.251858 0.0772959 -0.000549054 43 10 4
0.2519 0.0773091 -0.000700245 40 10 4
0.251631 0.0772373 -0.000970364 38 10 4
0.251966 0.0773339 -0.00085612 40 10 4
0.252065 0.0773987 -0.0012285 35 9 3
0.252342 0.077472 -0.00105443 35 10 3
0.252469 0.0776325 -0.00136847 30 11 3
0.252655 0.0776184 -0.000908593 43 11 4
0.252757 0.0778345 -0.00127547 35 11 3
0.252991 0.0779145 -0.00103222 39 12 3
0.252925 0.0782151 -0.00137505 28 11 4
0.253169 0.0782357 -0.00106245 41 13 3
0.253173 0.0786191 -0.00131836 31 14 4
0.253306 0.0785277 -0.00100053 37 12 3
0.253304 0.0788925 -0.000887848 34 12 2
0.253299 0.0784423 -0.000681417 43 12 3
0.253326 0.0788094 -0.000487369 37 12 3
0.253265 0.0784161 -0.000289122 45 12 3
0.253292 0.078776 -0.000113133 41 11 3
0.253223 0.078424 5.75278e-05 50 12 3
0.253248 0.0787268 0.000176841 47 12 3
0.253177 0.0780508 -0.000723984 49 14 4
0.253215 0.0781139 -0.000405587 52 13 3
0.253079 0.0779035 -0.00037371 54 13 3
0.253141 0.0780662 -1.05612e-06 55 13 3
0.253168 0.0782742 0.000247708 48 12 3
0.252949 0.0777707 -0.000634626 51 13 4
0.252791 0.077649 -0.000501527 50 13 3
0.253425 0.0810567 -0.00124503 0 15 5
0.253428 0.0808921 -0.00162715 0 15 4
0.253431 0.0806075 -0.00184206 0 16 5
0.253461 0.0807319 -0.00139412 0 15 4
0.253506 0.0804398 -0.00100815 2 14 4
0.253443 0.0803334 -0.00143469 2 14 4
0.253491 0.0801494 -0.00111355 4 13 3
0.253412 0.0798878 -0.00133265 7 14 3
0.25347 0.0799107 -0.000845917 10 13 3
0.253404 0.0796414 -0.00112721 12 13 3
0.253481 0.0796126 -0.000788154 11 12 3
0.253391 0.0793783 -0.00116527 20 14 3
0.253407 0.0792735 -0.000827966 24 12 3
0.253296 0.079014 -0.00123936 28 14 3
0.253474 0.0797412 -0.000490708 16 11 2
0.253433 0.0795 -0.000401454 18 11 2
0.25337 0.07944 -3.96315e-05 23 11 3
0.253383 0.0791329 -0.000204451 35 11 3
0.253412 0.0791497 -0.000543071 34 11 2
0.253456 0.0808753 0.000310287 2 12 3
0.252513 0.0775146 0.0018489 66 13 3
0.252257 0.0774023 0.00170264 66 11 4
0.252414 0.0774717 0.00139202 65 11 3
0.252073 0.0773881 0.00127074 60 9 3
0.252456 0.0774936 0.000986215 59 12 5
0.25215 0.0774238 0.000866123 59 10 4
0.252562 0.0775723 0.000592884 59 12 5
0.252293 0.0774463 0.000423923 57 11 4
0.252703 0.0776399 0.0010742 62 12 5
0.252886 0.0779519 0.00129211 61 12 3
0.252996 0.0784149 0.00124359 46 11 3
0.253104 0.0788715 0.00119912 44 12 2
0.253205 0.0791062 0.000863826 43 13 3
0.253101 0.0792061 0.00134994 41 11 2
0.253177 0.0794799 0.00101899 37 12 2
0.253096 0.0795277 0.00153448 34 10 2
0.253195 0.0797635 0.00123724 24 11 3
0.253157 0.079931 0.00145991 29 11 2
0.253256 0.0801565 0.00121057 12 11 3
0.253005 0.0786275 0.00148352 42 10 3
0.252895 0.0781785 0.00157418 52 10 3
0.252744 0.0777057 0.0016264 66 13 3
0.253289 0.0797245 0.000695936 30 12 3
0.253282 0.0799257 0.000938484 24 11 3
0.253366 0.0800786 0.000639275 15 12 4
0.253345 0.0803719 0.000873547 10 12 4
0.253443 0.0803854 0.000388745 6 11 3
0.253397 0.0806672 0.000650806 4 11 4
0.253514 0.0806067 -2.57604e-05 1 12 3
0.237717 0.076475 0.00528466 61 7 5
0.237818 0.0764224 0.00490972 57 7 4
0.238151 0.0763677 0.00502381 62 7 4
0.23827 0.0763206 0.00463894 58 6 4
0.238603 0.0762692 0.00475154 58 7 5
0.238713 0.0762253 0.00437086 59 6 4
0.239045 0.0761626 0.00448434 63 7 5
0.239152 0.0761347 0.00408317 61 6 5
0.239491 0.0760816 0.00420562 61 7 5
0.239605 0.0760545 0.00380525 59 7 5
0.239945 0.0760013 0.00393497 61 8 5
0.240059 0.0759723 0.00353212 56 7 5
0.2404 0.0759443 0.0036583 61 7 5
0.240487 0.0759159 0.00329566 55 7 5
0.240844 0.0759012 0.0033643 57 7 5
0.24062 0.0758487 0.00296089 52 5 4
0.240952 0.0758596 0.00300535 55 6 5
0.240686 0.0757936 0.00272124 52 5 4
0.241031 0.0758204 0.00279955 55 6 4
0.240337 0.0757607 0.00266998 51 5 4
0.240215 0.075881 0.00307127 53 5 4
0.24 0.0757184 0.00264375 51 3 2
0.239873 0.0758702 0.00303371 53 4 3
0.239725 0.0759932 0.00340381 55 6 4
0.239395 0.0759844 0.00334533 54 4 3
0.239262 0.0760714 0.00369192 57 5 5
0.239057 0.075955 0.00327276 50 4 3
0.23893 0.076086 0.00365614 53 5 3
0.238718 0.0759211 0.00321046 53 3 2
0.238595 0.0760631 0.00357014 51 3 3
0.238376 0.0758813 0.00314978 51 2 2
0.238255 0.0760335 0.00351048 53 3 2
0.238032 0.0758404 0.00311232 52 2 2
0.237919 0.0759844 0.00346909 50 3 2
0.237677 0.0757646 0.00308581 50 2 1
0.237574 0.0759162 0.00342403 51 2 1
0.237326 0.0756841 0.00307531 50 2 1
0.237224 0.0758495 0.00341087 51 2 1
0.237394 0.07555 0.00282608 48 2 1
0.237496 0.0753108 0.00250212 53 2 2
0.237758 0.0756271 0.00280394 50 2 2
0.237861 0.075397 0.00247166 51 2 1
0.238144 0.075656 0.00275132 52 2 2
0.238241 0.0754312 0.00241663 50 1 1
0.238497 0.0757094 0.00278443 51 2 1
0.238599 0.0755322 0.00243602 51 2 1
0.23884 0.0757645 0.00284204 51 2 2
0.23896 0.0755935 0.00247712 52 3 1
0.239189 0.0758159 0.00289618 53 3 2
0.239311 0.0756493 0.0025211 50 2 2
0.23953 0.0758508 0.00295697 51 4 2
0.239653 0.0756952 0.00257976 51 3 3
0.23879 0.0761726 0.00399615 56 5 4
0.238476 0.0761708 0.00387861 53 5 3
0.238139 0.0761667 0.00387432 49 3 3
0.237799 0.0761271 0.00381514 51 3 2
0.237454 0.076073 0.00377595 51 2 1
0.237106 0.0760137 0.00375707 50 1 1
0.237331 0.076228 0.00415041 50 3 2
0.237715 0.0762286 0.00409335 51 3 2
0.23804 0.0762616 0.00414979 52 5 3
0.238379 0.0762662 0.004256 56 5 4
0.237593 0.0763501 0.00443338 53 4 3
0.237934 0.0763549 0.00452666 54 5 4
0.241969 0.0724284 0.00978861 70 8 2
0.242029 0.0727334 0.00954955 73 9 3
0.241754 0.0730634 0.00923221 76 8 4
0.241811 0.0732739 0.00900504 77 9 4
0.241456 0.0733482 0.00894983 75 8 3
0.241887 0.0735369 0.00871921 77 10 4
0.241533 0.0736059 0.00865929 76 9 4
0.241974 0.0737777 0.00840709 77 10 5
0.241618 0.073833 0.0083427 77 11 5
0.242067 0.0739938 0.0080871 77 11 6
0.24172 0.0740375 0.00801296 76 11 5
0.241805 0.0742338 0.00767942 76 11 6
0.241449 0.0742876 0.00761886 74 11 6
0.241552 0.0744827 0.00727808 74 11 5
0.241188 0.074552 0.00722507 72 11 6
0.241278 0.0747275 0.00690647 73 11 7
0.242381 0.0726978 0.00960448 75 9 3
0.242454 0.0729968 0.00934211 77 9 4
0.242105 0.0730197 0.00927555 76 9 3
0.242178 0.0732933 0.00899008 78 10 4
0.242798 0.0729865 0.00941482 77 9 4
0.242528 0.0732761 0.00905694 80 10 4
0.24258 0.0734716 0.00885772 81 12 5
0.242237 0.0734936 0.00878193 79 11 4
0.242662 0.0737191 0.00856628 80 12 5
0.242316 0.073738 0.00848429 80 12 6
0.242411 0.0739679 0.0081652 79 11 6
0.243207 0.073273 0.0092319 78 9 4
0.242869 0.0732723 0.00914687 80 10 4
0.243259 0.0734557 0.00904839 80 10 4
0.242925 0.0734567 0.00895183 80 11 4
0.243338 0.0737135 0.00874865 81 11 6
0.243002 0.0737107 0.00865055 80 12 6
0.243424 0.0739566 0.00843682 82 12 6
0.243088 0.0739571 0.00834452 80 12 6
0.243516 0.07417 0.00811723 82 12 6
0.243176 0.0741742 0.00802661 82 12 6
0.243248 0.0743344 0.00776869 81 12 7
0.242914 0.0743315 0.00767072 79 12 7
0.243341 0.0745303 0.00743759 80 12 7
0.243008 0.0745318 0.00733661 79 12 7
0.243436 0.0747232 0.00708912 79 12 7
0.243125 0.0747629 0.00690948 80 13 7
0.243537 0.0748949 0.00674216 81 13 8
0.243198 0.0748921 0.00664215 80 13 7
0.243638 0.0750531 0.00638989 79 12 7
0.243299 0.0750463 0.00628711 79 12 7
0.24336 0.0751293 0.00609619 78 13 8
0.242965 0.0750531 0.00619085 78 13 8
0.243021 0.0751377 0.00599749 78 13 8
0.242624 0.0750743 0.00610171 77 13 8
0.242683 0.0751613 0.00589229 77 12 8
0.242279 0.0750927 0.0060097 75 12 8
0.242347 0.0751839 0.00578666 73 12 8
0.241999 0.0752199 0.00570603 72 12 7
0.242454 0.0753203 0.00542583 74 13 8
0.24211 0.0753617 0.00532997 72 12 8
0.242166 0.075428 0.00513169 72 12 8
0.241767 0.0754258 0.00523247 72 11 7
0.241835 0.0755009 0.00501195 71 11 7
0.241499 0.0755874 0.00489176 70 11 7
0.241957 0.0756299 0.0046028 71 11 8
0.241615 0.0756764 0.00449021 71 11 7
0.242079 0.0757161 0.00421632 68 10 7
0.241737 0.0757527 0.00410422 68 10 7
0.242193 0.0757739 0.00381293 66 10 6
0.241856 0.0758041 0.00370859 64 10 6
0.242304 0.0758019 0.00341101 64 9 6
0.241967 0.0758354 0.00331974 60 8 6
0.24208 0.075833 0.00294535 57 6 5
0.241638 0.0758591 0.00321258 60 7 6
0.241726 0.0758318 0.00283388 55 6 4
0.2413 0.0758627 0.00310121 58 6 5
0.2414 0.0758182 0.00273402 56 6 4
0.242429 0.0758382 0.00303078 59 8 5
