ply
format ascii 1.0
element vertex 1730
property float x
property float y
property float z
end_header
0.365061 0.145223 0.0126215
0.365298 0.145293 0.0119517
0.365323 0.145468 0.0108305
0.365295 0.145669 0.00959643
0.365213 0.145896 0.00824951
0.36455 0.14641 0.00566115
0.364733 0.146507 0.00487847
0.250828 0.155398 0.0631998
0.251647 0.155181 0.0637714
0.252414 0.15499 0.0642302
0.25318 0.154799 0.0646889
0.25384 0.154661 0.064922
0.254342 0.154601 0.0648165
0.255002 0.154462 0.0650495
0.25561 0.15435 0.0651697
0.256429 0.154133 0.0657413
0.256878 0.154099 0.0655229
0.257432 0.154013 0.0655303
0.258039 0.1539 0.0656504
0.2587 0.153762 0.0658835
0.25936 0.153623 0.0661165
0.260021 0.153485 0.0663496
0.260522 0.153425 0.0662441
0.26113 0.153312 0.0663643
0.261631 0.153252 0.0662588
0.262238 0.15314 0.066379
0.262899 0.153001 0.066612
0.263612 0.152837 0.0669579
0.264167 0.15275 0.0669653
0.264827 0.152612 0.0671983
0.265381 0.152526 0.0672056
0.26583 0.152492 0.0669872
0.266384 0.152405 0.0669946
0.266992 0.152293 0.0671148
0.267546 0.152207 0.0671221
0.268101 0.152121 0.0671295
0.268761 0.151982 0.0673625
0.269368 0.15187 0.0674827
0.270082 0.151705 0.0678286
0.270848 0.151514 0.0682874
0.271508 0.151376 0.0685204
0.272222 0.151211 0.0688663
0.272882 0.151072 0.0690993
0.273542 0.150934 0.0693324
0.274203 0.150795 0.0695655
0.274916 0.150631 0.0699114
0.275577 0.150492 0.0701445
0.27629 0.150328 0.0704903
0.276898 0.150215 0.0706105
0.277558 0.150077 0.0708436
0.278218 0.149938 0.0710766
0.278826 0.149826 0.0711968
0.279433 0.149713 0.071317
0.280093 0.149575 0.07155
0.280648 0.149489 0.0715574
0.281255 0.149376 0.0716776
0.28181 0.14929 0.0716849
0.282364 0.149204 0.0716923
0.282866 0.149144 0.0715867
0.283367 0.149083 0.0714812
0.283869 0.149023 0.0713757
0.284317 0.148989 0.0711574
0.284766 0.148955 0.070939
0.285267 0.148895 0.0708334
0.285716 0.148861 0.0706151
0.286164 0.148827 0.0703967
0.28656 0.14882 0.0700655
0.287008 0.148786 0.0698471
0.287404 0.148778 0.0695159
0.287799 0.14877 0.0691846
0.288248 0.148736 0.0689663
0.28859 0.148754 0.0685222
0.288933 0.148773 0.0680781
0.289276 0.148791 0.0676341
0.289565 0.148836 0.0670771
0.289802 0.148906 0.0664073
0.290144 0.148924 0.0659632
0.290487 0.148943 0.0655191
0.29083 0.148961 0.065075
0.291172 0.148979 0.064631
0.291515 0.148998 0.0641868
0.29191 0.14899 0.0638556
0.292253 0.149008 0.0634116
0.292648 0.149 0.0630804
0.293044 0.148993 0.0627491
0.293492 0.148959 0.0625307
0.293994 0.148899 0.0624253
0.294548 0.148812 0.0624326
0.295156 0.1487 0.0625528
0.295869 0.148535 0.0628987
0.296635 0.148344 0.0633575
0.297455 0.148128 0.063929
0.298115 0.147989 0.064162
0.298934 0.147772 0.0647337
0.299595 0.147633 0.0649668
0.300414 0.147417 0.0655384
0.301233 0.1472 0.0661099
0.301947 0.147035 0.0664558
0.302872 0.146766 0.0672532
0.303638 0.146575 0.067712
0.30451 0.146332 0.0683964
0.305315 0.146121 0.0689373
0.306014 0.145963 0.0692524
0.306863 0.145731 0.0698877
0.307562 0.145573 0.0702029
0.308211 0.14544 0.0704113
0.30881 0.145331 0.070513
0.309458 0.145198 0.0707215
0.310107 0.145065 0.0709301
0.310706 0.144956 0.0710318
0.311255 0.144873 0.0710267
0.311803 0.144789 0.0710218
0.312252 0.144755 0.0708034
0.3127 0.144721 0.070585
0.313199 0.144662 0.0704734
0.313798 0.144554 0.0705751
0.314346 0.14447 0.0705702
0.314945 0.144362 0.070672
0.315494 0.144278 0.070667
0.316042 0.144195 0.0706619
0.316541 0.144136 0.0705503
0.31704 0.144077 0.0704387
0.317538 0.144018 0.070327
0.318037 0.143959 0.0702153
0.318535 0.143901 0.0701037
0.319034 0.143842 0.069992
0.319533 0.143783 0.0698803
0.320031 0.143724 0.0697687
0.32048 0.14369 0.0695503
0.320978 0.143632 0.0694386
0.321427 0.143598 0.0692203
0.321875 0.143564 0.0690019
0.322324 0.14353 0.0687836
0.322822 0.143471 0.0686719
0.323321 0.143412 0.0685602
0.323819 0.143353 0.0684486
0.324318 0.143295 0.0683369
0.324767 0.143261 0.0681185
0.325215 0.143227 0.0679001
0.325664 0.143193 0.0676818
0.326112 0.143159 0.0674634
0.326561 0.143125 0.067245
0.327009 0.143091 0.0670267
0.327408 0.143082 0.0667016
0.327856 0.143048 0.0664832
0.328355 0.142989 0.0663716
0.328753 0.14298 0.0660464
0.329201 0.142946 0.0658281
0.32965 0.142912 0.0656097
0.330099 0.142878 0.0653913
0.330497 0.142869 0.0650662
0.330896 0.14286 0.0647411
0.331294 0.142851 0.0644161
0.331692 0.142841 0.064091
0.332041 0.142857 0.0636592
0.332439 0.142848 0.0633341
0.332837 0.142839 0.0630091
0.333236 0.14283 0.0626839
0.333584 0.142845 0.0622521
0.333983 0.142836 0.0619271
0.334381 0.142827 0.061602
0.33473 0.142843 0.0611703
0.335078 0.142859 0.0607385
0.335276 0.142949 0.0599866
0.335474 0.143039 0.0592346
0.335823 0.143055 0.0588029
0.336171 0.14307 0.0583711
0.336569 0.143061 0.058046
0.336968 0.143052 0.0577209
0.337366 0.143043 0.0573959
0.337715 0.143059 0.0569641
0.338063 0.143074 0.0565322
0.338361 0.143115 0.0559938
0.33871 0.14313 0.055562
0.338958 0.143196 0.0549168
0.339256 0.143236 0.0543783
0.339554 0.143277 0.0538398
0.339853 0.143317 0.0533014
0.340201 0.143333 0.0528695
0.340499 0.143373 0.0523311
0.340798 0.143414 0.0517926
0.340996 0.143504 0.0510407
0.341341 0.143521 0.0506027
0.341631 0.143566 0.0500458
0.341973 0.143584 0.0496017
0.342316 0.143602 0.0491576
0.342659 0.143621 0.0487135
0.342948 0.143665 0.0481566
0.343238 0.143709 0.0475996
0.343528 0.143754 0.0470427
0.34387 0.143772 0.0465987
0.34416 0.143817 0.0460417
0.344502 0.143835 0.0455977
0.344898 0.143827 0.0452664
0.34524 0.143846 0.0448223
0.345583 0.143864 0.0443782
0.345978 0.143856 0.0440471
0.346268 0.143901 0.04349
0.34661 0.143919 0.043046
0.3469 0.143963 0.042489
0.34719 0.144008 0.0419321
0.347426 0.144079 0.0412624
0.347716 0.144123 0.0407054
0.347953 0.144194 0.0400356
0.348242 0.144238 0.0394787
0.348585 0.144256 0.0390345
0.348927 0.144275 0.0385905
0.349323 0.144267 0.0382593
0.349666 0.144285 0.0378151
0.350008 0.144304 0.0373711
0.350351 0.144322 0.036927
0.350587 0.144392 0.0362572
0.350824 0.144463 0.0355875
0.351061 0.144534 0.0349177
0.351297 0.144604 0.0342478
0.351375 0.144753 0.0332395
0.351612 0.144824 0.0325697
0.351742 0.144947 0.0316742
0.351873 0.14507 0.0307787
0.351951 0.145219 0.0297703
0.352081 0.145342 0.0288748
0.352212 0.145465 0.0279793
0.352078 0.145718 0.0265195
0.35205 0.14592 0.0252854
0.352286 0.14599 0.0246157
0.352682 0.145982 0.0242844
0.353025 0.146001 0.0238404
0.35342 0.145993 0.0235091
0.353922 0.145933 0.0234036
0.354476 0.145846 0.0234109
0.35503 0.14576 0.0234183
0.355532 0.1457 0.0233127
0.356086 0.145614 0.0233201
0.356588 0.145554 0.0232146
0.357089 0.145494 0.0231091
0.357538 0.14546 0.0228908
0.358039 0.1454 0.0227851
0.358488 0.145366 0.0225667
0.358936 0.145332 0.0223484
0.359385 0.145298 0.02213
0.359833 0.145264 0.0219116
0.360229 0.145256 0.0215805
0.360625 0.145248 0.0212492
0.36102 0.14524 0.020918
0.361415 0.145233 0.0205868
0.361811 0.145225 0.0202556
0.362207 0.145217 0.0199244
0.362549 0.145235 0.0194802
0.362892 0.145254 0.0190362
0.363181 0.145298 0.0184792
0.363524 0.145316 0.0180351
0.363813 0.145361 0.0174782
0.364103 0.145405 0.0169213
0.364393 0.14545 0.0163643
0.364629 0.14552 0.0156945
0.364813 0.145617 0.0149119
0.36505 0.145688 0.0142421
0.365233 0.145784 0.0134594
0.365311 0.145934 0.0124511
0.365389 0.146082 0.0114427
0.365519 0.146205 0.0105472
0.36528 0.146511 0.00886176
0.364669 0.147 0.00638626
0.364693 0.147175 0.00526508
0.365036 0.147194 0.00482097
0.249573 0.156291 0.063346
0.250764 0.155891 0.0647076
0.251318 0.155804 0.0647149
0.252084 0.155613 0.0651737
0.252903 0.155396 0.0657453
0.253511 0.155284 0.0658655
0.25433 0.155066 0.0664371
0.254937 0.154954 0.0665573
0.255545 0.154841 0.0666775
0.256258 0.154676 0.0670234
0.256813 0.15459 0.0670307
0.25742 0.154477 0.0671509
0.258081 0.154339 0.0673839
0.258741 0.1542 0.0676171
0.259295 0.154114 0.0676244
0.260009 0.153949 0.0679703
0.26051 0.153889 0.0678648
0.261118 0.153776 0.0679849
0.261672 0.15369 0.0679923
0.262226 0.153604 0.0679996
0.262887 0.153465 0.0682327
0.2636 0.1533 0.0685786
0.264208 0.153187 0.0686988
0.264762 0.153101 0.0687061
0.265263 0.153041 0.0686006
0.265765 0.152981 0.0684951
0.266425 0.152842 0.0687281
0.266927 0.152782 0.0686226
0.267481 0.152696 0.0686299
0.267983 0.152635 0.0685244
0.268484 0.152575 0.0684189
0.269092 0.152463 0.0685391
0.269593 0.152403 0.0684336
0.270253 0.152264 0.0686666
0.270914 0.152125 0.0688997
0.271574 0.151987 0.0691328
0.272235 0.151848 0.0693658
0.272842 0.151735 0.069486
0.273502 0.151597 0.0697191
0.274163 0.151458 0.0699521
0.274823 0.151319 0.0701852
0.275483 0.151181 0.0704183
0.276144 0.151042 0.0706513
0.276804 0.150903 0.0708843
0.277412 0.150791 0.0710045
0.278072 0.150652 0.0712375
0.278679 0.150539 0.0713578
0.27934 0.150401 0.0715908
0.279947 0.150288 0.071711
0.280555 0.150176 0.0718312
0.281109 0.150089 0.0718385
0.281663 0.150003 0.0718459
0.282218 0.149917 0.0718532
0.282719 0.149857 0.0717477
0.283274 0.14977 0.0717551
0.283722 0.149736 0.0715367
0.284224 0.149676 0.0714311
0.284725 0.149616 0.0713256
0.285174 0.149582 0.0711072
0.285622 0.149548 0.0708888
0.286071 0.149514 0.0706705
0.286519 0.14948 0.0704521
0.286968 0.149446 0.0702337
0.287416 0.149412 0.0700153
0.287812 0.149405 0.0696841
0.288207 0.149397 0.069353
0.28855 0.149415 0.0689089
0.288893 0.149434 0.0684648
0.289235 0.149452 0.0680207
0.289578 0.14947 0.0675766
0.289867 0.149515 0.0670196
0.29021 0.149533 0.0665755
0.290552 0.149552 0.0661315
0.290842 0.149596 0.0655746
0.291185 0.149615 0.0651304
0.291527 0.149633 0.0646864
0.291923 0.149625 0.0643552
0.292265 0.149644 0.0639111
0.292661 0.149636 0.0635799
0.293056 0.149628 0.0632486
0.293452 0.149621 0.0629174
0.293953 0.14956 0.0628119
0.294508 0.149474 0.0628192
0.295062 0.149388 0.0628266
0.29567 0.149275 0.0629467
0.296489 0.149058 0.0635184
0.297255 0.148867 0.0639771
0.298022 0.148676 0.0644359
0.298735 0.148511 0.0647818
0.299501 0.14832 0.0652406
0.300321 0.148103 0.0658121
0.30114 0.147885 0.0663839
0.301853 0.14772 0.0667297
0.302831 0.147425 0.0676399
0.303598 0.147234 0.0680987
0.304417 0.147016 0.0686703
0.305222 0.146806 0.0692111
0.30592 0.146647 0.0695261
0.306819 0.146389 0.0702679
0.307568 0.146206 0.0706895
0.308217 0.146072 0.0708979
0.308816 0.145964 0.0709996
0.309414 0.145855 0.0711013
0.310013 0.145746 0.0712029
0.310612 0.145637 0.0713046
0.31116 0.145554 0.0712996
0.311709 0.14547 0.0712946
0.312208 0.145411 0.0711829
0.312606 0.145402 0.0708578
0.313055 0.145368 0.0706395
0.313553 0.145309 0.0705278
0.314152 0.145201 0.0706294
0.3147 0.145117 0.0706244
0.315249 0.145033 0.0706194
0.315848 0.144924 0.0707211
0.316346 0.144866 0.0706094
0.316895 0.144782 0.0706044
0.317393 0.144723 0.0704927
0.317892 0.144664 0.070381
0.318391 0.144605 0.0702694
0.318889 0.144546 0.0701576
0.319338 0.144512 0.0699392
0.319836 0.144453 0.0698275
0.320335 0.144395 0.0697159
0.320833 0.144336 0.0696042
0.321282 0.144302 0.0693858
0.32178 0.144243 0.0692741
0.322229 0.144209 0.0690558
0.322727 0.14415 0.0689441
0.323226 0.144091 0.0688324
0.323725 0.144032 0.0687208
0.324223 0.143974 0.068609
0.324672 0.14394 0.0683907
0.32512 0.143906 0.0681723
0.325569 0.143872 0.0679539
0.326017 0.143838 0.0677355
0.326466 0.143804 0.0675172
0.326864 0.143795 0.0671921
0.327313 0.143761 0.0669738
0.327711 0.143752 0.0666487
0.32816 0.143718 0.0664303
0.328608 0.143684 0.0662119
0.329057 0.14365 0.0659936
0.329505 0.143616 0.0657752
0.329954 0.143582 0.0655568
0.330352 0.143573 0.0652317
0.330751 0.143564 0.0649067
0.331149 0.143555 0.0645816
0.331548 0.143546 0.0642566
0.331946 0.143537 0.0639315
0.332345 0.143528 0.0636064
0.332743 0.143519 0.0632814
0.333091 0.143534 0.0628497
0.33349 0.143525 0.0625246
0.333888 0.143516 0.0621995
0.334287 0.143507 0.0618745
0.334685 0.143498 0.0615494
0.335034 0.143514 0.0611178
0.335332 0.143555 0.0605794
0.33553 0.143645 0.0598276
0.335879 0.143661 0.0593958
0.336227 0.143677 0.058964
0.336625 0.143668 0.0586389
0.337024 0.143659 0.0583139
0.337422 0.14365 0.0579888
0.337821 0.143641 0.0576638
0.338169 0.143657 0.0572321
0.338467 0.143697 0.0566937
0.338766 0.143738 0.0561552
0.339014 0.143804 0.0555101
0.339262 0.143869 0.054865
0.339611 0.143885 0.0544333
0.339909 0.143926 0.0538949
0.340207 0.143967 0.0533566
0.340556 0.143982 0.0529248
0.340854 0.144023 0.0523863
0.341202 0.144039 0.0519546
0.341401 0.14413 0.0512028
0.341643 0.144198 0.0505454
0.341933 0.144243 0.0499885
0.342275 0.144261 0.0495444
0.342565 0.144306 0.0489874
0.342855 0.14435 0.0484304
0.343197 0.144369 0.0479863
0.343487 0.144413 0.0474295
0.343829 0.144432 0.0469854
0.344119 0.144476 0.0464284
0.344462 0.144495 0.0459843
0.344804 0.144513 0.0455402
0.345147 0.144531 0.0450961
0.345542 0.144524 0.044765
0.345885 0.144542 0.0443209
0.346227 0.14456 0.0438768
0.34657 0.144579 0.0434327
0.346913 0.144597 0.0429886
0.347149 0.144668 0.0423189
0.347492 0.144686 0.0418748
0.347729 0.144757 0.0412049
0.347965 0.144828 0.0405351
0.348255 0.144873 0.0399782
0.348545 0.144917 0.0394212
0.348887 0.144936 0.0389771
0.349282 0.144928 0.0386459
0.349625 0.144946 0.0382018
0.350021 0.144938 0.0378705
0.35031 0.144983 0.0373137
0.350653 0.145001 0.0368696
0.35089 0.145072 0.0361998
0.351126 0.145143 0.03553
0.351363 0.145214 0.0348602
0.351546 0.145311 0.0340775
0.35173 0.145408 0.0332949
0.351914 0.145505 0.0325123
0.352045 0.145628 0.0316168
0.352175 0.145751 0.0307212
0.352253 0.1459 0.0297129
0.352437 0.145997 0.0289302
0.352567 0.14612 0.0280347
0.35201 0.146584 0.025672
0.352299 0.146629 0.0251152
0.352536 0.146699 0.0244454
0.352878 0.146718 0.0240012
0.353221 0.146736 0.0235571
0.353617 0.146729 0.0232259
0.354118 0.146668 0.0231204
0.354672 0.146582 0.0231278
0.355227 0.146496 0.0231351
0.355728 0.146435 0.0230296
0.356283 0.146349 0.023037
0.356731 0.146315 0.0228186
0.357286 0.146229 0.0228258
0.357787 0.146169 0.0227203
0.358236 0.146135 0.022502
0.358684 0.146101 0.0222836
0.359186 0.146041 0.0221781
0.359581 0.146033 0.0218468
0.36003 0.145999 0.0216285
0.360478 0.145965 0.0214101
0.360874 0.145957 0.0210788
0.361269 0.145949 0.0207478
0.361665 0.145942 0.0204165
0.36206 0.145934 0.0200853
0.36235 0.145979 0.0195283
0.362746 0.145971 0.0191971
0.363088 0.145989 0.018753
0.363431 0.146008 0.0183089
0.363773 0.146026 0.0178648
0.364063 0.146071 0.0173078
0.3643 0.146141 0.016638
0.364642 0.14616 0.0161939
0.364826 0.146257 0.0154113
0.365063 0.146327 0.0147415
0.365246 0.146424 0.0139589
0.36543 0.146521 0.0131762
0.365455 0.146697 0.0120551
0.365585 0.14682 0.0111595
0.36561 0.146996 0.0100383
0.365476 0.14725 0.00857851
0.364971 0.147687 0.0063287
0.364996 0.147863 0.00520749
0.247581 0.157174 0.0642675
0.248294 0.157009 0.0646133
0.248848 0.156923 0.0646207
0.249721 0.156679 0.0653051
0.250487 0.156487 0.0657639
0.251094 0.156375 0.0658841
0.252178 0.156026 0.06702
0.25268 0.155966 0.0669145
0.253499 0.155748 0.0674861
0.254054 0.155662 0.0674934
0.254714 0.155523 0.0677265
0.255268 0.155437 0.0677338
0.255982 0.155271 0.0680798
0.256642 0.155133 0.0683129
0.257302 0.154994 0.0685459
0.257857 0.154907 0.0685532
0.25857 0.154742 0.0688991
0.259283 0.154577 0.069245
0.259944 0.154438 0.0694781
0.260604 0.154299 0.0697112
0.261212 0.154187 0.0698313
0.261872 0.154048 0.0700644
0.262532 0.153909 0.0702975
0.262981 0.153875 0.0700791
0.263747 0.153684 0.0705378
0.264248 0.153623 0.0704323
0.264856 0.153511 0.0705525
0.265304 0.153477 0.0703341
0.265859 0.15339 0.0703415
0.266466 0.153278 0.0704617
0.266968 0.153218 0.0703562
0.267416 0.153184 0.0701379
0.267971 0.153097 0.0701452
0.268525 0.153011 0.0701525
0.268974 0.152977 0.0699341
0.269422 0.152943 0.0697158
0.27003 0.15283 0.069836
0.270584 0.152744 0.0698433
0.271138 0.152657 0.0698506
0.271799 0.152519 0.0700837
0.2723 0.152458 0.0699782
0.272908 0.152346 0.0700983
0.273568 0.152207 0.0703313
0.274122 0.15212 0.0703388
0.274783 0.151982 0.0705719
0.275443 0.151843 0.0708049
0.276051 0.15173 0.070925
0.276658 0.151617 0.0710453
0.277318 0.151479 0.0712783
0.277926 0.151366 0.0713985
0.278533 0.151253 0.0715187
0.279194 0.151114 0.0717518
0.279801 0.151002 0.071872
0.280408 0.150889 0.0719922
0.280963 0.150803 0.0719995
0.28157 0.15069 0.0721197
0.282072 0.15063 0.0720142
0.282626 0.150543 0.0720215
0.283127 0.150483 0.071916
0.283629 0.150423 0.0718105
0.28413 0.150363 0.071705
0.284632 0.150303 0.0715994
0.28508 0.150269 0.0713811
0.285582 0.150209 0.0712755
0.28603 0.150175 0.0710572
0.286426 0.150167 0.070726
0.286927 0.150107 0.0706204
0.287376 0.150073 0.070402
0.287771 0.150065 0.0700708
0.288167 0.150057 0.0697396
0.288563 0.15005 0.0694084
0.288905 0.150068 0.0689643
0.289248 0.150087 0.0685202
0.28959 0.150105 0.0680761
0.289933 0.150124 0.0676321
0.290223 0.150168 0.0670751
0.290565 0.150187 0.0666311
0.290908 0.150205 0.066187
0.291197 0.15025 0.06563
0.29154 0.150268 0.0651859
0.291882 0.150287 0.0647418
0.292278 0.150279 0.0644106
0.292673 0.150272 0.0640794
0.293016 0.15029 0.0636352
0.293465 0.150256 0.0634169
0.293913 0.150222 0.0631985
0.294415 0.150162 0.063093
0.295022 0.150049 0.0632132
0.295523 0.149989 0.0631077
0.296237 0.149824 0.0634537
0.297056 0.149606 0.0640252
0.297875 0.149389 0.0645969
0.298642 0.149197 0.0650556
0.299355 0.149032 0.0654016
0.30028 0.148762 0.0661989
0.301046 0.148571 0.0666576
0.301707 0.148432 0.0668907
0.302791 0.148084 0.0680266
0.303451 0.147945 0.0682597
0.304376 0.147675 0.069057
0.305128 0.14749 0.0694848
0.305927 0.147281 0.070013
0.306826 0.147022 0.0707545
0.307574 0.146838 0.0711761
0.308173 0.146729 0.0712778
0.308822 0.146595 0.071486
0.30937 0.146512 0.071481
0.309969 0.146403 0.0715826
0.310568 0.146294 0.0716841
0.311166 0.146185 0.0717857
0.311665 0.146126 0.071674
0.312163 0.146067 0.0715623
0.312612 0.146033 0.0713439
0.31301 0.146024 0.0710189
0.313459 0.14599 0.0708005
0.313957 0.145931 0.0706888
0.314506 0.145847 0.0706837
0.315054 0.145763 0.0706787
0.315603 0.145679 0.0706737
0.316152 0.145596 0.0706685
0.3167 0.145512 0.0706635
0.317249 0.145428 0.0706584
0.317747 0.145369 0.0705467
0.318246 0.14531 0.070435
0.318744 0.145251 0.0703233
0.319243 0.145192 0.0702116
0.319742 0.145133 0.0700999
0.32019 0.145099 0.0698816
0.320689 0.14504 0.0697697
0.321187 0.144981 0.069658
0.321636 0.144947 0.0694397
0.322134 0.144888 0.069328
0.322633 0.144829 0.0692163
0.323081 0.144795 0.0689979
0.32358 0.144737 0.0688862
0.324078 0.144678 0.0687744
0.324577 0.144619 0.0686627
0.325025 0.144585 0.0684443
0.325474 0.144551 0.068226
0.325922 0.144517 0.0680076
0.326371 0.144483 0.0677892
0.326769 0.144474 0.0674641
0.327168 0.144465 0.0671393
0.327616 0.144431 0.0669209
0.328015 0.144422 0.0665958
0.328463 0.144388 0.0663775
0.328862 0.144379 0.0660524
0.32931 0.144345 0.065834
0.329809 0.144286 0.0657223
0.330207 0.144277 0.0653973
0.330606 0.144268 0.0650722
0.331004 0.144259 0.0647472
0.331453 0.144225 0.0645288
0.331801 0.144241 0.0640972
0.33225 0.144207 0.0638788
0.332598 0.144223 0.0634471
0.332997 0.144214 0.063122
0.333395 0.144205 0.062797
0.333794 0.144196 0.062472
0.334192 0.144187 0.062147
0.334591 0.144178 0.061822
0.334939 0.144194 0.0613902
0.335287 0.14421 0.0609586
0.335586 0.144251 0.0604202
0.335934 0.144267 0.0599886
0.336283 0.144283 0.0595569
0.336631 0.144299 0.0591252
0.33708 0.144265 0.0589068
0.337478 0.144256 0.0585817
0.337827 0.144272 0.0581501
0.338175 0.144288 0.0577183
0.338523 0.144304 0.0572868
0.338822 0.144345 0.0567484
0.33907 0.144411 0.0561033
0.339318 0.144477 0.0554583
0.339617 0.144518 0.05492
0.339915 0.144559 0.0543817
0.340264 0.144575 0.05395
0.340562 0.144616 0.0534117
0.340911 0.144632 0.05298
0.341209 0.144673 0.0524416
0.341557 0.144689 0.0520099
0.341756 0.14478 0.0512583
0.342051 0.144822 0.0507137
0.342288 0.144893 0.0500439
0.342578 0.144938 0.049487
0.342814 0.145009 0.0488172
0.343104 0.145054 0.0482603
0.343446 0.145072 0.0478161
0.343736 0.145117 0.0472592
0.344079 0.145135 0.0468151
0.344368 0.14518 0.0462581
0.344711 0.145199 0.0458141
0.345053 0.145217 0.04537
0.345449 0.145209 0.0450387
0.345792 0.145228 0.0445947
0.346134 0.145246 0.0441506
0.346477 0.145265 0.0437065
0.346819 0.145283 0.0432625
0.347162 0.145302 0.0428184
0.347451 0.145347 0.0422615
0.347741 0.145391 0.0417044
0.347978 0.145462 0.0410346
0.348267 0.145507 0.0404777
0.348557 0.145552 0.0399207
0.3489 0.14557 0.0394767
0.349242 0.145589 0.0390326
0.349532 0.145633 0.0384757
0.349927 0.145626 0.0381444
0.350323 0.145618 0.0378132
0.350612 0.145663 0.0372563
0.350902 0.145707 0.0366993
0.351192 0.145752 0.0361423
0.351428 0.145823 0.0354726
0.351665 0.145894 0.0348027
0.351796 0.146017 0.0339073
0.352033 0.146088 0.0332375
0.352163 0.146212 0.032342
0.352347 0.146309 0.0315592
0.352319 0.146511 0.0303252
0.352555 0.146582 0.0296554
0.352845 0.146627 0.0290985
0.352923 0.146776 0.0280901
0.352312 0.147267 0.0256146
0.352549 0.147338 0.0249448
0.352732 0.147435 0.0241621
0.353075 0.147454 0.023718
0.353418 0.147472 0.023274
0.353866 0.147438 0.0230556
0.354315 0.147404 0.0228372
0.354869 0.147318 0.0228445
0.355371 0.147258 0.0227391
0.355925 0.147171 0.0227463
0.356426 0.147111 0.0226409
0.356928 0.147051 0.0225354
0.357482 0.146964 0.0225427
0.357984 0.146904 0.0224372
0.358432 0.14687 0.0222188
0.358934 0.14681 0.0221133
0.359382 0.146776 0.0218949
0.359778 0.146768 0.0215637
0.360226 0.146734 0.0213454
0.360675 0.146701 0.021127
0.36107 0.146693 0.0207958
0.361466 0.146685 0.0204645
0.361861 0.146677 0.0201333
0.362204 0.146696 0.0196892
0.3626 0.146688 0.0193579
0.362942 0.146707 0.0189138
0.363285 0.146725 0.0184697
0.36368 0.146717 0.0181385
0.36397 0.146762 0.0175816
0.364207 0.146833 0.0169118
0.364549 0.146852 0.0164677
0.364786 0.146922 0.0157979
0.365076 0.146967 0.015241
0.365259 0.147064 0.0144584
0.365443 0.147162 0.0136756
0.365521 0.147311 0.0126673
0.365704 0.147408 0.0118846
0.365623 0.147637 0.0105377
0.365754 0.14776 0.00964217
0.365249 0.148198 0.00739244
0.365062 0.148479 0.00581971
0.365352 0.148524 0.00526281
0.246432 0.158015 0.0646393
0.247092 0.157876 0.0648723
0.24807 0.15758 0.0657825
0.248625 0.157493 0.0657899
0.249391 0.157302 0.0662487
0.250157 0.15711 0.0667074
0.250871 0.156945 0.0670533
0.251584 0.156779 0.0673993
0.252456 0.156535 0.0680837
0.253063 0.156422 0.068204
0.253724 0.156283 0.068437
0.254437 0.156118 0.0687829
0.255044 0.156005 0.0689031
0.255652 0.155892 0.0690233
0.256418 0.155701 0.0694821
0.257184 0.155509 0.0699409
0.257898 0.155344 0.0702868
0.258611 0.155179 0.0706326
0.259271 0.15504 0.0708657
0.259932 0.154901 0.0710987
0.260539 0.154788 0.071219
0.2612 0.154649 0.0714521
0.261807 0.154536 0.0715722
0.262308 0.154476 0.0714668
0.262916 0.154363 0.071587
0.263576 0.154224 0.07182
0.264183 0.154111 0.0719402
0.264738 0.154025 0.0719475
0.265186 0.153991 0.0717291
0.265794 0.153878 0.0718494
0.266242 0.153844 0.071631
0.266797 0.153757 0.0716383
0.267298 0.153697 0.0715328
0.267906 0.153584 0.071653
0.268407 0.153524 0.0715475
0.268856 0.15349 0.0713291
0.26941 0.153404 0.0713365
0.269911 0.153343 0.0712309
0.270413 0.153283 0.0711254
0.270915 0.153223 0.07102
0.271522 0.15311 0.0711401
0.272023 0.15305 0.0710346
0.272472 0.153016 0.0708162
0.272973 0.152956 0.0707107
0.273634 0.152817 0.0709438
0.274188 0.15273 0.0709511
0.274795 0.152618 0.0710714
0.275403 0.152505 0.0711915
0.27601 0.152392 0.0713117
0.276618 0.152279 0.0714319
0.277225 0.152167 0.0715522
0.277832 0.152054 0.0716724
0.27844 0.151941 0.0717925
0.279047 0.151828 0.0719127
0.279655 0.151715 0.0720329
0.280262 0.151603 0.0721531
0.280816 0.151516 0.0721604
0.281371 0.15143 0.0721678
0.281925 0.151343 0.0721752
0.282479 0.151257 0.0721825
0.282981 0.151196 0.0720769
0.283536 0.15111 0.0720844
0.284037 0.15105 0.0719788
0.284538 0.150989 0.0718733
0.28504 0.150929 0.0717678
0.285489 0.150895 0.0715494
0.28599 0.150835 0.0714439
0.286385 0.150827 0.0711127
0.286834 0.150793 0.0708943
0.287282 0.150759 0.0706759
0.287678 0.150752 0.0703447
0.288127 0.150718 0.0701263
0.288522 0.15071 0.0697951
0.288865 0.150729 0.069351
0.28926 0.150721 0.0690197
0.28955 0.150766 0.0684629
0.289945 0.150758 0.0681317
0.290288 0.150777 0.0676875
0.290578 0.150822 0.0671305
0.29092 0.15084 0.0666865
0.291263 0.150859 0.0662423
0.291605 0.150877 0.0657983
0.291948 0.150896 0.0653543
0.292291 0.150915 0.0649101
0.292686 0.150907 0.0645789
0.293082 0.150899 0.0642477
0.293477 0.150891 0.0639164
0.293926 0.150858 0.0636981
0.294427 0.150797 0.0635925
0.294929 0.150737 0.063487
0.295483 0.150651 0.0634944
0.295985 0.15059 0.0633889
0.296857 0.150346 0.0640733
0.297729 0.150102 0.0647578
0.298548 0.149884 0.0653294
0.299209 0.149745 0.0655625
0.300187 0.149448 0.0664727
0.301006 0.149231 0.0670443
0.301719 0.149065 0.0673902
0.302697 0.148769 0.0683005
0.303464 0.148577 0.0687593
0.30423 0.148385 0.069218
0.305034 0.148174 0.0697585
0.305933 0.147914 0.0704999
0.306832 0.147655 0.0712412
0.30753 0.147496 0.0715559
0.308179 0.147361 0.0717641
0.308778 0.147252 0.0718656
0.309326 0.147168 0.0718606
0.309925 0.147059 0.071962
0.310523 0.14695 0.0720636
0.311122 0.146841 0.0721651
0.31162 0.146782 0.0720534
0.312169 0.146698 0.0720482
0.312617 0.146664 0.0718299
0.313066 0.14663 0.0716115
0.313414 0.146646 0.0711799
0.313813 0.146637 0.0708549
0.314311 0.146578 0.0707432
0.31486 0.146494 0.070738
0.315408 0.14641 0.0707329
0.315957 0.146326 0.0707278
0.316506 0.146242 0.0707227
0.317054 0.146158 0.0707176
0.317553 0.146099 0.0706059
0.318051 0.14604 0.0704942
0.3186 0.145956 0.070489
0.319098 0.145897 0.0703773
0.319597 0.145838 0.0702656
0.320095 0.145779 0.0701538
0.320544 0.145745 0.0699355
0.321042 0.145686 0.0698237
0.321491 0.145652 0.0696053
0.32199 0.145593 0.0694935
0.322488 0.145534 0.0693818
0.322986 0.145475 0.0692701
0.323435 0.145441 0.0690518
0.323934 0.145382 0.0689399
0.324432 0.145323 0.0688283
0.324881 0.145289 0.0686099
0.325379 0.14523 0.0684982
0.325828 0.145196 0.0682798
0.326276 0.145162 0.0680613
0.326675 0.145153 0.0677363
0.327123 0.145119 0.067518
0.327472 0.145135 0.0670864
0.32792 0.145101 0.066868
0.328319 0.145092 0.066543
0.328717 0.145083 0.066218
0.329166 0.145049 0.0659996
0.329614 0.145015 0.0657812
0.330063 0.144981 0.0655628
0.330461 0.144973 0.0652379
0.33086 0.144964 0.064913
0.331308 0.14493 0.0646945
0.331707 0.144921 0.0643695
0.332105 0.144912 0.0640445
0.332454 0.144928 0.0636129
0.332852 0.144919 0.0632878
0.333301 0.144885 0.0630694
0.333699 0.144876 0.0627444
0.334098 0.144867 0.0624194
0.334496 0.144858 0.0620945
0.334895 0.14485 0.0617694
0.335243 0.144866 0.0613377
0.335592 0.144882 0.0609061
0.33594 0.144898 0.0604745
0.336338 0.144889 0.0601495
0.336687 0.144905 0.0597179
0.337085 0.144896 0.0593928
0.337484 0.144888 0.0590678
0.337832 0.144904 0.0586363
0.338231 0.144895 0.0583112
0.338579 0.144911 0.0578796
0.338828 0.144977 0.0572347
0.339126 0.145018 0.0566964
0.339375 0.145085 0.0560515
0.339673 0.145126 0.0555132
0.339972 0.145167 0.054975
0.34032 0.145183 0.0545433
0.340618 0.145224 0.054005
0.340967 0.14524 0.0535734
0.341215 0.145307 0.0529285
0.341564 0.145323 0.0524969
0.341862 0.145364 0.0519586
0.342161 0.145405 0.0514204
0.342406 0.145473 0.0507692
0.342643 0.145544 0.0500994
0.342826 0.145641 0.0493167
0.343063 0.145712 0.048647
0.343353 0.145757 0.0480899
0.343695 0.145776 0.0476459
0.343985 0.145821 0.047089
0.344328 0.145839 0.0466449
0.34467 0.145858 0.0462008
0.345013 0.145876 0.0457567
0.345355 0.145895 0.0453126
0.345751 0.145887 0.0449814
0.346093 0.145906 0.0445373
0.346436 0.145925 0.0440933
0.346779 0.145943 0.043649
0.347068 0.145988 0.0430922
0.347411 0.146007 0.0426481
0.347701 0.146051 0.0420911
0.34799 0.146096 0.0415343
0.34828 0.146141 0.0409773
0.348569 0.146186 0.0404204
0.348859 0.146231 0.0398633
0.349202 0.146249 0.0394193
0.349544 0.146268 0.0389752
0.349834 0.146313 0.0384182
0.35023 0.146305 0.038087
0.350572 0.146324 0.037643
0.350915 0.146342 0.0371988
0.351204 0.146387 0.0366419
0.351494 0.146432 0.036085
0.351731 0.146503 0.0354152
0.351914 0.146601 0.0346325
0.352098 0.146698 0.0338498
0.352282 0.146795 0.0330671
0.352465 0.146893 0.0322845
0.352649 0.14699 0.0315019
0.352621 0.147193 0.0302678
0.352911 0.147238 0.0297108
0.353094 0.147335 0.0289282
0.352484 0.147826 0.0264526
0.352561 0.147976 0.0254443
0.352692 0.1481 0.0245488
0.352929 0.148171 0.0238789
0.353272 0.14819 0.0234348
0.353667 0.148182 0.0231036
0.354063 0.148174 0.0227725
0.354564 0.148114 0.0226669
0.355013 0.14808 0.0224485
0.35562 0.147967 0.0225686
0.356121 0.147907 0.0224632
0.356623 0.147847 0.0223577
0.357124 0.147787 0.0222522
0.357679 0.1477 0.0222595
0.358127 0.147666 0.0220411
0.358629 0.147606 0.0219356
0.359077 0.147572 0.0217172
0.359526 0.147538 0.0214989
0.359974 0.147504 0.0212805
0.360423 0.14747 0.0210621
0.360871 0.147436 0.0208437
0.361214 0.147455 0.0203997
0.36161 0.147447 0.0200684
0.362005 0.14744 0.0197372
0.362454 0.147406 0.0195189
0.362796 0.147424 0.0190747
0.363139 0.147443 0.0186307
0.363481 0.147461 0.0181866
0.363877 0.147454 0.0178554
0.364166 0.147498 0.0172984
0.364403 0.147569 0.0166286
0.364746 0.147588 0.0161845
0.365035 0.147633 0.0156276
0.365166 0.147757 0.0147321
0.365403 0.147828 0.0140623
0.365639 0.147899 0.0133925
0.365717 0.148049 0.0123841
0.365795 0.148199 0.0113757
0.365767 0.148401 0.0101416
0.365845 0.148551 0.00913332
0.365446 0.148938 0.00710913
0.365418 0.14914 0.00587501
0.245785 0.158797 0.0649057
0.24671 0.158526 0.065703
0.247264 0.158439 0.0657103
0.248295 0.158116 0.0667334
0.248903 0.158003 0.0668536
0.249563 0.157864 0.0670867
0.250382 0.157646 0.0676583
0.251148 0.157454 0.068117
0.251809 0.157314 0.0683501
0.252734 0.157044 0.0691475
0.253341 0.156931 0.0692677
0.253949 0.156818 0.0693878
0.254715 0.156626 0.0698466
0.255693 0.156329 0.0707569
0.256141 0.156295 0.0705385
0.257119 0.155998 0.0714487
0.257886 0.155806 0.0719074
0.258334 0.155772 0.071689
0.259206 0.155528 0.0723736
0.259814 0.155415 0.0724938
0.260474 0.155275 0.0727269
0.261029 0.155189 0.0727342
0.261689 0.15505 0.0729672
0.262137 0.155016 0.0727489
0.262745 0.154903 0.0728691
0.263299 0.154816 0.0728765
0.263854 0.15473 0.0728838
0.264461 0.154617 0.073004
0.265016 0.15453 0.0730113
0.265517 0.15447 0.0729058
0.266071 0.154383 0.0729131
0.266573 0.154323 0.0728077
0.267127 0.154236 0.072815
0.267576 0.154202 0.0725966
0.26813 0.154116 0.072604
0.268631 0.154056 0.0724985
0.269186 0.153969 0.0725058
0.269741 0.153883 0.0725131
0.270295 0.153796 0.0725205
0.270743 0.153762 0.0723021
0.271245 0.153702 0.0721966
0.27164 0.153694 0.0718654
0.272142 0.153634 0.0717598
0.272643 0.153573 0.0716543
0.273145 0.153513 0.0715488
0.273699 0.153426 0.0715561
0.274254 0.15334 0.0715635
0.274861 0.153227 0.0716836
0.275468 0.153114 0.0718039
0.276076 0.153001 0.0719241
0.27663 0.152915 0.0719315
0.277185 0.152828 0.0719388
0.277792 0.152715 0.072059
0.278399 0.152602 0.0721792
0.279007 0.152489 0.0722995
0.279561 0.152403 0.0723067
0.280169 0.15229 0.0724269
0.280723 0.152203 0.0724343
0.281278 0.152117 0.0724416
0.281832 0.15203 0.072449
0.282386 0.151944 0.0724563
0.282888 0.151883 0.0723508
0.283442 0.151797 0.0723581
0.283944 0.151736 0.0722526
0.284445 0.151676 0.0721472
0.284947 0.151616 0.0720416
0.285395 0.151582 0.0718232
0.285897 0.151522 0.0717177
0.286345 0.151488 0.0714994
0.286794 0.151454 0.0712809
0.287189 0.151446 0.0709497
0.287638 0.151412 0.0707314
0.288033 0.151404 0.0704002
0.288429 0.151397 0.0700689
0.288824 0.151389 0.0697377
0.28922 0.151382 0.0694064
0.289562 0.1514 0.0689624
0.289905 0.151419 0.0685183
0.2903 0.151411 0.068187
0.290643 0.15143 0.0677429
0.290933 0.151475 0.067186
0.291275 0.151494 0.0667419
0.291618 0.151512 0.0662978
0.29196 0.151531 0.0658537
0.292303 0.15155 0.0654097
0.292699 0.151542 0.0650785
0.293094 0.151534 0.0647472
0.29349 0.151527 0.064416
0.293885 0.151519 0.0640848
0.294387 0.151459 0.0639792
0.294888 0.151398 0.0638737
0.29539 0.151338 0.0637683
0.295944 0.151252 0.0637755
0.296657 0.151086 0.0641214
0.29753 0.150842 0.0648059
0.298402 0.150597 0.0654904
0.299221 0.150379 0.0660621
0.300199 0.150082 0.0669723
0.300859 0.149943 0.0672053
0.301838 0.149645 0.0681156
0.302604 0.149454 0.0685743
0.303423 0.149235 0.069146
0.304242 0.149017 0.0697176
0.305041 0.148807 0.0702455
0.305889 0.148572 0.07088
0.306838 0.148287 0.0717276
0.307486 0.148153 0.0719357
0.308135 0.148018 0.0721438
0.308733 0.147909 0.0722452
0.309332 0.1478 0.0723467
0.30988 0.147715 0.0723416
0.310479 0.147606 0.072443
0.311078 0.147497 0.0725444
0.311626 0.147412 0.0725392
0.312124 0.147353 0.0724275
0.312673 0.147269 0.0724224
0.313122 0.147235 0.072204
0.31352 0.147226 0.0718791
0.313819 0.147268 0.0713408
0.314217 0.147259 0.0710158
0.314716 0.1472 0.0709041
0.315214 0.147141 0.0707923
0.315763 0.147056 0.0707872
0.316311 0.146972 0.070782
0.31686 0.146888 0.0707768
0.317408 0.146804 0.0707718
0.317907 0.146745 0.0706599
0.318455 0.14666 0.0706548
0.318954 0.146601 0.0705431
0.319452 0.146542 0.0704312
0.319951 0.146483 0.0703195
0.320449 0.146424 0.0702077
0.320898 0.14639 0.0699894
0.321396 0.146331 0.0698775
0.321895 0.146272 0.0697658
0.322393 0.146213 0.069654
0.322842 0.146179 0.0694357
0.32334 0.14612 0.0693239
0.323789 0.146086 0.0691055
0.324287 0.146027 0.0689937
0.324786 0.145968 0.068882
0.325234 0.145934 0.0686636
0.325683 0.1459 0.0684453
0.326131 0.145866 0.0682269
0.32658 0.145832 0.0680085
0.327028 0.145798 0.0677901
0.327427 0.145789 0.0674651
0.327825 0.14578 0.0671402
0.328224 0.145771 0.0668152
0.328622 0.145763 0.0664902
0.329021 0.145754 0.0661652
0.329419 0.145745 0.0658403
0.329868 0.145711 0.065622
0.330317 0.145677 0.0654035
0.330765 0.145643 0.0651852
0.331163 0.145634 0.0648601
0.331562 0.145625 0.0645351
0.331961 0.145617 0.0642102
0.332359 0.145608 0.0638852
0.332758 0.145599 0.0635602
0.333206 0.145565 0.0633418
0.333604 0.145556 0.0630169
0.334053 0.145522 0.0627985
0.334451 0.145513 0.0624736
0.33485 0.145505 0.0621485
0.335199 0.145521 0.061717
0.335597 0.145512 0.0613919
0.335946 0.145528 0.0609604
0.336344 0.14552 0.0606354
0.336742 0.145511 0.0603104
0.337091 0.145527 0.0598788
0.337489 0.145518 0.0595539
0.337838 0.145534 0.0591223
0.338186 0.145551 0.0586907
0.338535 0.145567 0.0582591
0.338884 0.145583 0.0578275
0.339132 0.14565 0.0571827
0.339431 0.145691 0.0566445
0.339729 0.145733 0.0561064
0.340028 0.145774 0.0555681
0.340376 0.145791 0.0551365
0.340675 0.145832 0.0545983
0.341023 0.145848 0.0541666
0.341322 0.14589 0.0536286
0.34162 0.145931 0.0530903
0.341969 0.145948 0.0526587
0.342217 0.146014 0.052014
0.342566 0.14603 0.0515824
0.342761 0.146123 0.0508247
0.343051 0.146168 0.0502678
0.343181 0.146292 0.0493722
0.343365 0.14639 0.0485896
0.343708 0.146409 0.0481454
0.343944 0.14648 0.0474757
0.344234 0.146525 0.0469187
0.344577 0.146543 0.0464746
0.344919 0.146562 0.0460306
0.345262 0.146581 0.0455865
0.345658 0.146573 0.0452552
0.346 0.146592 0.0448112
0.346343 0.14661 0.044367
0.346685 0.146629 0.043923
0.347028 0.146648 0.0434788
0.347317 0.146693 0.042922
0.34766 0.146712 0.0424778
0.34795 0.146757 0.0419209
0.348292 0.146775 0.0414768
0.348582 0.14682 0.0409199
0.348872 0.146865 0.0403629
0.349161 0.14691 0.039806
0.349504 0.146929 0.0393618
0.349794 0.146974 0.0388049
0.350189 0.146966 0.0384737
0.350479 0.147011 0.0379167
0.350821 0.14703 0.0374727
0.351164 0.147049 0.0370285
0.351454 0.147093 0.0364717
0.351743 0.147139 0.0359147
0.35198 0.14721 0.0352449
0.352164 0.147307 0.0344622
0.352347 0.147405 0.0336796
0.352531 0.147503 0.0328969
0.352662 0.147627 0.0320014
0.352846 0.147724 0.0312186
0.353029 0.147822 0.030436
0.35316 0.147946 0.0295405
0.353344 0.148043 0.0287578
0.352733 0.148536 0.0262823
0.352758 0.148712 0.0251611
0.352889 0.148836 0.0242656
0.353126 0.148907 0.0235957
0.353468 0.148926 0.0231517
0.353864 0.148918 0.0228205
0.354259 0.148911 0.0224891
0.354761 0.148851 0.0223837
0.355262 0.14879 0.0222782
0.355764 0.14873 0.0221726
0.356318 0.148643 0.02218
0.356819 0.148583 0.0220745
0.357321 0.148523 0.0219689
0.357822 0.148463 0.0218635
0.358324 0.148402 0.021758
0.358772 0.148368 0.0215396
0.359274 0.148308 0.0214341
0.359722 0.148274 0.0212157
0.360171 0.14824 0.0209973
0.360619 0.148206 0.020779
0.361015 0.148199 0.0204477
0.361411 0.148191 0.0201165
0.361806 0.148183 0.0197852
0.362255 0.148149 0.0195668
0.362597 0.148168 0.0191228
0.362993 0.14816 0.0187915
0.363282 0.148205 0.0182346
0.363678 0.148198 0.0179034
0.364021 0.148216 0.0174593
0.364363 0.148235 0.0170152
0.364653 0.14828 0.0164582
0.364889 0.148351 0.0157884
0.365126 0.148423 0.0151186
0.365363 0.148494 0.0144488
0.365546 0.148592 0.0136662
0.365677 0.148716 0.0127706
0.365808 0.148839 0.0118751
0.36578 0.149042 0.0106411
0.365964 0.14914 0.00985843
0.365777 0.149422 0.00828569
0.365696 0.149651 0.00693876
0.365773 0.149801 0.0059303
0.245243 0.159525 0.0653977
0.245957 0.15936 0.0657436
0.246776 0.159141 0.0663153
0.247489 0.158975 0.0666611
0.248361 0.158731 0.0673457
0.249074 0.158565 0.0676916
0.249841 0.158373 0.0681504
0.25066 0.158154 0.068722
0.251426 0.157962 0.0691808
0.252033 0.157849 0.069301
0.253064 0.157525 0.0703241
0.253672 0.157412 0.0704443
0.254438 0.15722 0.070903
0.255628 0.156817 0.0722647
0.256288 0.156678 0.0724977
0.256949 0.156538 0.0727308
0.257609 0.156399 0.0729639
0.258269 0.15626 0.0731969
0.258982 0.156094 0.0735429
0.25959 0.155981 0.0736631
0.26025 0.155841 0.0738962
0.260857 0.155728 0.0740163
0.261359 0.155668 0.0739109
0.262019 0.155529 0.0741439
0.262574 0.155442 0.0741513
0.263128 0.155355 0.0741586
0.26363 0.155295 0.074053
0.264237 0.155182 0.0741732
0.264791 0.155095 0.0741806
0.265293 0.155035 0.0740751
0.265741 0.155001 0.0738568
0.266296 0.154914 0.0738641
0.26685 0.154828 0.0738714
0.267405 0.154741 0.0738788
0.267906 0.154681 0.0737732
0.268408 0.15462 0.0736678
0.268909 0.15456 0.0735622
0.269463 0.154473 0.0735696
0.270018 0.154387 0.0735769
0.270519 0.154326 0.0734714
0.271021 0.154266 0.073366
0.271469 0.154232 0.0731476
0.271918 0.154198 0.0729292
0.272366 0.154164 0.0727108
0.272762 0.154157 0.0723796
0.273316 0.15407 0.0723869
0.273765 0.154036 0.0721685
0.274319 0.153949 0.0721759
0.274927 0.153836 0.0722961
0.275534 0.153723 0.0724162
0.276141 0.15361 0.0725365
0.276696 0.153524 0.0725438
0.27725 0.153437 0.0725512
0.277805 0.15335 0.0725585
0.278412 0.153237 0.0726787
0.278966 0.15315 0.0726861
0.279521 0.153064 0.0726934
0.280128 0.152951 0.0728136
0.28063 0.152891 0.0727081
0.281184 0.152804 0.0727155
0.281738 0.152717 0.0727228
0.28224 0.152657 0.0726173
0.282847 0.152544 0.0727375
0.283349 0.152483 0.072632
0.28385 0.152423 0.0725264
0.284352 0.152363 0.0724209
0.284853 0.152303 0.0723154
0.285355 0.152242 0.0722099
0.285803 0.152208 0.0719915
0.286252 0.152174 0.0717731
0.2867 0.15214 0.0715548
0.287149 0.152106 0.0713364
0.287597 0.152072 0.071118
0.287993 0.152065 0.0707869
0.288388 0.152057 0.0704556
0.288784 0.15205 0.0701243
0.289179 0.152042 0.0697932
0.289575 0.152034 0.0694619
0.289971 0.152027 0.0691306
0.290366 0.152019 0.0687994
0.290709 0.152038 0.0683554
0.291051 0.152057 0.0679112
0.291341 0.152102 0.0673543
0.291684 0.152121 0.0669102
0.291973 0.152166 0.0663533
0.292369 0.152158 0.066022
0.292711 0.152177 0.0655779
0.293054 0.152196 0.0651338
0.293502 0.152162 0.0649155
0.293898 0.152154 0.0645843
0.294346 0.15212 0.0643658
0.294848 0.15206 0.0642604
0.295349 0.151999 0.0641548
0.295798 0.151966 0.0639365
0.296405 0.151853 0.0640567
0.297489 0.151502 0.0651926
0.298308 0.151284 0.0657643
0.299181 0.151039 0.0664487
0.300159 0.150741 0.067359
0.300819 0.150602 0.067592
0.30185 0.150278 0.0686151
0.302457 0.150165 0.0687353
0.303382 0.149894 0.0695327
0.304249 0.149651 0.0702046
0.304897 0.149517 0.0704126
0.305845 0.149231 0.07126
0.306744 0.14897 0.0720009
0.307442 0.14881 0.0723155
0.308091 0.148675 0.0725235
0.308739 0.14854 0.0727314
0.309288 0.148456 0.0727261
0.309886 0.148346 0.0728275
0.310435 0.148262 0.0728224
0.311033 0.148152 0.0729237
0.311582 0.148068 0.0729186
0.31213 0.147983 0.0729133
0.312628 0.147924 0.0728016
0.313127 0.147865 0.0726898
0.313576 0.147831 0.0724715
0.313874 0.147873 0.0719333
0.314223 0.147889 0.0715017
0.314621 0.147881 0.0711767
0.31512 0.147821 0.0710649
0.315668 0.147737 0.0710598
0.316217 0.147653 0.0710545
0.316765 0.147568 0.0710494
0.317314 0.147484 0.0710442
0.317812 0.147425 0.0709323
0.31831 0.147366 0.0708206
0.318809 0.147306 0.0707088
0.319307 0.147247 0.070597
0.319806 0.147188 0.0704852
0.320354 0.147104 0.07048
0.320803 0.14707 0.0702617
0.321301 0.147011 0.0701498
0.3218 0.146951 0.0700381
0.322249 0.146918 0.0698197
0.322747 0.146858 0.0697079
0.323245 0.146799 0.0695961
0.323694 0.146765 0.0693777
0.324193 0.146706 0.0692659
0.324691 0.146647 0.0691542
0.32514 0.146613 0.0689358
0.325588 0.146579 0.0687174
0.326036 0.146545 0.0684991
0.326485 0.146511 0.0682807
0.326934 0.146477 0.0680623
0.327332 0.146468 0.0677373
0.327731 0.14646 0.0674124
0.328129 0.146451 0.0670875
0.328528 0.146442 0.0667625
0.328926 0.146433 0.0664375
0.329325 0.146425 0.0661126
0.329773 0.146391 0.0658942
0.330222 0.146357 0.0656758
0.33062 0.146348 0.0653508
0.331069 0.146314 0.0651325
0.331467 0.146305 0.0648076
0.331866 0.146296 0.0644825
0.332314 0.146262 0.0642642
0.332713 0.146254 0.0639392
0.333112 0.146245 0.0636143
0.33356 0.146211 0.0633959
0.334008 0.146177 0.0631776
0.334407 0.146168 0.0628526
0.334855 0.146134 0.0626342
0.335204 0.146151 0.0622027
0.335602 0.146142 0.0618777
0.336001 0.146133 0.0615528
0.33635 0.14615 0.0611212
0.336748 0.146141 0.0607963
0.337097 0.146158 0.0603646
0.337445 0.146174 0.0599332
0.337794 0.14619 0.0595016
0.338192 0.146182 0.0591767
0.338491 0.146223 0.0586385
0.338789 0.146265 0.0581004
0.339138 0.146281 0.0576689
0.339437 0.146323 0.0571307
0.339785 0.14634 0.0566993
0.340133 0.146356 0.0562677
0.340382 0.146423 0.055623
0.340731 0.146439 0.0551915
0.341079 0.146456 0.0547599
0.341428 0.146472 0.0543284
0.341726 0.146514 0.0537902
0.341975 0.146581 0.0531456
0.342273 0.146622 0.0526074
0.342572 0.146664 0.0520693
0.34292 0.146681 0.0516378
0.343219 0.146722 0.0510997
0.343459 0.146793 0.0504361
0.343537 0.146943 0.0494277
0.34372 0.147041 0.048645
0.34401 0.147086 0.0480881
0.344247 0.147158 0.0474182
0.344536 0.147203 0.0468613
0.344879 0.147221 0.0464172
0.345169 0.147267 0.0458603
0.345564 0.147259 0.0455291
0.345907 0.147278 0.045085
0.346249 0.147296 0.0446409
0.346592 0.147315 0.0441967
0.346881 0.14736 0.0436398
0.347224 0.147379 0.0431957
0.347567 0.147398 0.0427517
0.347909 0.147417 0.0423076
0.348252 0.147435 0.0418635
0.348542 0.14748 0.0413066
0.348884 0.147499 0.0408625
0.349174 0.147544 0.0403055
0.349464 0.14759 0.0397486
0.349806 0.147608 0.0393045
0.350096 0.147653 0.0387476
0.350438 0.147672 0.0383034
0.350728 0.147717 0.0377465
0.351124 0.14771 0.0374152
0.351413 0.147755 0.0368583
0.351703 0.1478 0.0363014
0.351993 0.147845 0.0357444
0.352229 0.147916 0.0350746
0.352307 0.148067 0.0340662
0.352544 0.148138 0.0333964
0.35278 0.14821 0.0327266
0.352964 0.148308 0.0319439
0.353095 0.148432 0.0310484
0.353279 0.14853 0.0302657
0.353356 0.14868 0.0292574
0.352746 0.149174 0.0267818
0.352877 0.149298 0.0258863
0.353008 0.149422 0.0249907
0.353138 0.149546 0.0240952
0.353375 0.149618 0.0234254
0.353665 0.149663 0.0228684
0.35406 0.149655 0.0225372
0.354403 0.149674 0.0220931
0.354851 0.14964 0.0218748
0.355353 0.14958 0.0217692
0.355907 0.149493 0.0217766
0.356462 0.149406 0.0217839
0.356963 0.149346 0.0216784
0.357518 0.149259 0.0216858
0.357966 0.149225 0.0214674
0.358467 0.149165 0.0213619
0.358969 0.149105 0.0212564
0.359471 0.149044 0.0211508
0.359919 0.14901 0.0209325
0.360315 0.149003 0.0206012
0.360763 0.148969 0.0203829
0.361159 0.148961 0.0200516
0.361607 0.148927 0.0198332
0.362002 0.14892 0.0195021
0.362398 0.148912 0.0191708
0.362794 0.148905 0.0188396
0.363136 0.148923 0.0183955
0.363479 0.148942 0.0179514
0.363822 0.148961 0.0175073
0.364164 0.148979 0.0170632
0.364507 0.148998 0.0166191
0.364797 0.149043 0.0160622
0.365033 0.149115 0.0153923
0.36527 0.149186 0.0147226
0.365454 0.149284 0.0139399
0.365637 0.149382 0.0131572
0.365768 0.149506 0.0122617
0.365899 0.14963 0.0113661
0.365924 0.149807 0.0102449
0.365949 0.149984 0.00912369
0.365814 0.15024 0.00766385
0.365734 0.15047 0.00631695
0.245256 0.160167 0.0658971
0.246181 0.159896 0.0666945
0.246842 0.159756 0.0669276
0.24782 0.159458 0.0678378
0.248533 0.159292 0.0681836
0.249405 0.159047 0.0688681
0.250065 0.158908 0.0691012
0.251043 0.15861 0.0700115
0.251651 0.158496 0.0701316
0.252258 0.158383 0.0702519
0.253501 0.157953 0.0717264
0.254585 0.157602 0.0728623
0.255245 0.157463 0.0730954
0.255905 0.157323 0.0733285
0.256672 0.157131 0.0737872
0.257438 0.156939 0.074246
0.258204 0.156746 0.0747048
0.258811 0.156633 0.074825
0.259366 0.156546 0.0748324
0.259973 0.156433 0.0749525
0.260634 0.156294 0.0751856
0.261188 0.156207 0.075193
0.261742 0.15612 0.0752003
0.26235 0.156007 0.0753205
0.262851 0.155947 0.0752151
0.263406 0.15586 0.0752224
0.263907 0.1558 0.0751168
0.264461 0.155713 0.0751242
0.264963 0.155652 0.0750187
0.265517 0.155566 0.0750261
0.266019 0.155505 0.0749205
0.266573 0.155419 0.0749279
0.267128 0.155332 0.0749352
0.267629 0.155271 0.0748297
0.268131 0.155211 0.0747242
0.268685 0.155124 0.0747316
0.269186 0.155064 0.074626
0.269741 0.154977 0.0746334
0.270189 0.154943 0.074415
0.270744 0.154856 0.0744224
0.271192 0.154822 0.074204
0.271641 0.154788 0.0739856
0.272089 0.154754 0.0737672
0.272485 0.154747 0.0734361
0.272933 0.154713 0.0732177
0.273382 0.154679 0.0729993
0.273883 0.154619 0.0728937
0.274385 0.154558 0.0727882
0.274992 0.154445 0.0729085
0.2756 0.154332 0.0730287
0.276207 0.154219 0.0731488
0.276761 0.154132 0.0731562
0.277316 0.154045 0.0731635
0.27787 0.153959 0.0731709
0.278478 0.153845 0.0732911
0.278979 0.153785 0.0731856
0.279533 0.153698 0.0731929
0.280088 0.153612 0.0732002
0.280589 0.153551 0.0730948
0.281091 0.153491 0.0729892
0.281645 0.153404 0.0729966
0.282199 0.153317 0.0730039
0.282754 0.153231 0.0730113
0.283255 0.15317 0.0729058
0.283757 0.15311 0.0728003
0.284258 0.15305 0.0726947
0.28476 0.152989 0.0725892
0.285261 0.152929 0.0724837
0.28571 0.152895 0.0722653
0.286158 0.152861 0.0720469
0.286607 0.152827 0.0718286
0.287002 0.152819 0.0714974
0.287451 0.152785 0.071279
0.287899 0.152751 0.0710607
0.288348 0.152717 0.0708423
0.288743 0.15271 0.070511
0.289139 0.152702 0.0701798
0.289587 0.152668 0.0699615
0.289983 0.152661 0.0696302
0.290379 0.152653 0.069299
0.290721 0.152672 0.0688549
0.291064 0.152691 0.0684108
0.291354 0.152736 0.0678538
0.291696 0.152755 0.0674097
0.292039 0.152774 0.0669656
0.292381 0.152793 0.0665216
0.292777 0.152785 0.0661903
0.293066 0.15283 0.0656334
0.293462 0.152823 0.0653021
0.293911 0.152789 0.0650837
0.294306 0.152781 0.0647525
0.294808 0.152721 0.064647
0.295309 0.152661 0.0645415
0.295811 0.1526 0.064436
0.296418 0.152487 0.0645562
0.297396 0.152189 0.0654665
0.298268 0.151944 0.0661509
0.299087 0.151725 0.0667226
0.300065 0.151427 0.0676328
0.300832 0.151235 0.0680916
0.30165 0.151016 0.0686633
0.302311 0.150877 0.0688964
0.303342 0.150552 0.0699194
0.304205 0.15031 0.070585
0.304953 0.150125 0.0710059
0.305752 0.149914 0.0715335
0.30675 0.149602 0.0724873
0.307348 0.149492 0.0725886
0.308047 0.149332 0.0729029
0.308695 0.149196 0.0731109
0.309243 0.149112 0.0731056
0.309842 0.149002 0.0732069
0.31039 0.148918 0.0732017
0.310939 0.148833 0.0731965
0.311537 0.148723 0.0732976
0.312086 0.148639 0.0732925
0.312584 0.148579 0.0731806
0.313082 0.14852 0.0730689
0.313531 0.148486 0.0728505
0.313929 0.148478 0.0725255
0.314228 0.148519 0.0719875
0.314627 0.148511 0.0716626
0.315075 0.148477 0.0714442
0.315574 0.148418 0.0713323
0.316172 0.148308 0.0714337
0.316721 0.148223 0.0714285
0.317219 0.148164 0.0713167
0.317767 0.148079 0.0713114
0.318216 0.148045 0.071093
0.318714 0.147986 0.0709812
0.319263 0.147902 0.070976
0.319761 0.147842 0.0708642
0.32026 0.147783 0.0707523
0.320758 0.147724 0.0706406
