ply
format ascii 1.0
element vertex 1258
property float x
property float y
property float z
property uchar diffuse_red
property uchar diffuse_green
property uchar diffuse_blue
end_header
0.303852 0.100661 0.0112147 129 123 89
0.303577 0.100344 0.0111326 111 105 75
0.303607 0.100646 0.0114464 127 119 83
0.303358 0.100632 0.0117223 123 118 86
0.303241 0.100839 0.0120173 127 121 89
0.302952 0.10071 0.0122332 119 115 86
0.303026 0.10109 0.0123893 119 127 104
0.302746 0.100781 0.0125157 119 122 95
0.302688 0.101086 0.0127514 122 126 103
0.30244 0.100696 0.0128167 119 116 88
0.302422 0.101063 0.0130461 125 132 110
0.302225 0.100886 0.0131969 124 129 106
0.302173 0.101274 0.0133798 142 143 118
0.301967 0.10087 0.0135246 127 127 104
0.301867 0.101214 0.0137606 146 142 115
0.301715 0.100797 0.0139149 129 128 103
0.30163 0.101143 0.0140967 149 145 117
0.301528 0.100786 0.0142668 133 132 108
0.301416 0.101061 0.014438 145 143 114
0.301346 0.100637 0.0145896 136 136 112
0.301198 0.100976 0.0147483 147 146 119
0.301124 0.100533 0.0149579 139 139 115
0.301007 0.100876 0.0150824 144 140 116
0.300962 0.100418 0.0153291 146 146 121
0.300833 0.100778 0.015421 146 146 120
0.30086 0.100335 0.0156861 152 153 129
0.300719 0.100692 0.0157815 156 157 131
0.300744 0.100265 0.0160876 155 154 129
0.300582 0.100672 0.0161631 160 159 131
0.300546 0.100494 0.016526 164 163 133
0.300424 0.100859 0.0165922 167 166 137
0.30067 0.100121 0.0164876 159 160 133
0.300748 0.0997315 0.0164452 155 157 130
0.300703 0.099293 0.0165831 166 168 141
0.300622 0.0988668 0.0168585 175 172 143
0.300454 0.0985442 0.016798 169 170 143
0.30025 0.0982127 0.0167368 162 164 141
0.300093 0.0978871 0.0166692 150 156 134
0.299951 0.0975556 0.0165823 147 154 133
0.299966 0.097423 0.0169623 157 164 142
0.299812 0.0972215 0.0165162 137 147 129
0.299833 0.0971053 0.0168942 149 156 136
0.299823 0.0973627 0.0160978 137 146 126
0.299964 0.0977932 0.0159363 135 144 123
0.300069 0.0980419 0.0155122 124 134 111
0.300116 0.0981765 0.0156932 137 142 121
0.300279 0.098526 0.015386 127 134 109
0.30024 0.0984441 0.0159026 141 146 123
0.300421 0.0988091 0.0156482 134 135 112
0.300374 0.0986395 0.0162343 151 153 128
0.300584 0.0990337 0.0159143 144 145 121
0.300621 0.0990876 0.0161588 149 151 127
0.30076 0.0994152 0.0161531 151 155 130
0.299945 0.0976938 0.016237 139 147 126
0.300078 0.0980205 0.0162862 148 153 132
0.300106 0.0981459 0.0159543 140 146 125
0.300242 0.0983511 0.0163419 150 153 131
0.300427 0.0986776 0.0164388 158 156 132
0.300586 0.0989699 0.016485 162 160 133
0.300808 0.0998471 0.0161251 153 155 129
0.302077 0.100568 0.0131945 117 117 92
0.301766 0.100492 0.0136417 118 116 92
0.301489 0.10041 0.0141481 122 124 100
0.301316 0.100058 0.0141774 107 109 86
0.30125 0.100249 0.0146128 125 127 102
0.301133 0.0999101 0.0146022 110 115 94
0.301077 0.100124 0.0150396 132 136 114
0.300986 0.0997887 0.0149884 126 132 111
0.300935 0.099965 0.0154535 144 147 123
0.300887 0.0996492 0.0153197 131 134 112
0.300792 0.0994979 0.0156969 143 147 123
0.30065 0.0992061 0.0153689 132 132 110
0.300838 0.0996215 0.0159102 147 151 129
0.300858 0.099923 0.0158198 148 150 126
0.301181 0.0998569 0.0142641 101 104 84
0.300959 0.099597 0.0145747 109 114 95
0.300823 0.0995051 0.0150487 125 130 108
0.300707 0.0992724 0.0148239 122 125 102
0.300494 0.098924 0.0151033 123 127 105
0.30054 0.103084 0.016332 151 151 125
0.300417 0.102675 0.016532 161 159 132
0.300362 0.102291 0.0165665 166 164 134
0.30029 0.102233 0.0168801 170 167 138
0.300295 0.101952 0.016789 169 166 137
0.302324 0.0909251 0.0228092 98 114 106
0.302478 0.0908057 0.0229602 105 121 113
0.302566 0.0911759 0.0228817 111 123 114
0.302709 0.0911346 0.023002 113 125 115
0.302632 0.0915778 0.0227903 121 128 116
0.302986 0.0914452 0.023106 124 131 118
0.303063 0.0918196 0.0230599 130 134 120
0.303396 0.0917181 0.0232959 138 144 126
0.30348 0.09208 0.0232838 138 145 128
0.30359 0.0920544 0.0233527 140 146 128
0.303549 0.0924367 0.0232811 144 149 126
0.303889 0.0923376 0.0234815 150 147 123
0.303843 0.0927302 0.0234219 147 148 126
0.304005 0.0926958 0.023515 148 146 123
0.304059 0.0930743 0.0235593 154 150 125
0.304381 0.0929518 0.023723 152 148 119
0.304433 0.0932968 0.0237998 150 145 119
0.304784 0.0931588 0.023944 151 143 110
0.304808 0.0935277 0.0240217 153 145 111
0.305143 0.0931562 0.0240842 158 138 103
0.305206 0.0934667 0.0241917 158 139 104
0.302102 0.0913177 0.0224673 100 118 110
0.301804 0.0917241 0.0220168 99 114 105
0.301756 0.0919707 0.0218702 102 115 105
0.301421 0.09212 0.0215342 90 112 105
0.301844 0.0923784 0.0217626 114 120 110
0.301542 0.0925201 0.021407 103 118 107
0.301944 0.0927629 0.0217073 120 125 112
0.301655 0.0928938 0.0213625 112 121 107
0.302026 0.0931202 0.0217071 126 127 112
0.301754 0.0932631 0.0213362 127 127 112
0.30209 0.0934786 0.0217169 131 133 115
0.301813 0.0936353 0.021327 130 130 114
0.302159 0.0938239 0.0217513 139 136 117
0.301874 0.0939829 0.0213493 138 136 118
0.302058 0.0942737 0.0215282 146 141 122
0.301839 0.0944078 0.021173 146 143 125
0.302039 0.0946805 0.0214238 152 148 128
0.301959 0.094735 0.0212747 152 147 128
0.302044 0.0950611 0.0213727 162 157 133
0.301846 0.0951963 0.021025 159 154 133
0.302101 0.0953903 0.0214505 166 157 132
0.301923 0.0955249 0.0211057 173 164 136
0.302103 0.0957214 0.0215511 173 162 131
0.30194 0.0958492 0.0212029 175 167 138
0.302032 0.0960652 0.021659 176 164 132
0.301875 0.0961808 0.0213222 174 164 134
0.301892 0.0963952 0.0218148 178 166 134
0.301733 0.0965091 0.0214656 176 165 132
0.301703 0.0967432 0.0219751 174 163 133
0.301563 0.0968605 0.0216212 175 164 133
0.301519 0.0970889 0.0221328 166 157 127
0.301382 0.097213 0.021775 170 159 129
0.301394 0.0974187 0.0222803 168 160 131
0.301264 0.0975437 0.0219188 163 156 128
0.301277 0.0977555 0.0224112 160 152 126
0.301169 0.0978796 0.0220563 158 151 125
0.301085 0.0982147 0.0221909 156 148 124
0.300996 0.0983435 0.0218171 156 146 122
0.301004 0.0985542 0.0223215 155 149 125
0.300895 0.0986844 0.0219592 152 144 121
0.30095 0.0988905 0.0224445 151 144 121
0.300829 0.0990169 0.0220923 151 144 122
0.300931 0.0992236 0.0225753 141 137 119
0.300796 0.0993497 0.0222124 144 137 117
0.300815 0.0996869 0.0223284 142 136 118
0.300663 0.0998097 0.0219721 143 137 120
0.300713 0.100143 0.0220793 145 137 118
0.300559 0.100274 0.0217282 150 141 121
0.300626 0.100609 0.0218307 147 142 125
0.300473 0.100737 0.0214735 150 143 123
0.300546 0.101073 0.0215733 156 147 126
0.300393 0.101202 0.0212163 151 145 122
0.300505 0.10154 0.0213034 158 151 126
0.300386 0.101661 0.0209391 164 154 130
0.30067 0.101864 0.0213746 161 147 123
0.300458 0.102025 0.0209359 158 148 124
0.300644 0.102345 0.0210602 160 146 121
0.300434 0.10251 0.0206185 160 148 121
0.300731 0.102832 0.0207754 160 145 120
0.300494 0.102968 0.0203341 158 143 117
0.300884 0.103289 0.0204679 162 141 115
0.300658 0.103444 0.0200606 154 142 118
0.301139 0.103674 0.0202435 161 138 111
0.300939 0.103863 0.019855 157 132 105
0.301506 0.104046 0.020116 154 112 82
0.30117 0.104283 0.0196216 156 124 96
0.301701 0.104493 0.0198333 145 102 74
0.301493 0.104698 0.019395 148 110 81
0.301988 0.104903 0.019624 134 84 59
0.301881 0.105076 0.0192056 134 90 65
0.302274 0.105328 0.0193912 117 65 45
0.302241 0.105475 0.0189807 123 74 52
0.302536 0.105737 0.0191228 111 55 39
0.302586 0.105876 0.0187534 110 56 39
0.302799 0.106141 0.0188913 104 47 31
0.30288 0.106255 0.0185052 102 49 33
0.303097 0.106545 0.0186593 99 41 28
0.303186 0.10661 0.018412 97 39 27
0.303296 0.106845 0.0187941 92 32 20
0.30344 0.106943 0.0184389 96 37 24
0.303468 0.107141 0.0189257 87 26 15
0.30362 0.107238 0.0185679 87 27 16
0.303622 0.107446 0.0190688 84 22 13
0.303787 0.107541 0.0187105 83 22 13
0.303793 0.107748 0.0192098 80 16 8
0.303963 0.10785 0.0188467 82 19 12
0.303958 0.108061 0.019338 76 14 8
0.304138 0.108154 0.0189803 77 15 7
0.304124 0.10837 0.0194842 76 13 8
0.304309 0.108461 0.0191327 76 13 7
0.304312 0.108669 0.0196297 73 11 5
0.304491 0.108763 0.0192701 72 10 5
0.304504 0.108974 0.0197717 73 10 4
0.304689 0.109066 0.0194167 73 10 5
0.304684 0.109272 0.0199235 72 10 4
0.304886 0.109361 0.0195672 72 9 5
0.304885 0.109577 0.0200702 71 8 4
0.305069 0.109667 0.0197208 71 8 3
0.305083 0.109882 0.0202139 70 7 3
0.305269 0.109972 0.0198639 70 8 3
0.305286 0.110184 0.0203638 70 7 3
0.305469 0.110283 0.0200074 71 8 3
0.305502 0.110484 0.0205183 70 8 3
0.30568 0.110578 0.0201597 70 7 3
0.305721 0.110781 0.0206793 69 8 2
0.305915 0.110881 0.0203189 69 7 3
0.30597 0.111084 0.0208352 69 7 3
0.30614 0.11116 0.0204846 70 7 3
0.306219 0.111369 0.0209955 71 7 3
0.306391 0.111453 0.0206411 70 7 3
0.306475 0.111665 0.0211671 71 7 3
0.306352 0.111568 0.0215408 71 8 3
0.306248 0.111457 0.0219279 71 8 4
0.305974 0.11117 0.0217534 71 8 4
0.305907 0.111054 0.022135 72 8 4
0.305656 0.110753 0.0219804 73 8 4
0.305893 0.110984 0.022365 72 9 4
0.305611 0.110632 0.0223679 74 10 5
0.30586 0.11085 0.0227678 73 10 5
0.305593 0.110523 0.0227184 75 10 6
0.305878 0.110736 0.0231543 74 10 6
0.305608 0.110408 0.0231062 74 10 6
0.30593 0.110619 0.0235292 75 11 6
0.305668 0.11029 0.0234826 75 11 7
0.305994 0.110484 0.0239054 75 12 8
0.30573 0.110154 0.0238646 75 11 6
0.305827 0.110025 0.0242393 77 13 7
0.305597 0.109695 0.0241789 76 12 7
0.305711 0.109572 0.0245453 78 13 7
0.305496 0.109234 0.0244787 78 13 8
0.305622 0.1091 0.0248396 79 14 8
0.305437 0.108772 0.0247773 79 14 8
0.305568 0.108642 0.0251319 81 14 9
0.305385 0.108313 0.0250692 80 14 8
0.305517 0.108189 0.0254254 81 14 9
0.305346 0.107854 0.0253532 81 14 9
0.305498 0.107726 0.02571 81 14 8
0.305326 0.107399 0.0256385 81 15 9
0.305491 0.107264 0.0259896 81 15 9
0.305323 0.106936 0.0259152 83 16 10
0.305501 0.106797 0.0262732 83 16 9
0.305345 0.106472 0.0261828 84 16 10
0.305398 0.106438 0.0262835 84 16 10
0.305211 0.106139 0.0261141 85 16 10
0.305407 0.106006 0.0264625 86 16 10
0.305176 0.105738 0.0262168 85 16 10
0.305375 0.105609 0.0265576 86 16 10
0.305066 0.105396 0.0261691 86 17 10
0.305266 0.105263 0.0265164 85 16 11
0.305021 0.105015 0.0262103 85 17 11
0.305175 0.10492 0.026463 86 17 10
0.304908 0.104683 0.0261216 87 17 11
0.305079 0.104568 0.0264205 88 17 11
0.304992 0.104229 0.0263665 88 19 11
0.305283 0.104444 0.0267516 88 18 11
0.305195 0.104104 0.0266875 88 19 11
0.305489 0.104318 0.0270733 89 17 10
0.3054 0.103974 0.0270175 88 18 10
0.305703 0.104199 0.0273853 89 18 10
0.305617 0.103857 0.0273218 91 19 11
0.305934 0.104072 0.0276945 88 17 10
0.305851 0.10373 0.0276271 89 19 10
0.306173 0.103953 0.0279926 87 19 11
0.306084 0.10361 0.0279308 89 19 11
0.306417 0.103836 0.0282816 85 19 11
0.306328 0.103492 0.0282261 87 21 12
0.306673 0.103716 0.0285675 85 19 11
0.306574 0.103377 0.0285064 88 21 12
0.306853 0.103256 0.0287853 89 23 13
0.306491 0.103038 0.0284527 90 24 13
0.306756 0.10292 0.0287368 89 24 13
0.306407 0.102701 0.0283966 94 27 15
0.306659 0.102578 0.0286768 93 29 16
0.30632 0.102353 0.0283378 99 31 18
0.306576 0.102242 0.0286136 98 32 19
0.306231 0.102014 0.0282804 107 39 23
0.306478 0.101891 0.0285763 103 37 22
0.306133 0.101674 0.0282347 109 43 26
0.306369 0.101535 0.0285148 112 47 29
0.306035 0.10133 0.0281751 119 52 33
0.306266 0.10118 0.0284675 123 58 35
0.305938 0.100988 0.0281233 129 63 41
0.306153 0.100822 0.0284204 139 80 48
0.305827 0.100644 0.0280864 145 83 52
0.30601 0.100504 0.0283599 143 87 53
0.305681 0.100298 0.0280896 148 103 68
0.305891 0.100167 0.0283949 146 105 71
0.305495 0.0999341 0.0281243 149 118 91
0.305723 0.0997791 0.0284533 146 117 94
0.305293 0.0995526 0.0282018 149 123 100
0.305541 0.0994153 0.0285056 147 125 105
0.305344 0.0990901 0.0284569 155 140 121
0.305645 0.0990132 0.0287106 154 138 120
0.305494 0.0986951 0.0286886 158 147 127
0.305706 0.09858 0.0288578 156 145 124
0.305377 0.0982865 0.0286917 165 158 137
0.305785 0.0981804 0.0289668 163 157 135
0.305612 0.0978289 0.028926 168 163 140
0.305892 0.0977413 0.0291011 168 161 139
0.305554 0.0974625 0.0289398 173 168 146
0.306061 0.0980652 0.0291517 164 157 135
0.306166 0.0984204 0.0291613 158 149 128
0.305876 0.0985601 0.0289627 156 146 125
0.306028 0.0988641 0.0290116 154 140 119
0.305858 0.0989422 0.0288816 153 139 120
0.306053 0.0992758 0.028927 147 128 108
0.305805 0.0993651 0.0287205 143 123 102
0.305984 0.0996488 0.0287336 145 117 92
0.306105 0.0999799 0.0286748 143 106 77
0.30626 0.100384 0.0286421 142 94 59
0.306191 0.111344 0.022319 72 9 5
0.306462 0.111623 0.0224897 72 9 5
0.306431 0.111514 0.0228559 72 10 5
0.306724 0.111836 0.0229001 72 9 5
0.306727 0.111716 0.0232886 74 11 6
0.307033 0.112055 0.0233242 75 10 6
0.307079 0.111921 0.0237104 76 11 7
0.307389 0.11225 0.0237531 76 11 7
0.30745 0.112113 0.0241316 76 12 7
0.307775 0.112443 0.0241715 77 12 7
0.30754 0.11199 0.02451 78 12 8
0.307862 0.112318 0.0245521 76 12 8
0.307662 0.111867 0.0248731 78 13 8
0.307982 0.112194 0.0249147 77 13 8
0.307765 0.111736 0.0252335 77 13 9
0.308144 0.11206 0.0252878 75 13 9
0.307946 0.111608 0.0256127 76 14 9
0.308334 0.111935 0.0256484 75 14 8
0.308048 0.111553 0.0257637 75 14 9
0.308541 0.1118 0.0259899 74 14 8
0.308249 0.111427 0.0261133 74 14 9
0.308757 0.111674 0.0263095 74 13 8
0.308465 0.111297 0.0264414 74 14 8
0.308994 0.111551 0.0266168 72 13 8
0.308697 0.111179 0.0267538 73 13 8
0.309244 0.111442 0.0269117 70 12 7
0.308942 0.111064 0.0270509 71 13 8
0.3095 0.111322 0.0272072 69 11 6
0.309196 0.11095 0.0273362 69 11 6
0.309761 0.111203 0.0274862 68 11 5
0.309452 0.110822 0.02763 71 11 6
0.30972 0.110706 0.0278976 68 9 5
0.309155 0.11043 0.0277677 70 12 7
0.309409 0.110313 0.0280486 69 11 6
0.308852 0.110045 0.0278837 71 11 6
0.30911 0.109932 0.0281721 70 11 6
0.308601 0.109663 0.0279868 72 13 8
0.30885 0.109543 0.028279 70 12 7
0.308361 0.109292 0.0280641 73 14 8
0.308608 0.109166 0.0283556 72 12 8
0.308134 0.10891 0.0281251 74 14 8
0.308384 0.10879 0.0284228 72 13 7
0.307922 0.108539 0.0281933 73 13 8
0.308169 0.108422 0.0284783 73 12 8
0.307731 0.108175 0.0282215 74 14 9
0.307979 0.108064 0.0285128 73 13 9
0.307566 0.107808 0.0282415 74 14 9
0.307806 0.107697 0.0285324 74 14 8
0.307401 0.10745 0.028251 75 14 9
0.307634 0.107325 0.0285532 73 14 8
0.30723 0.107097 0.0282555 74 14 9
0.30747 0.106971 0.0285539 73 14 8
0.307081 0.106741 0.0282578 75 14 9
0.307317 0.106621 0.0285595 74 13 8
0.306938 0.106393 0.0282549 77 14 9
0.307179 0.106265 0.0285547 75 14 8
0.306801 0.106037 0.0282438 78 15 10
0.307043 0.10592 0.0285347 77 14 9
0.306682 0.105683 0.0282113 79 15 9
0.306925 0.105566 0.0285078 78 15 9
0.306562 0.105338 0.0281811 80 16 9
0.306814 0.10522 0.0284666 79 16 9
0.306459 0.104986 0.0281391 81 16 10
0.306707 0.10487 0.0284251 81 16 9
0.30636 0.104641 0.0280905 83 16 10
0.306612 0.104523 0.0283814 81 17 10
0.306261 0.104298 0.0280421 84 18 11
0.30652 0.10418 0.0283291 83 17 11
0.306024 0.104415 0.0277491 85 17 11
0.305784 0.104542 0.0274448 86 17 11
0.305586 0.104661 0.0271261 86 17 10
0.305382 0.104786 0.0268061 86 17 11
0.306112 0.10476 0.0277982 83 16 10
0.305883 0.104881 0.0274928 85 16 10
0.30568 0.105015 0.0271644 85 16 11
0.305475 0.105124 0.0268605 86 16 10
0.306213 0.105107 0.0278371 82 16 9
0.305982 0.105225 0.0275368 85 16 10
0.305778 0.105359 0.0272111 85 16 10
0.305681 0.105412 0.0270645 85 16 10
0.305825 0.105741 0.0271498 85 16 10
0.305604 0.105874 0.0268044 85 15 10
0.30579 0.106173 0.0269559 84 16 10
0.305593 0.106313 0.0266057 83 15 10
0.305915 0.106536 0.02697 82 15 9
0.305715 0.106658 0.0266388 83 16 9
0.306042 0.106881 0.0269973 82 14 9
0.305858 0.106992 0.0266979 82 14 9
0.306025 0.107328 0.0267636 81 15 9
0.305835 0.107462 0.0264017 82 14 9
0.30599 0.107792 0.0264794 79 15 9
0.30583 0.107925 0.0261316 80 14 9
0.306089 0.108197 0.0263472 80 14 9
0.306023 0.108256 0.0262089 80 14 9
0.306232 0.108579 0.0262789 80 14 10
0.306071 0.108714 0.0259251 80 14 9
0.306287 0.109046 0.0259842 80 14 10
0.30611 0.109178 0.0256308 79 14 9
0.306354 0.109504 0.0256835 80 14 10
0.306192 0.109628 0.0253215 79 14 8
0.306451 0.109958 0.0253885 78 14 9
0.306308 0.110102 0.025021 77 14 8
0.306592 0.110426 0.0250733 78 14 9
0.306458 0.110555 0.0246964 78 14 9
0.306758 0.110892 0.0247427 77 13 9
0.306366 0.110694 0.0243275 77 13 8
0.306655 0.111023 0.0243714 78 14 8
0.306289 0.11083 0.0239498 76 12 7
0.306573 0.111143 0.0240113 76 12 7
0.306212 0.110948 0.0235881 76 11 6
0.306503 0.111272 0.0236305 75 12 6
0.30616 0.111065 0.0232081 74 11 5
0.306441 0.111391 0.0232526 73 10 5
0.306141 0.111175 0.022815 73 9 5
0.306772 0.111583 0.0236723 77 11 7
0.307132 0.111778 0.0240947 76 12 7
0.307231 0.111664 0.0244637 77 12 8
0.30733 0.111531 0.0248406 78 13 8
0.307464 0.111414 0.0252011 78 14 9
0.307617 0.111285 0.0255548 78 14 9
0.306847 0.11146 0.0240512 77 13 7
0.306939 0.11134 0.0244223 78 13 8
0.307043 0.111216 0.0247881 78 13 9
0.306875 0.110768 0.0251072 78 14 9
0.307174 0.11108 0.025168 78 14 9
0.307015 0.110624 0.0254757 79 14 9
0.307308 0.110962 0.0255214 79 15 9
0.307182 0.110493 0.0258313 78 15 10
0.307467 0.11082 0.0258711 78 15 10
0.307526 0.110783 0.025978 78 15 10
0.307795 0.111152 0.0259189 78 15 9
0.307979 0.111039 0.0262294 77 14 10
0.306744 0.110299 0.0254299 78 14 9
0.306885 0.110158 0.0257802 79 14 10
0.307083 0.110039 0.0261385 79 14 10
0.307355 0.110365 0.0261788 78 15 10
0.307477 0.110265 0.0264148 77 15 10
0.307718 0.110653 0.0263217 77 15 9
0.307906 0.110522 0.0266679 76 15 9
0.308179 0.110909 0.0265658 77 15 9
0.308402 0.11079 0.0268777 75 14 9
0.306611 0.10983 0.0257367 79 14 9
0.306794 0.109699 0.0260896 79 15 10
0.30684 0.109651 0.0261957 79 15 10
0.307247 0.109894 0.0264889 78 14 10
0.307028 0.10952 0.0265449 77 14 9
0.307438 0.109782 0.026816 76 15 9
0.307229 0.109406 0.0268715 76 15 10
0.307648 0.109645 0.0271503 75 15 9
0.307448 0.109276 0.0271963 76 15 9
0.307891 0.109523 0.0274585 74 14 9
0.307666 0.109149 0.0275166 75 15 9
0.308123 0.109405 0.0277607 74 14 9
0.307889 0.109036 0.0278326 74 14 9
0.30835 0.10978 0.0276947 73 14 8
0.308105 0.109899 0.0273988 74 13 8
0.307878 0.110015 0.0270776 75 15 9
0.307669 0.110145 0.0267481 75 15 10
0.308121 0.110393 0.0269943 75 14 8
0.308651 0.110675 0.0271812 74 13 8
0.308368 0.110285 0.0273009 73 13 8
0.308899 0.110565 0.027475 72 12 7
0.308603 0.110162 0.0275997 71 12 8
0.306522 0.109376 0.0260326 78 14 9
0.306462 0.108917 0.0263324 78 14 9
0.306705 0.109238 0.0263829 79 14 9
0.306625 0.108808 0.026631 78 14 10
0.30683 0.109168 0.0265903 79 14 9
0.307029 0.10903 0.0269272 76 15 10
0.305464 0.105546 0.0267175 86 16 10
0.306317 0.105451 0.0278846 82 15 9
0.306088 0.105578 0.0275763 82 15 9
0.30588 0.105708 0.0272441 85 16 10
0.305967 0.106074 0.0272369 83 16 10
0.306432 0.105803 0.0279193 80 15 9
0.30621 0.10593 0.0276054 81 15 9
0.306562 0.106155 0.0279455 79 15 9
0.306335 0.106284 0.0276285 81 15 9
0.306118 0.106401 0.0273196 81 15 9
0.306467 0.106631 0.0276489 79 15 10
0.306249 0.106749 0.0273391 81 15 9
0.30661 0.106984 0.0276593 77 15 10
0.30639 0.107105 0.0273442 79 15 10
0.306756 0.107343 0.027651 77 15 9
0.306532 0.107463 0.0273423 78 15 9
0.306923 0.107697 0.0276471 76 15 9
0.306692 0.107818 0.0273392 77 14 9
0.307084 0.108047 0.0276386 76 15 9
0.306858 0.108176 0.0273242 76 14 9
0.307267 0.10842 0.0276057 76 14 9
0.307041 0.108535 0.0272919 76 15 10
0.307455 0.108788 0.0275698 74 15 9
0.307237 0.108907 0.0272552 76 15 9
0.306827 0.108669 0.0269707 76 14 10
0.306648 0.108311 0.0269976 77 13 9
0.306477 0.107948 0.027016 79 15 9
0.306314 0.10759 0.0270296 79 15 9
0.306175 0.107235 0.0270135 80 14 9
0.306201 0.10767 0.0268388 81 15 9
0.306275 0.108069 0.0266814 79 15 10
0.306444 0.108441 0.0266646 78 15 10
0.307681 0.108661 0.027882 73 13 9
0.307496 0.1083 0.0279175 74 15 9
0.307319 0.107936 0.0279339 76 15 9
0.307149 0.10758 0.0279451 75 15 9
0.30699 0.107215 0.027961 75 15 9
0.306837 0.106859 0.0279644 76 15 9
0.306695 0.106502 0.027962 78 15 10
0.306083 0.11036 0.0242845 76 12 8
0.306177 0.110223 0.0246537 77 13 8
0.306055 0.109769 0.0249595 79 14 9
0.305969 0.109302 0.0252764 79 14 8
0.305907 0.108847 0.0255597 80 14 8
0.305865 0.108386 0.0258518 80 14 10
0.30594 0.109903 0.0245969 78 13 8
0.305817 0.10944 0.0249085 79 14 8
0.305759 0.108972 0.0252093 80 14 8
0.305706 0.108514 0.0254974 81 14 8
0.305667 0.108056 0.0257783 80 14 9
0.305662 0.107592 0.0260559 82 15 9
0.305657 0.107135 0.0263357 81 15 9
0.305481 0.105957 0.0265854 86 16 10
0.306078 0.111273 0.0213738 71 8 3
0.305723 0.110874 0.0215826 71 7 4
0.305406 0.110466 0.0218262 72 9 5
0.305376 0.110343 0.0222181 73 9 5
0.305145 0.110045 0.0220661 73 9 5
0.305136 0.109924 0.0224554 73 10 5
0.304906 0.109629 0.0222962 74 10 5
0.305128 0.109875 0.0226019 75 11 5
0.304926 0.109492 0.0227112 75 11 5
0.305167 0.109748 0.0229855 75 11 6
0.304948 0.109425 0.0229304 76 11 6
0.305216 0.109632 0.0233676 76 11 6
0.305012 0.1093 0.0232968 76 12 7
0.305292 0.109495 0.0237375 76 12 6
0.305093 0.109162 0.0236812 78 13 7
0.305203 0.10903 0.0240503 78 13 7
0.305017 0.108705 0.0239731 79 13 7
0.305144 0.108571 0.0243372 79 13 8
0.304971 0.108239 0.0242602 81 13 8
0.305081 0.108108 0.0246258 81 14 8
0.304918 0.107779 0.0245558 81 15 9
0.305037 0.107656 0.0249148 82 14 9
0.304886 0.107324 0.0248418 82 15 9
0.305021 0.107192 0.0252042 83 15 10
0.30486 0.106864 0.0251279 83 15 10
0.305004 0.10673 0.0254843 83 16 10
0.304862 0.1064 0.025407 84 16 10
0.305032 0.10627 0.0257592 84 16 10
0.304879 0.105941 0.0256786 85 16 10
0.305071 0.10581 0.0260277 85 16 10
0.304935 0.105481 0.0259424 87 17 11
0.304812 0.105149 0.0258636 86 17 11
0.305178 0.106598 0.0258406 84 16 10
0.305164 0.107065 0.0255608 83 16 10
0.305175 0.10752 0.0252825 81 15 8
0.305202 0.107984 0.0249833 80 14 8
0.30526 0.10844 0.0247012 80 14 8
0.305317 0.108899 0.0244064 78 13 8
0.305392 0.109357 0.0241114 77 13 7
0.305497 0.109826 0.0238074 77 12 7
0.305442 0.109955 0.0234228 76 11 6
0.305386 0.110071 0.0230497 75 11 6
0.305368 0.110211 0.0226258 74 10 5
0.305826 0.110977 0.0211951 69 7 3
0.305472 0.110576 0.0214423 72 8 3
0.305169 0.110164 0.0216629 72 9 4
0.304906 0.109751 0.0218988 72 10 5
0.304683 0.109327 0.0221493 73 10 5
0.304707 0.109192 0.0225584 74 10 6
0.304505 0.108888 0.0224117 75 11 6
0.304554 0.108753 0.0227967 76 12 6
0.304367 0.108427 0.0227276 76 11 6
0.304466 0.108297 0.0231012 78 12 6
0.304292 0.107969 0.023033 79 13 7
0.304409 0.10784 0.0233876 80 14 9
0.304249 0.107511 0.0233109 80 14 8
0.304361 0.107379 0.0236752 82 15 8
0.304204 0.107051 0.0236035 82 15 8
0.304325 0.106926 0.0239693 83 15 9
0.304167 0.106596 0.023897 82 16 9
0.304288 0.106458 0.0242546 84 16 10
0.304145 0.106129 0.0241738 85 16 10
0.304284 0.106002 0.0245295 84 16 10
0.304161 0.105671 0.0244499 88 18 11
0.304305 0.105543 0.0248039 87 17 11
0.304197 0.105211 0.0247167 88 17 11
0.304358 0.105073 0.0250805 88 18 11
0.304249 0.104748 0.0249959 89 19 11
0.304423 0.104618 0.0253434 89 18 11
0.304336 0.104284 0.0252541 89 20 11
0.304506 0.104156 0.0255926 88 20 11
0.304435 0.10382 0.0255014 90 22 12
0.304639 0.103682 0.0258686 91 22 12
0.304356 0.103492 0.0254028 92 24 14
0.304574 0.103344 0.0258022 92 24 13
0.304485 0.103028 0.0256625 93 25 13
0.304671 0.102901 0.025997 97 29 16
0.304615 0.102569 0.0259024 101 33 18
0.304812 0.102439 0.0262402 102 33 19
0.304739 0.10211 0.0261442 105 40 24
0.304936 0.101981 0.0264851 105 38 22
0.304866 0.101648 0.0263813 111 47 28
0.305071 0.10152 0.0267342 113 49 30
0.304981 0.101193 0.0266386 124 59 38
0.305157 0.101068 0.0269794 142 72 46
0.305048 0.100736 0.0268928 144 75 48
0.305206 0.100624 0.0272314 150 91 56
0.304992 0.100304 0.027177 155 115 78
0.305295 0.100557 0.0274157 150 91 56
0.305164 0.10016 0.0275414 155 116 77
0.305481 0.10043 0.0277646 149 105 71
0.305318 0.100085 0.0278095 154 115 80
0.305618 0.100774 0.0277696 146 88 53
0.305412 0.100896 0.0274561 138 71 45
0.305342 0.100942 0.0273295 138 70 44
0.305449 0.101266 0.027418 121 55 34
0.305246 0.101393 0.0270751 123 55 35
0.305377 0.101691 0.0272324 113 45 27
0.305152 0.101847 0.0268354 111 45 27
0.305225 0.102176 0.0269338 104 36 21
0.305007 0.102309 0.0265858 99 31 17
0.305076 0.102639 0.0266878 99 30 17
0.304881 0.102774 0.026341 95 26 15
0.304972 0.103086 0.0264775 92 23 12
0.30478 0.103217 0.0261479 93 24 14
0.305016 0.103434 0.0265319 92 23 13
0.304818 0.103556 0.0262024 92 20 12
0.304895 0.10389 0.0262985 88 19 11
0.304707 0.104022 0.0259533 89 20 12
0.304796 0.104362 0.0260219 88 19 11
0.304692 0.104818 0.0257738 86 18 11
0.304631 0.105279 0.0255167 87 17 10
0.304754 0.10561 0.0255963 86 16 10
0.304585 0.105741 0.0252408 85 16 10
0.304717 0.106071 0.0253235 84 16 10
0.304564 0.106204 0.0249726 85 16 10
0.304703 0.106528 0.0250495 83 16 10
0.304564 0.106662 0.0246915 83 16 10
0.304727 0.106989 0.0247738 82 16 9
0.3046 0.107123 0.0244025 81 16 9
0.304755 0.107452 0.0244829 81 15 9
0.304639 0.107583 0.0241112 80 15 9
0.304802 0.107912 0.0241894 81 14 8
0.304689 0.108043 0.0238248 80 14 8
0.304848 0.108371 0.023901 80 13 8
0.304737 0.108502 0.0235397 79 13 8
0.304915 0.108828 0.0236099 77 12 7
0.304809 0.108957 0.0232455 77 12 6
0.305106 0.103763 0.026619 91 21 11
0.30531 0.103635 0.0269479 90 19 11
0.305534 0.103513 0.0272687 92 21 11
0.305764 0.103392 0.0275716 92 21 12
0.305999 0.103269 0.0278704 90 21 11
0.306239 0.103151 0.0281623 93 25 13
0.305235 0.103302 0.0268761 91 22 12
0.305171 0.102961 0.026808 95 26 15
0.305458 0.103175 0.0272011 91 21 11
0.305384 0.102835 0.0271266 94 25 13
0.305687 0.103054 0.0275116 95 24 13
0.30561 0.102713 0.0274405 99 28 16
0.305917 0.102935 0.027806 93 24 13
0.305842 0.102594 0.0277424 97 27 15
0.30616 0.102812 0.028103 93 25 14
0.306076 0.102479 0.0280387 97 28 16
0.305317 0.102499 0.027052 99 29 16
0.30546 0.102036 0.0273011 105 36 22
0.305536 0.102373 0.0273688 99 29 16
0.305756 0.102252 0.0276789 104 34 19
0.305679 0.10191 0.0276176 111 42 25
0.305988 0.102133 0.0279881 102 33 19
0.305901 0.101793 0.0279318 108 41 25
0.305821 0.10146 0.027875 116 50 30
0.30572 0.101118 0.0278023 134 65 41
0.305591 0.101573 0.0275605 119 51 31
0.304741 0.109086 0.0228675 76 11 6
0.304634 0.108624 0.0231716 78 12 7
0.304572 0.108173 0.0234705 79 13 8
0.304533 0.107713 0.0237518 81 14 9
0.304486 0.107253 0.0240432 82 16 9
0.304438 0.106794 0.0243342 81 16 9
0.304411 0.106334 0.0246111 84 16 10
0.304428 0.105868 0.0248902 85 16 10
0.304472 0.105409 0.0251559 88 18 11
0.304514 0.104948 0.0254278 87 18 11
0.304589 0.104486 0.0256835 87 19 11
0.305583 0.110688 0.0210478 70 8 3
0.305244 0.110288 0.0212705 71 9 3
0.304949 0.109869 0.0214979 72 9 4
0.304704 0.109452 0.0217366 73 10 5
0.30448 0.10902 0.0219945 73 10 5
0.304302 0.108597 0.0222753 75 11 6
0.304123 0.108229 0.0222819 77 12 7
0.304202 0.108097 0.0226641 79 13 7
0.303968 0.107898 0.0222101 77 12 7
0.304042 0.107765 0.0225787 78 13 7
0.30381 0.107565 0.0221331 78 13 7
0.303898 0.107436 0.0225028 79 14 8
0.303656 0.107235 0.0220581 81 14 8
0.303736 0.107105 0.0224365 82 15 9
0.303503 0.106905 0.0219818 81 16 9
0.303578 0.106769 0.0223625 82 16 9
0.303354 0.106571 0.021899 85 19 11
0.303423 0.106443 0.0222736 84 18 10
0.303214 0.106238 0.0218247 86 20 11
0.303293 0.106111 0.0221959 86 19 10
0.303082 0.105908 0.0217465 92 23 14
0.303165 0.105787 0.0221127 92 23 13
0.303035 0.105449 0.0220311 93 23 13
0.303169 0.105322 0.0223985 92 24 14
0.303055 0.104992 0.0223063 96 27 15
0.303178 0.104866 0.0226669 97 28 16
0.303083 0.104527 0.0225882 99 30 17
0.303207 0.104405 0.0229395 99 30 18
0.303127 0.10407 0.0228465 103 36 22
0.303268 0.103937 0.0232124 101 33 21
0.30319 0.103605 0.0231178 104 39 24
0.303345 0.103477 0.0234597 103 38 23
0.303278 0.103152 0.0233617 109 45 27
0.303454 0.103018 0.0237171 107 43 26
0.303222 0.102817 0.0232716 114 51 33
0.303415 0.10269 0.023615 113 50 31
0.303354 0.10236 0.0235155 121 59 37
0.303547 0.102224 0.0238668 120 57 36
0.303477 0.101898 0.023775 129 65 41
0.303654 0.101768 0.0241121 129 64 40
0.303534 0.101454 0.0240379 146 86 55
0.303703 0.101322 0.024376 148 84 53
0.303456 0.101017 0.0243339 155 92 57
0.303621 0.100894 0.0246809 164 107 67
0.303059 0.100593 0.0247321 160 138 102
0.30322 0.100467 0.0250702 157 135 100
0.302692 0.100138 0.02509 143 135 117
0.30289 0.100004 0.0254289 149 137 113
0.302604 0.0996547 0.02538 150 138 119
0.302821 0.0995219 0.0257227 147 137 119
0.302649 0.0991861 0.0256424 152 145 127
0.302882 0.0990512 0.0259759 154 146 128
0.302751 0.0987213 0.0258921 156 149 131
0.302994 0.0985899 0.0262257 160 155 133
0.302889 0.0982593 0.0261374 161 157 138
0.30312 0.0981275 0.0264628 162 158 137
0.303054 0.097799 0.0263628 161 158 137
0.303298 0.0976625 0.0266868 163 159 139
0.303261 0.0973356 0.0265956 163 161 139
0.303575 0.097515 0.0270776 166 164 143
0.303554 0.0971801 0.0269871 165 163 142
0.303871 0.097365 0.0274441 166 163 141
0.303847 0.0970265 0.0273662 170 165 143
0.30416 0.0972266 0.0277819 167 164 144
0.304129 0.0968892 0.0277086 171 168 145
0.304464 0.0970843 0.0281173 172 168 147
0.304435 0.0967448 0.0280384 175 171 147
0.30478 0.0969641 0.0284017 172 169 148
0.30475 0.0966199 0.028347 172 169 147
0.305097 0.0968377 0.0286814 171 171 147
0.304402 0.0964345 0.0279069 168 164 143
0.304114 0.0965696 0.0275734 166 162 140
0.303817 0.0967171 0.0272003 160 158 137
0.303539 0.0968635 0.0268397 159 155 135
0.303246 0.0970136 0.0264532 165 160 138
0.303018 0.0974695 0.026252 167 164 141
0.303018 0.0971402 0.0261338 168 163 140
0.302794 0.0972681 0.0258029 170 165 141
0.302963 0.0968652 0.0258771 165 159 137
0.302836 0.0969435 0.0256819 164 160 136
0.302974 0.0965761 0.025645 159 155 131
0.302688 0.0967337 0.0252238 163 158 133
0.302982 0.0962825 0.0253952 160 156 130
0.302714 0.0964345 0.0249809 165 160 132
0.303023 0.096004 0.025122 160 153 127
0.302745 0.0961595 0.0247037 167 160 131
0.303075 0.0957285 0.024821 164 156 129
0.302837 0.0958571 0.0244659 173 163 133
0.303137 0.0954682 0.0244784 169 158 129
0.302861 0.0956434 0.0239751 177 163 133
0.303211 0.0952317 0.0240353 167 156 129
0.302936 0.0953842 0.0235729 176 165 133
0.303221 0.0949821 0.0236139 172 165 134
0.302947 0.0951232 0.023214 176 168 137
0.303214 0.0946935 0.0233187 171 163 135
0.302942 0.0948372 0.0229366 172 163 133
0.303196 0.094393 0.0231086 172 164 135
0.302909 0.0945338 0.0227478 169 161 134
0.30314 0.0940726 0.0229734 161 157 131
0.302849 0.0941987 0.0226279 156 151 127
0.303069 0.0937417 0.0228564 146 148 126
0.302784 0.0938614 0.0225326 145 141 120
0.302733 0.0935208 0.0224846 136 136 119
0.302443 0.0936682 0.0221329 138 140 122
0.302378 0.093323 0.0220909 133 132 113
0.302509 0.0940111 0.0221954 147 141 122
0.30224 0.0941675 0.0218062 147 142 121
0.302578 0.0943531 0.0222521 152 145 123
0.302304 0.0945157 0.0218498 154 148 124
0.302649 0.0946696 0.0223647 165 156 128
0.30236 0.0948589 0.0219054 161 154 128
0.302476 0.0951291 0.0221429 174 165 136
0.302294 0.095256 0.0217977 169 159 130
0.302443 0.0954697 0.0222566 179 170 137
0.302278 0.0955908 0.0219076 172 164 134
0.302341 0.095805 0.0223886 181 169 136
0.30219 0.0959285 0.0220329 176 163 133
0.302188 0.0961657 0.0225378 177 163 131
0.302031 0.0962841 0.0221569 179 166 134
0.302015 0.0964988 0.0227022 173 159 129
0.301859 0.0966201 0.0223419 175 162 130
0.301812 0.0968363 0.0228418 171 159 128
0.30167 0.0969615 0.0224867 172 160 130
0.301683 0.0971662 0.0229917 170 161 132
0.301538 0.0972908 0.022637 168 159 130
0.301566 0.0974998 0.0231357 166 157 130
0.301423 0.097629 0.0227779 164 157 130
0.301473 0.0978321 0.0232694 160 152 128
0.301329 0.0979653 0.0229168 161 153 128
0.30142 0.0981722 0.0233929 158 150 127
0.301269 0.0982997 0.0230391 158 150 125
0.3014 0.0985054 0.0235118 152 146 125
0.301243 0.0986338 0.0231663 154 146 123
0.30124 0.0989629 0.0232776 147 142 124
0.301075 0.0987596 0.0228166 152 145 123
0.301081 0.0990905 0.0229282 143 137 116
0.301119 0.0984235 0.0226945 157 150 126
0.301187 0.098091 0.02256 158 150 127
0.302242 0.0949337 0.0217099 161 153 127
0.302685 0.0949982 0.0225001 176 165 133
0.302623 0.0953465 0.0226089 179 170 138
0.30251 0.0956794 0.022741 180 167 135
0.302359 0.0960244 0.0228939 181 169 136
0.30217 0.0963799 0.0230446 168 154 124
0.301979 0.0967164 0.0232059 168 157 127
0.301829 0.09704 0.0233437 174 164 134
0.30172 0.0973755 0.0234874 168 158 132
0.301626 0.0977115 0.0236244 165 157 131
0.30158 0.0980454 0.0237434 161 153 130
0.301578 0.0983767 0.0238668 156 149 128
0.301422 0.0988277 0.0236485 148 143 123
0.301455 0.0991666 0.0237525 144 140 123
0.301272 0.0992981 0.0233891 142 138 123
0.301358 0.0996327 0.0234942 144 141 124
0.301184 0.0997616 0.0231487 141 136 118
0.301285 0.100101 0.0232343 147 142 124
0.301117 0.100233 0.0228816 143 137 120
0.301238 0.100562 0.0229801 148 142 123
0.301058 0.100692 0.0226279 146 141 123
0.301218 0.101029 0.0227126 148 140 120
0.301015 0.101159 0.0223604 152 143 121
0.301324 0.101557 0.0224646 155 146 121
0.301042 0.101639 0.0220984 151 144 123
0.301562 0.101992 0.0221123 158 143 114
0.301238 0.102103 0.0218493 156 145 121
0.301899 0.102406 0.0217665 163 129 89
0.301388 0.10258 0.0214388 163 141 109
0.302034 0.102822 0.0214134 158 113 76
0.301749 0.10299 0.0211624 165 131 97
0.302118 0.103282 0.0211455 144 92 62
0.30184 0.103421 0.0208533 151 107 75
0.302109 0.103717 0.020833 139 90 62
0.301966 0.103853 0.0206038 140 93 65
0.302289 0.104065 0.0208593 119 66 44
0.302149 0.104188 0.0205443 127 75 53
0.302311 0.104498 0.0205892 123 69 48
0.30201 0.104306 0.0202855 134 85 59
0.302245 0.104676 0.0202886 125 70 48
0.302123 0.104747 0.02002 123 70 48
0.302375 0.105037 0.0202016 113 56 38
0.302307 0.105177 0.0197928 114 57 38
0.302493 0.105473 0.0199257 109 50 34
0.302492 0.105607 0.0195129 110 51 34
0.30268 0.1059 0.0196489 104 43 29
0.302735 0.106027 0.0192584 102 42 27
0.30292 0.10632 0.0193963 99 38 24
0.302987 0.106424 0.0190267 97 35 22
0.303174 0.106733 0.0191582 95 33 21
0.302794 0.0952164 0.0229319 179 168 137
0.302682 0.0955521 0.0231026 181 170 138
0.302495 0.0959167 0.0232449 178 165 132
0.302304 0.0962551 0.0234112 174 160 130
0.302123 0.0966001 0.0235534 177 164 133
0.301973 0.0969135 0.0237196 176 168 139
0.301863 0.097256 0.0238486 174 167 140
0.301795 0.0975904 0.0239752 163 156 133
0.301762 0.0979146 0.0240922 160 153 131
0.301761 0.0982485 0.0242085 154 150 128
0.301775 0.098579 0.0243201 154 148 128
0.301597 0.0987088 0.0239825 150 145 126
0.301639 0.0990399 0.024087 147 142 125
0.302822 0.0979288 0.0260369 161 156 135
0.302792 0.0975941 0.0259218 166 161 139
0.302596 0.0980589 0.0256938 162 157 135
0.302562 0.0977312 0.0255787 167 163 141
0.302377 0.098187 0.0253458 161 157 135
0.30235 0.0978624 0.0252433 168 164 142
0.302145 0.097992 0.0248976 163 159 137
0.302135 0.0976601 0.0247878 167 163 137
0.301941 0.0977836 0.0244471 161 154 132
0.301959 0.0974561 0.0243195 167 159 135
0.301955 0.0981243 0.0245563 160 154 132
0.301975 0.0984556 0.0246616 156 151 131
0.301832 0.0989096 0.0244306 149 146 127
0.301725 0.0993748 0.024183 146 141 124
0.301536 0.0995051 0.0238365 143 136 118
0.301655 0.099842 0.0239205 148 141 125
0.301477 0.0999706 0.0235871 147 141 125
0.301622 0.100307 0.023678 145 140 124
0.301426 0.100428 0.0233193 153 145 124
0.301613 0.10078 0.0233983 146 139 119
0.301404 0.100915 0.0230599 151 141 118
0.301814 0.101291 0.0231093 161 142 112
0.301581 0.101426 0.0228072 157 143 117
0.302368 0.101729 0.0227008 168 124 84
0.302067 0.101861 0.0224318 167 134 92
0.302555 0.102115 0.0223794 158 104 69
0.30223 0.10225 0.0220562 165 116 77
0.302511 0.102545 0.0220712 151 94 62
0.302294 0.102702 0.0217364 152 101 68
0.302478 0.103009 0.0217828 132 73 49
0.302291 0.103152 0.0214497 137 83 56
0.302439 0.103473 0.0215098 132 75 52
0.302283 0.103604 0.0211577 128 74 51
0.302423 0.103933 0.0212246 118 61 41
0.302431 0.104392 0.0209358 114 56 37
0.302462 0.104853 0.0206272 109 49 32
0.302174 0.0983271 0.0250027 158 154 133
0.302027 0.0987773 0.024781 151 146 127
0.301916 0.0992436 0.0245273 147 143 125
0.301853 0.0997105 0.0242747 148 144 126
0.301817 0.100184 0.0240131 150 143 125
0.301853 0.100646 0.0237358 151 141 119
0.302058 0.101135 0.0234112 165 142 107
0.302596 0.101578 0.0229956 171 132 91
0.302756 0.101986 0.0227 153 91 59
0.302729 0.102419 0.0224027 144 84 55
0.302655 0.102874 0.0221326 129 69 47
0.302584 0.103339 0.0218614 123 64 42
0.302546 0.1038 0.0215885 115 56 37
0.30253 0.104255 0.0213093 116 55 37
0.302549 0.104713 0.021046 108 46 30
0.302586 0.105179 0.0207501 105 42 27
0.302527 0.105322 0.0203454 107 47 32
0.30266 0.105638 0.0204596 99 37 22
0.302656 0.105771 0.0200449 101 41 27
0.302802 0.106083 0.0201687 92 30 18
0.302856 0.106202 0.0197757 97 35 22
0.303009 0.106509 0.0199091 90 28 16
0.303093 0.106624 0.0195264 93 32 20
0.303241 0.106932 0.0196548 84 22 12
0.303335 0.10703 0.0193002 87 26 15
0.303482 0.107337 0.0194312 81 19 10
0.302229 0.0986508 0.0251165 156 152 133
0.302103 0.0991163 0.0248792 151 146 128
0.302039 0.0995823 0.0246181 145 139 122
0.302015 0.100047 0.0243475 143 135 118
0.302092 0.100536 0.0240835 155 145 119
0.302346 0.101001 0.0237367 161 139 106
0.302805 0.101417 0.0233055 167 119 76
0.302956 0.101851 0.0230151 154 94 61
0.302914 0.102287 0.0227303 144 81 51
0.302822 0.102744 0.0224756 129 67 45
0.302895 0.103073 0.0225696 122 60 39
0.302731 0.103206 0.0222108 120 60 41
0.302819 0.103536 0.0223033 114 53 34
0.302679 0.103667 0.0219498 113 53 34
0.302768 0.103992 0.022044 111 48 31
0.30264 0.104128 0.0216779 111 47 31
0.30285 0.104327 0.0221245 105 40 25
0.30274 0.104464 0.0217611 106 40 25
0.30284 0.104784 0.0218493 101 33 19
0.302732 0.104922 0.021489 102 36 21
0.302928 0.105119 0.0219379 97 30 18
0.302828 0.105256 0.0215697 98 30 17
0.302947 0.105578 0.021662 94 27 15
0.302894 0.105663 0.0214191 95 27 16
0.303045 0.105971 0.021576 92 24 14
0.302983 0.106118 0.0211467 92 26 14
0.303149 0.106364 0.0214509 86 21 12
0.303132 0.106418 0.0212877 85 20 11
0.303282 0.106733 0.0214197 83 20 10
0.303255 0.10687 0.0210011 84 19 11
0.303403 0.107186 0.0211348 79 16 8
0.303419 0.107311 0.0207242 80 16 9
0.303571 0.107623 0.0208591 78 13 7
0.30362 0.107746 0.0204705 78 14 7
0.303787 0.108059 0.0205975 74 11 6
0.303867 0.10817 0.0202254 75 11 6
0.304045 0.108473 0.0203641 74 11 5
0.303984 0.10827 0.0198497 75 11 6
0.304155 0.10858 0.0199832 74 11 5
0.303814 0.107968 0.0197077 77 15 8
0.303693 0.107853 0.0200867 77 13 6
0.303647 0.107654 0.0195762 80 18 9
0.303525 0.107542 0.0199524 78 16 9
0.303382 0.107235 0.0198095 82 20 11
0.303306 0.107128 0.0201862 84 20 12
0.303155 0.106818 0.0200414 86 24 14
0.303107 0.106699 0.0204495 87 23 14
0.302961 0.106391 0.0203164 91 29 17
0.302945 0.106263 0.0207224 91 28 17
0.302806 0.105947 0.0205838 95 32 19
0.302827 0.105816 0.0209997 97 32 21
0.302697 0.105496 0.0208722 99 34 21
0.302762 0.105353 0.0212817 97 31 18
0.302662 0.105031 0.0211711 105 41 27
0.302635 0.104586 0.0213978 106 42 26
0.303101 0.106566 0.0208651 87 22 12
0.303265 0.107006 0.0205829 81 17 9
0.303463 0.107439 0.0203352 78 14 7
0.302551 0.097402 0.0254631 167 162 138
0.302604 0.0970732 0.0253361 168 161 137
0.302382 0.0971967 0.0250082 169 163 137
0.302449 0.0968673 0.0248829 169 165 138
0.302232 0.096996 0.0245401 172 166 138
0.30233 0.0966566 0.0244187 171 165 136
0.302124 0.0967949 0.0240715 171 164 135
0.302275 0.0964674 0.0239156 175 164 133
0.302026 0.0971265 0.0241951 176 168 139
0.302158 0.0973305 0.0246702 171 166 139
0.302343 0.0975344 0.0251329 168 163 138
0.302664 0.0983852 0.025806 159 155 135
0.302442 0.0985212 0.0254528 157 152 133
0.302529 0.0988511 0.0255562 154 148 129
0.302307 0.0989878 0.0252174 152 147 127
0.302425 0.0993184 0.0253108 149 144 126
0.30222 0.0994505 0.0249672 149 143 126
0.302391 0.0997969 0.0250432 144 136 118
0.302215 0.0999276 0.0247044 146 139 118
0.302518 0.100258 0.024761 151 140 114
0.302293 0.100389 0.0244177 147 140 118
0.302867 0.100721 0.0243883 161 140 105
0.302668 0.100855 0.024068 165 140 103
0.303263 0.10115 0.0239992 164 111 70
0.303038 0.1013 0.0236629 169 129 87
0.303349 0.101582 0.0236943 148 88 55
0.303153 0.101714 0.0233541 148 86 55
0.303286 0.102026 0.0234244 129 68 43
0.30309 0.102161 0.0230803 138 75 47
0.303169 0.102486 0.0231715 121 59 37
0.302986 0.102621 0.02282 123 61 40
0.303061 0.102948 0.0229195 117 55 35
0.302972 0.103404 0.0226644 112 49 31
0.303129 0.103272 0.023022 109 47 29
0.303042 0.103735 0.022757 107 41 26
0.302897 0.103869 0.0223995 109 44 27
0.302984 0.104199 0.0224887 103 37 22
0.302954 0.104663 0.0222165 101 32 19
0.303443 0.107042 0.0215628 81 16 9
0.303565 0.107497 0.0212769 79 14 7
0.303731 0.107937 0.0209983 76 12 6
0.303962 0.108366 0.0207487 75 11 5
0.304227 0.108779 0.0205131 72 10 5
0.304352 0.108877 0.0201342 75 10 5
0.304528 0.109182 0.0202901 73 9 4
0.303601 0.107356 0.0216952 79 14 7
0.303731 0.107802 0.021416 77 13 7
0.303909 0.108246 0.0211354 76 12 6
0.304153 0.108667 0.0209144 74 11 5
0.30443 0.109078 0.0206743 73 10 4
0.304731 0.109479 0.0204284 71 8 4
0.303771 0.107667 0.0218377 78 13 6
0.303897 0.108114 0.0215464 76 12 6
0.304099 0.108556 0.0212985 74 11 5
0.304346 0.108974 0.0210473 73 10 4
0.304619 0.109378 0.0208164 71 9 4
0.304922 0.109787 0.020568 71 9 4
0.303926 0.107972 0.021973 77 12 7
0.304076 0.108428 0.0216994 75 11 5
0.304296 0.108844 0.0214477 74 10 5
0.304534 0.10927 0.0211987 72 9 4
0.304811 0.109691 0.0209628 71 9 4
0.305128 0.110099 0.0207134 70 9 4
0.304101 0.108288 0.0221193 76 12 6
0.304274 0.108725 0.0218453 75 10 5
0.304502 0.109156 0.0215839 73 10 5
0.304733 0.10957 0.0213387 71 9 4
0.305026 0.10999 0.021113 71 9 4
0.305357 0.110391 0.0208858 69 8 4
0.304408 0.0961285 0.0277372 157 153 131
0.304421 0.0958358 0.0275313 151 147 128
0.304453 0.0955569 0.0272817 142 138 120
0.304464 0.0952899 0.0270021 138 135 116
0.304533 0.0950509 0.0266864 125 123 107
0.304599 0.0948663 0.0262958 110 106 93
0.304776 0.0947143 0.0255765 111 103 91
0.305207 0.0945289 0.0248254 113 106 88
0.305324 0.0941322 0.0244649 133 123 98
0.305261 0.0938016 0.0243075 154 130 103
0.30412 0.0962692 0.0273819 154 150 129
0.304127 0.0959723 0.0271788 150 146 125
0.30415 0.0957005 0.0269194 142 139 120
0.304171 0.095433 0.0266398 137 132 114
0.304222 0.0951824 0.0263276 128 126 109
0.304271 0.0949796 0.0259071 126 122 105
0.304391 0.0948144 0.0253237 127 121 103
0.304797 0.0946252 0.0247937 122 116 98
0.30443 0.094635 0.0247179 127 122 102
0.304617 0.0943217 0.0243338 138 132 109
0.304362 0.0943552 0.0242819 135 131 109
0.304557 0.0939651 0.0240735 150 143 116
0.304273 0.094047 0.0240004 144 140 115
0.304427 0.0936541 0.0238792 153 148 122
0.30416 0.0937847 0.0237957 156 151 126
0.304135 0.0934488 0.0236659 154 149 125
0.303956 0.093794 0.0236541 157 154 128
0.303873 0.0934332 0.0234966 158 155 129
0.303723 0.0938608 0.023483 158 158 131
0.303643 0.0935237 0.0233462 155 158 130
0.303443 0.0939503 0.0232623 163 162 135
0.303357 0.0936258 0.0231279 154 156 134
0.303477 0.094271 0.0234143 165 162 131
0.303506 0.094578 0.0236377 166 161 130
0.303521 0.0948604 0.0239818 163 157 130
0.303481 0.0950825 0.0244535 164 153 127
0.303408 0.0953174 0.0248897 157 146 121
0.30334 0.0955844 0.0252218 154 147 122
0.303299 0.0958555 0.0255208 153 148 124
0.303277 0.0961318 0.0257907 153 149 126
0.30325 0.0964087 0.026058 158 154 132
0.303242 0.0967091 0.0262804 162 158 136
0.303762 0.094191 0.0236571 158 157 127
0.303802 0.0944859 0.0239224 154 152 125
0.303807 0.0947452 0.0243076 148 142 119
0.303746 0.0949634 0.0247997 149 141 119
0.303679 0.0952014 0.0252486 146 137 117
0.303624 0.095448 0.0255925 144 140 118
0.303584 0.0957104 0.0258967 147 143 119
0.303548 0.095984 0.026182 153 148 126
0.303533 0.0962612 0.0264399 156 153 131
0.303535 0.0965627 0.0266562 155 153 133
0.304015 0.0941286 0.0238647 155 152 125
0.304087 0.094415 0.0241574 144 141 118
0.304102 0.0946433 0.0245861 136 133 110
0.30403 0.0948827 0.0250793 138 132 111
0.303968 0.0950832 0.0255466 138 131 111
0.303916 0.0953061 0.0259547 139 135 114
0.303875 0.0955696 0.0262717 140 136 115
0.303847 0.0958412 0.0265438 143 141 121
0.303828 0.0961194 0.0268043 151 149 129
0.303832 0.0964108 0.0270218 153 151 130
0.30497 0.0942518 0.0243701 134 127 104
0.304893 0.093891 0.0241631 151 141 109
0.303818 0.0930748 0.0234174 153 153 128
0.303642 0.0931485 0.0233133 153 154 128
0.3036 0.0928045 0.0232738 140 150 127
0.303291 0.0929116 0.0230546 140 144 128
0.303221 0.0925543 0.0230227 138 144 126
0.302904 0.0926896 0.0227361 140 140 123
0.30282 0.0923257 0.0227357 131 135 120
0.302534 0.09246 0.0224046 130 130 114
0.302444 0.0920969 0.0224253 123 128 113
0.302161 0.0922323 0.0220884 118 122 110
0.302053 0.0918433 0.0221668 103 117 108
0.302339 0.0917036 0.0225149 117 125 113
0.302739 0.0919606 0.0227593 123 129 118
0.303122 0.0921988 0.0230271 132 137 125
0.302258 0.0913002 0.0225963 109 121 110
0.302243 0.0926045 0.0220651 125 127 112
0.302319 0.0929638 0.0220637 129 131 114
0.302604 0.0928284 0.0224001 132 133 117
0.302672 0.0931788 0.0224359 138 138 120
0.302968 0.0930372 0.0227649 140 138 119
0.303034 0.0933841 0.0228164 138 139 123
0.303349 0.0932605 0.0230894 144 150 130
0.304143 0.10764 0.0229507 79 13 7
0.304095 0.107181 0.0232409 81 15 8
0.304047 0.106721 0.023535 83 15 9
0.304014 0.10626 0.0238193 83 16 10
0.30401 0.105806 0.024091 85 17 10
0.304052 0.105338 0.0243639 88 18 11
0.304091 0.104879 0.0246316 90 20 12
0.304162 0.104414 0.0249011 89 20 11
0.304239 0.103953 0.0251502 91 23 13
0.303988 0.107305 0.022875 80 14 8
0.303831 0.106978 0.0227944 81 15 8
0.303682 0.106647 0.022725 81 15 9
0.303799 0.106514 0.0230906 83 15 9
0.303657 0.106185 0.0230098 84 16 10
0.303763 0.106056 0.0233705 85 17 11
0.303651 0.105731 0.0232814 85 18 11
0.303759 0.105595 0.0236385 86 17 11
0.303648 0.105267 0.0235593 90 20 12
0.303777 0.105134 0.0239235 88 19 12
0.303677 0.104806 0.0238381 88 19 12
0.303832 0.104682 0.0241811 91 21 12
0.303743 0.104345 0.0241032 93 23 14
0.3039 0.10421 0.024457 93 23 13
0.303817 0.103882 0.0243666 95 25 14
0.303988 0.103752 0.0247168 93 23 13
0.303912 0.103421 0.0246072 97 28 16
0.304108 0.103288 0.0249713 96 27 16
0.304043 0.102956 0.024874 100 31 18
0.30423 0.10283 0.0252135 99 32 18
0.304175 0.102497 0.0251137 105 39 22
0.304357 0.102372 0.0254561 105 39 22
0.304307 0.102038 0.0253526 113 48 30
0.304498 0.101902 0.0257041 108 45 26
0.304443 0.10158 0.0256007 122 58 35
0.304616 0.101453 0.025943 115 53 32
0.304531 0.101126 0.0258489 131 67 42
0.304698 0.100996 0.0261927 149 81 50
0.304579 0.100674 0.0261154 149 85 54
0.304743 0.100542 0.0264535 152 105 67
0.304458 0.100241 0.0264104 153 119 85
0.304559 0.100112 0.0267751 154 118 79
0.304148 0.0998203 0.0267839 149 131 105
0.30432 0.0996737 0.0271438 148 132 110
0.304015 0.0993445 0.0271157 149 137 120
0.304256 0.0992031 0.0274233 152 139 119
0.304034 0.0988874 0.0273522 158 149 130
0.30415 0.0988101 0.027496 159 150 130
0.303881 0.098527 0.0272962 165 158 136
0.304138 0.0983918 0.0276279 165 158 137
0.303963 0.0980778 0.0275075 167 162 140
0.304265 0.0979371 0.0278587 167 162 140
0.303912 0.0977144 0.0274975 169 165 142
0.304208 0.0975714 0.0278404 170 165 143
0.303631 0.0978618 0.0271224 166 164 143
0.303367 0.0979972 0.0267901 164 161 140
0.303223 0.0984636 0.0265604 161 156 135
0.303125 0.0989199 0.0263094 157 150 131
0.303062 0.099385 0.0260507 150 139 120
0.303079 0.0998539 0.0257861 148 136 113
0.303403 0.100339 0.0254164 163 135 95
0.303771 0.100763 0.0250366 163 100 61
0.303881 0.10119 0.0247266 146 83 52
0.303819 0.101643 0.0244638 127 62 39
0.303719 0.102102 0.0242003 117 52 33
0.303594 0.102548 0.0239617 112 48 30
0.30363 0.102892 0.0240668 103 38 22
0.303521 0.10335 0.023813 102 36 21
0.303419 0.103817 0.0235546 99 32 19
0.303352 0.10427 0.0233002 97 27 17
0.303304 0.104735 0.0230228 96 26 16
0.303301 0.105197 0.0227502 93 24 14
0.303275 0.10565 0.0224768 92 21 13
0.303691 0.098212 0.0271552 164 160 139
0.30347 0.0983313 0.0268867 161 156 137
0.303364 0.0987941 0.0266477 159 152 131
0.303305 0.0992583 0.026391 151 140 122
0.30333 0.0997291 0.0261174 148 136 112
0.30359 0.10021 0.0257681 152 133 102
0.303961 0.100629 0.0253775 163 112 68
0.304031 0.10106 0.0250756 156 92 57
