ply
format ascii 1.0
element vertex 1270
property float x
property float y
property float z
property uchar diffuse_red
property uchar diffuse_green
property uchar diffuse_blue
end_header
0.255106 0.0605003 0.0302011 122 122 107
0.255128 0.0604781 0.0298088 125 124 108
0.255432 0.0605969 0.0302116 122 122 107
0.255454 0.0605806 0.0298098 128 124 108
0.255736 0.0607567 0.0302132 126 123 108
0.255763 0.0607293 0.0298148 128 123 107
0.256035 0.06095 0.0302064 125 121 105
0.25607 0.0609229 0.0298065 123 117 102
0.256353 0.0611545 0.0301393 119 112 97
0.256368 0.0611549 0.0297097 118 110 95
0.256649 0.0614015 0.0300907 109 100 85
0.256085 0.0609131 0.0294138 125 117 101
0.255785 0.0607483 0.0290292 132 122 105
0.25547 0.060652 0.028642 134 126 109
0.25515 0.0606258 0.0282064 139 132 115
0.254837 0.0605349 0.0281756 140 133 115
0.255791 0.0607037 0.0294174 133 125 107
0.255476 0.0606134 0.0290157 132 125 110
0.255155 0.0605451 0.0286377 135 127 111
0.254833 0.0605064 0.0285969 134 127 108
0.25449 0.0604833 0.0285622 129 124 106
0.255471 0.0605836 0.029407 133 126 109
0.255143 0.0604897 0.0293826 131 127 111
0.255148 0.0605189 0.0289956 136 127 109
0.254822 0.0604598 0.02899 132 126 108
0.25479 0.0604352 0.029789 121 121 103
0.254796 0.0604432 0.029367 123 122 105
0.254454 0.0604311 0.0297579 108 112 93
0.254476 0.0604563 0.029359 115 115 99
0.25417 0.0605239 0.0297215 76 88 74
0.25416 0.0605209 0.0293245 96 102 87
0.253942 0.0606457 0.0292922 61 74 57
0.254159 0.0605502 0.0289303 99 104 88
0.253913 0.0606206 0.0290265 78 89 74
0.254487 0.0604737 0.0289682 119 119 100
0.254442 0.0604712 0.0301521 89 98 82
0.254165 0.0605549 0.0300934 76 86 67
0.254135 0.0605405 0.029972 77 86 66
0.253907 0.0606312 0.0296074 58 74 56
0.253861 0.0607171 0.0301382 59 70 52
0.253689 0.0607487 0.0292612 52 68 51
0.254697 0.0606987 0.031337 73 93 84
0.254719 0.0605647 0.0309636 94 106 94
0.255004 0.0607181 0.0313658 87 105 97
0.255046 0.0606114 0.030994 100 111 99
0.255335 0.0607869 0.0313788 101 111 101
0.255361 0.0607243 0.0309938 117 123 108
0.255668 0.0608482 0.0310418 117 121 109
0.255713 0.0607862 0.0306108 122 122 108
0.255984 0.0610172 0.0310119 117 120 106
0.256014 0.06097 0.0306083 121 120 104
0.256287 0.0612278 0.030979 117 119 105
0.256316 0.0611797 0.0305649 120 117 100
0.2566 0.0614267 0.0306838 114 108 93
0.256602 0.0614089 0.0304992 114 109 93
0.256895 0.0616754 0.0305379 108 100 85
0.257147 0.0620081 0.0308804 112 99 80
0.256864 0.0617298 0.0310116 115 108 90
0.257114 0.0620939 0.0312755 121 113 92
0.256819 0.0618233 0.031424 121 117 97
0.257048 0.062222 0.0316586 126 119 98
0.256763 0.0619441 0.0318159 126 126 108
0.256988 0.0624165 0.0319819 131 127 105
0.256706 0.062117 0.0321416 132 132 112
0.25693 0.0626145 0.0321924 136 132 109
0.256634 0.0623399 0.0324228 136 139 119
0.256565 0.0626364 0.032668 137 139 119
0.256335 0.0621037 0.0326418 128 133 116
0.256858 0.0629107 0.0324227 143 141 117
0.256765 0.0632469 0.0326432 147 143 117
0.257145 0.0632009 0.0321576 143 131 105
0.257049 0.0635575 0.0323889 146 138 112
0.257364 0.0635059 0.0318842 144 125 96
0.257307 0.0637955 0.032081 143 126 97
0.256728 0.0633793 0.0327192 148 144 121
0.256658 0.0635943 0.0328412 149 146 124
0.257424 0.0632203 0.0316355 143 119 89
0.257479 0.0630108 0.0313833 141 116 86
0.257489 0.06296 0.0312651 136 114 84
0.257314 0.0625447 0.0314618 131 117 91
0.257357 0.0624346 0.0311149 120 105 81
0.257239 0.0627477 0.0317962 138 127 101
0.257207 0.0628858 0.031955 138 128 102
0.25656 0.0614908 0.0311374 118 114 96
0.256263 0.0612603 0.031244 117 120 106
0.255943 0.0610839 0.0314135 120 124 110
0.255628 0.0609284 0.0314239 116 124 110
0.255288 0.0608975 0.0317498 97 115 106
0.25497 0.0608446 0.0317316 89 112 102
0.255242 0.0610347 0.0321856 75 103 98
0.255175 0.0612055 0.0325284 91 115 107
0.255499 0.0613153 0.032553 93 117 107
0.255139 0.0613986 0.0328553 87 112 104
0.255457 0.06152 0.0328707 103 124 113
0.255593 0.0610302 0.0318108 109 123 112
0.255559 0.0611405 0.0321849 104 121 110
0.255864 0.0612892 0.0321629 112 124 112
0.255813 0.0614301 0.0324699 115 127 113
0.256126 0.0616234 0.0324158 119 127 114
0.255764 0.0616314 0.0328018 108 127 114
0.256056 0.0618507 0.0327415 120 129 115
0.256406 0.0618557 0.0322956 127 131 116
0.256172 0.061472 0.032044 122 128 113
0.256469 0.0616877 0.0319405 126 128 111
0.25622 0.0613485 0.0316468 120 126 110
0.256517 0.0615849 0.0315408 121 124 107
0.255907 0.0611828 0.0317909 108 121 109
0.255401 0.0606523 0.0306075 120 122 108
0.255074 0.060563 0.0305988 114 119 105
0.254312 0.0609896 0.031898 49 74 66
0.254042 0.0611465 0.0320575 37 68 60
0.254302 0.061177 0.0323713 47 77 74
0.254042 0.0613458 0.0325573 37 65 55
0.254274 0.0614812 0.0329261 48 76 69
0.254512 0.061601 0.0331377 57 85 80
0.254228 0.0617849 0.0332533 52 81 75
0.254632 0.061885 0.0334135 60 91 89
0.254369 0.0620282 0.0335132 56 86 81
0.254588 0.06222 0.0336609 66 96 91
0.254251 0.062275 0.0336926 48 77 72
0.254496 0.062557 0.0338704 61 91 87
0.254116 0.0625085 0.0338485 47 76 72
0.25422 0.0627954 0.0339976 55 86 85
0.253816 0.0626319 0.0339018 42 70 65
0.253922 0.0629649 0.0340982 50 80 77
0.253873 0.062317 0.0336953 38 66 61
0.254921 0.0621673 0.0335825 84 110 100
0.254848 0.0624186 0.0337559 83 111 102
0.254832 0.062692 0.0339157 82 112 101
0.254643 0.062939 0.0340312 78 109 100
0.255012 0.0629507 0.0339664 101 124 112
0.254974 0.0632186 0.0340517 100 123 110
0.255356 0.0630299 0.0338513 115 131 118
0.255265 0.0634185 0.0339822 121 138 122
0.255653 0.0632112 0.0337185 138 145 128
0.255571 0.0635616 0.0338143 122 140 123
0.255161 0.0637952 0.0340595 120 136 121
0.254842 0.0636505 0.0341902 101 124 111
0.25479 0.0633024 0.0341266 93 119 107
0.254679 0.0631334 0.0341016 80 109 100
0.254382 0.0631173 0.034136 70 103 95
0.254059 0.0633239 0.034237 60 92 89
0.25424 0.0636456 0.0343137 79 110 102
0.254321 0.0638321 0.0343448 89 115 105
0.25443 0.0639314 0.034324 88 115 105
0.254613 0.0637211 0.0342659 95 118 107
0.254524 0.0634452 0.0342266 85 111 101
0.254756 0.064036 0.0342455 111 129 115
0.255224 0.0623546 0.0336324 96 119 106
0.255129 0.0625408 0.0337591 93 119 106
0.25514 0.0627913 0.0338781 104 124 110
0.255492 0.0626391 0.0336485 120 132 117
0.255705 0.063078 0.0336548 130 141 124
0.255804 0.0628126 0.0335054 129 139 121
0.254547 0.0610324 0.0322169 60 87 81
0.253765 0.0613621 0.0321948 34 61 47
0.253745 0.0615791 0.032673 34 63 50
0.258067 0.0653331 0.031048 113 60 35
0.257695 0.0649874 0.0313907 132 85 50
0.257699 0.0651741 0.0314491 136 95 61
0.257371 0.0647996 0.0319753 144 122 89
0.257616 0.0654144 0.0316397 133 91 58
0.257289 0.0651752 0.0320757 146 122 89
0.257533 0.0657717 0.0317912 132 87 52
0.257198 0.065543 0.032171 146 115 76
0.257126 0.0659022 0.032219 155 120 83
0.256794 0.0657806 0.0325797 160 135 102
0.256998 0.0662714 0.0322761 159 124 86
0.256667 0.0661583 0.0326441 163 138 107
0.256538 0.066525 0.0326895 165 133 97
0.256349 0.0660358 0.032982 162 145 113
0.256236 0.0663994 0.0330212 161 138 106
0.256008 0.0659032 0.0333367 158 148 119
0.255881 0.0663502 0.0333637 158 143 110
0.255585 0.0661673 0.0336505 149 139 112
0.255557 0.0663161 0.0336302 146 136 110
0.255234 0.0662696 0.0338532 133 128 105
0.255147 0.0666428 0.033733 128 119 99
0.254812 0.066581 0.0338689 129 124 104
0.254716 0.0669719 0.0336778 129 124 103
0.254451 0.0665735 0.0339287 127 127 110
0.254366 0.0669321 0.0337681 129 126 109
0.254018 0.0668845 0.0338456 127 129 112
0.254283 0.067275 0.0335902 128 125 108
0.25393 0.0672372 0.0336661 129 129 113
0.253851 0.067566 0.0334655 131 129 114
0.2535 0.0675259 0.0335445 134 134 120
0.253438 0.0677892 0.033356 137 137 121
0.253084 0.0677617 0.0334196 134 136 120
0.253373 0.0680867 0.0331115 137 137 123
0.253017 0.0680575 0.033174 134 137 122
0.252953 0.0683463 0.0328962 139 140 126
0.252604 0.0683029 0.032933 139 142 128
0.252924 0.0684718 0.0327567 139 140 126
0.252574 0.0684417 0.0327858 140 143 129
0.252873 0.0687279 0.0324518 141 142 127
0.252523 0.0686983 0.0324785 146 148 133
0.252822 0.0689701 0.0321388 147 146 130
0.252625 0.0689544 0.0321449 149 151 133
0.252865 0.0692225 0.0317356 147 148 132
0.252489 0.0691714 0.0318274 147 151 135
0.252706 0.0694075 0.0314189 147 148 132
0.252371 0.0693234 0.0315944 148 150 134
0.252197 0.0694758 0.0312634 146 150 134
0.251856 0.0693728 0.0314402 140 150 135
0.251978 0.0695952 0.0309329 150 153 137
0.251635 0.0694949 0.0311043 144 151 137
0.251735 0.0696734 0.0306039 140 149 135
0.251407 0.0695736 0.0307775 129 146 134
0.251495 0.0697121 0.0302643 133 145 132
0.251165 0.0696075 0.0304575 125 142 131
0.251408 0.0697048 0.0301392 133 144 130
0.250905 0.0695859 0.0301185 116 135 125
0.252536 0.0695623 0.03109 147 148 132
0.253047 0.0695002 0.0312307 150 145 129
0.253099 0.0693922 0.0314285 150 146 129
0.253066 0.0695413 0.031149 152 143 124
0.253449 0.0694092 0.0313935 146 137 121
0.253414 0.0695696 0.0310421 148 138 121
0.253807 0.0694005 0.0313417 144 132 114
0.253771 0.0695556 0.0309839 145 131 111
0.254158 0.069368 0.0312827 139 120 100
0.254124 0.0695002 0.030909 144 119 93
0.254499 0.069285 0.0312002 138 115 89
0.254469 0.0694079 0.0308276 146 117 89
0.254865 0.0692326 0.0309221 136 95 64
0.254867 0.0692876 0.0306939 137 97 65
0.255298 0.0692589 0.0305708 130 76 50
0.254885 0.069392 0.0302709 133 87 59
0.255304 0.0694389 0.0301747 120 64 41
0.255696 0.0693186 0.0305207 109 51 32
0.256049 0.0693826 0.0305135 101 43 26
0.256061 0.0692689 0.0306659 101 43 27
0.256413 0.069337 0.030653 90 31 16
0.25646 0.0690667 0.0309383 90 31 16
0.256817 0.0691045 0.0308894 85 27 13
0.256851 0.068937 0.0310234 87 28 13
0.257197 0.0689919 0.0309528 81 21 8
0.257279 0.0686502 0.0311406 81 23 10
0.257623 0.0686976 0.0310412 71 11 1
0.257666 0.0684941 0.0311339 75 14 3
0.258015 0.0685594 0.0309794 73 13 3
0.258101 0.0681862 0.0310861 76 16 5
0.258438 0.0682392 0.0308822 70 6 1
0.258195 0.0678212 0.0311475 79 20 7
0.258539 0.0678739 0.0309379 70 9 1
0.258592 0.0676418 0.0309542 72 12 3
0.258339 0.0686072 0.0307848 69 7 1
0.25572 0.0691115 0.0308619 114 59 37
0.256108 0.0690137 0.0309827 104 46 29
0.256495 0.0688924 0.0310948 96 40 24
0.256925 0.0686079 0.0312223 92 32 16
0.257006 0.0682599 0.0313817 94 35 19
0.25735 0.0683133 0.0312979 85 27 14
0.257084 0.067906 0.0315222 107 47 27
0.257436 0.0679482 0.0314156 84 24 7
0.257148 0.067618 0.0316272 109 49 28
0.2575 0.0676849 0.0314859 93 32 14
0.257595 0.067323 0.0315632 98 39 20
0.257849 0.0677572 0.0313389 80 23 8
0.257944 0.0673773 0.0313867 85 28 12
0.258265 0.0675436 0.0311892 79 19 7
0.258339 0.0671478 0.0311834 78 20 7
0.258672 0.0672642 0.0309464 73 15 6
0.258457 0.0667797 0.0311106 81 24 10
0.25881 0.0668872 0.0308519 76 19 8
0.258533 0.0663903 0.0310014 84 28 14
0.258858 0.0665814 0.030801 74 18 6
0.257759 0.068128 0.0312517 76 18 5
0.258265 0.0660306 0.0311422 94 39 20
0.258314 0.0658183 0.0310235 93 38 20
0.257973 0.0656235 0.0312843 112 60 34
0.257917 0.0658508 0.0314159 112 60 34
0.257863 0.0660143 0.0314924 115 61 35
0.257833 0.0662029 0.0315475 113 60 36
0.258172 0.0662928 0.0312729 96 41 22
0.25811 0.0666685 0.0313496 97 42 23
0.258135 0.0661817 0.0312897 107 51 28
0.25446 0.0694533 0.0306229 143 110 78
0.254101 0.069565 0.0306726 145 120 92
0.253755 0.0696335 0.0307239 148 129 105
0.2534 0.0696698 0.0307525 152 138 116
0.253137 0.0691955 0.0317701 148 144 128
0.253494 0.0692098 0.0317343 142 135 119
0.253534 0.0689992 0.0320628 140 135 120
0.253842 0.0692184 0.0316886 140 129 114
0.253903 0.0689431 0.03212 138 129 114
0.254255 0.0689383 0.0320408 130 116 101
0.254305 0.0687025 0.032347 129 115 99
0.254654 0.0686724 0.0322398 123 104 87
0.25468 0.0685767 0.032349 125 108 93
0.25499 0.068619 0.0321107 122 99 80
0.25508 0.0682855 0.0325101 119 99 82
0.255377 0.0682322 0.032293 120 96 75
0.255457 0.067943 0.0325808 119 98 78
0.255773 0.0678711 0.032315 134 104 76
0.255866 0.0676025 0.0326046 138 113 85
0.25624 0.067535 0.0322122 147 108 75
0.256308 0.0671524 0.0325502 155 120 86
0.256765 0.0671776 0.0320687 150 93 56
0.25683 0.066826 0.0322252 154 98 59
0.257288 0.0668715 0.0318468 125 67 37
0.256881 0.0666628 0.0322496 158 114 71
0.257363 0.0664553 0.031875 136 82 48
0.257454 0.0660954 0.0318576 140 95 59
0.257755 0.0665498 0.0315964 108 52 30
0.257657 0.0669206 0.0316288 98 41 22
0.257221 0.0672385 0.0317514 124 65 39
0.256727 0.0675131 0.0318557 133 74 46
0.256225 0.0678418 0.0319424 140 99 69
0.255727 0.0681691 0.0319879 129 94 67
0.255312 0.0685342 0.0319241 124 94 67
0.254939 0.0688457 0.0317916 128 97 73
0.2546 0.0689081 0.0319217 128 108 89
0.254548 0.0691142 0.0315915 132 110 89
0.254199 0.0692007 0.0316354 130 115 97
0.25488 0.0690417 0.0314493 136 104 73
0.254858 0.06918 0.031095 137 101 71
0.255282 0.0689775 0.0312145 131 88 59
0.255291 0.0691034 0.0309575 129 82 54
0.255718 0.0689695 0.031051 113 61 38
0.25529 0.0687631 0.0316059 128 96 69
0.255706 0.0687108 0.031383 121 75 50
0.256148 0.0687187 0.0312553 105 50 32
0.255732 0.0684868 0.0316367 122 81 57
0.256168 0.0685063 0.0314163 113 62 40
0.256565 0.0685592 0.0313121 97 37 18
0.256195 0.0681667 0.0316641 125 80 55
0.256631 0.0682108 0.031481 107 49 27
0.256691 0.0678676 0.0316742 118 61 34
0.258006 0.0670318 0.0314031 88 34 18
0.256441 0.0667983 0.03267 162 131 96
0.256128 0.0667748 0.0330099 156 135 103
0.2558 0.0667023 0.0333288 154 134 103
0.255471 0.0666907 0.033555 144 129 104
0.255063 0.0670049 0.0335696 128 119 100
0.254633 0.0673173 0.0335083 127 120 102
0.254199 0.0676106 0.033382 131 126 111
0.253778 0.0678863 0.0332284 134 131 116
0.256006 0.0671352 0.0329125 152 127 98
0.25596 0.0673163 0.0328229 146 122 94
0.255638 0.0673606 0.0330584 128 112 89
0.255546 0.0676709 0.0328383 123 103 82
0.255234 0.0676851 0.0330112 123 109 90
0.255151 0.0679799 0.0327675 121 104 88
0.254822 0.0679802 0.0329227 121 110 95
0.254749 0.0682876 0.0326494 122 107 93
0.254404 0.0682646 0.0327811 122 114 100
0.25437 0.0684253 0.0326294 127 115 98
0.254012 0.068423 0.0327176 134 126 112
0.253955 0.068699 0.0324273 137 129 113
0.253603 0.0686739 0.0324996 139 133 118
0.25355 0.068927 0.0321802 140 134 119
0.25323 0.0687524 0.0324207 144 142 127
0.253181 0.0689897 0.0321076 147 142 126
0.253281 0.0684936 0.0327175 143 141 125
0.253658 0.0683985 0.0327756 136 132 117
0.253727 0.0681148 0.033047 134 130 114
0.254081 0.0681309 0.0329753 131 126 110
0.254126 0.0679288 0.0331394 131 125 110
0.254475 0.0679648 0.0330441 121 113 99
0.254551 0.067646 0.0332843 121 114 98
0.254899 0.0676791 0.0331744 120 110 94
0.254977 0.0673459 0.0333923 123 117 98
0.255321 0.0673643 0.0332434 125 113 94
0.255401 0.0670244 0.0334254 139 123 100
0.255719 0.0670903 0.0331927 141 121 96
0.25711 0.0645456 0.0323594 150 135 106
0.257022 0.0649376 0.0324241 152 137 107
0.256722 0.0647271 0.0327507 155 146 120
0.256617 0.0651101 0.0328128 157 147 119
0.256297 0.0648991 0.0331452 152 150 127
0.256223 0.0651609 0.0331912 156 154 129
0.255891 0.0650308 0.0335332 151 152 129
0.256117 0.0655362 0.0332653 161 154 124
0.255778 0.0654066 0.0335927 150 149 125
0.255686 0.0657854 0.0336498 151 145 119
0.255272 0.0660509 0.033879 135 132 110
0.254898 0.0662109 0.0339932 133 129 109
0.25454 0.06622 0.0340745 124 126 109
0.254102 0.0665289 0.0340138 124 126 110
0.253755 0.0664814 0.0340812 122 126 112
0.253662 0.0668444 0.0339243 128 130 114
0.253408 0.0664186 0.0341358 116 123 109
0.253317 0.0667834 0.0339799 123 128 113
0.252979 0.0667108 0.0340115 124 133 119
0.252895 0.0670459 0.0338573 125 134 120
0.252552 0.0669793 0.0338804 125 136 122
0.252817 0.0673871 0.033677 132 139 124
0.252469 0.0673156 0.0336964 131 138 123
0.252393 0.0676475 0.0334887 127 136 123
0.252089 0.0674344 0.0335882 129 139 124
0.252011 0.0677609 0.0333542 125 137 123
0.251676 0.0676651 0.0333385 116 129 117
0.251608 0.0679646 0.0330761 121 133 119
0.251276 0.0678553 0.0330638 115 126 112
0.25123 0.0678954 0.0330068 116 127 112
0.250842 0.0677031 0.0330341 105 112 96
0.250701 0.0679445 0.032747 111 121 105
0.250238 0.0676339 0.0327729 88 97 78
0.250042 0.0677985 0.0325006 78 92 77
0.249369 0.0675656 0.0323073 37 56 42
0.248773 0.0672678 0.0324779 15 35 21
0.248388 0.0671807 0.0326071 10 30 15
0.248083 0.067199 0.0327283 5 25 12
0.247775 0.0671975 0.0329759 2 24 8
0.247787 0.0673139 0.0325049 3 24 10
0.247571 0.0673459 0.0326479 1 21 8
0.24736 0.0674362 0.0323103 1 20 7
0.247089 0.0674922 0.0318769 1 18 5
0.246617 0.0675936 0.0317585 0 15 3
0.246908 0.067495 0.0315196 1 17 3
0.246626 0.0675092 0.0313413 1 17 4
0.246874 0.0674087 0.0310768 3 20 6
0.246374 0.0674567 0.0309689 0 15 3
0.246604 0.067324 0.030666 2 17 4
0.246141 0.0673103 0.0305214 0 14 2
0.246408 0.0671979 0.0303159 0 16 2
0.2461 0.0670839 0.030058 0 15 1
0.246484 0.0670471 0.0299805 1 18 2
0.246713 0.0669312 0.0297118 8 23 6
0.247002 0.0668627 0.0295044 10 26 7
0.24726 0.0667811 0.0292871 18 30 11
0.246119 0.0677295 0.0317438 0 14 2
0.245782 0.0678372 0.0318854 0 16 3
0.245349 0.0679496 0.0318202 0 13 2
0.245076 0.0680203 0.0320407 0 15 3
0.244811 0.0681067 0.0321379 0 14 2
0.24454 0.0682105 0.0322445 0 15 2
0.24428 0.0682835 0.0319728 0 12 2
0.24405 0.0684051 0.0322522 0 11 0
0.243851 0.0684063 0.0319106 0 7 0
0.24352 0.068521 0.0319533 0 7 0
0.2432 0.0686498 0.0320165 0 7 0
0.256461 0.0656584 0.0329212 157 148 121
0.256572 0.0652728 0.0328396 157 148 122
0.256916 0.0653239 0.0324936 151 134 103
0.256819 0.0643452 0.0326714 151 146 119
0.256408 0.0645104 0.0330777 150 152 128
0.255986 0.0646944 0.0334598 151 153 130
0.255558 0.0649104 0.0337988 146 147 126
0.255463 0.0652804 0.0338576 144 144 121
0.25505 0.065561 0.0340699 134 135 113
0.25463 0.0658442 0.0341783 136 136 115
0.254218 0.0660741 0.0341898 119 125 108
0.253779 0.066383 0.0341192 122 127 112
0.25221 0.0669107 0.0338829 127 138 123
0.251788 0.0671576 0.0336778 128 138 122
0.251416 0.0672163 0.0335587 127 130 114
0.250999 0.0674404 0.033294 107 110 90
0.251335 0.0675527 0.0333162 114 123 109
0.251749 0.0673419 0.0335827 126 136 122
0.252129 0.0672479 0.0336979 118 133 121
0.255368 0.065676 0.0338886 144 143 120
0.254955 0.0659646 0.0340421 132 128 109
0.257348 0.0625572 0.0298669 92 71 57
0.257318 0.0627328 0.0293356 82 52 42
0.257131 0.0621241 0.0294507 84 70 63
0.25709 0.062373 0.0289193 75 49 49
0.256897 0.0618694 0.0289656 81 63 63
0.256857 0.0620361 0.0285438 77 57 60
0.256636 0.0616304 0.0285576 90 78 73
0.2566 0.061756 0.0281591 87 77 74
0.256358 0.0614235 0.0281572 106 96 86
0.256336 0.061552 0.0277676 89 74 73
0.256067 0.061267 0.0277388 101 95 89
0.256563 0.0619103 0.0278023 82 68 71
0.256814 0.0621959 0.0282076 78 56 60
0.257044 0.0625547 0.0285153 76 44 47
0.257277 0.0628918 0.0288656 76 37 33
0.256897 0.0617862 0.0291798 83 70 65
0.256656 0.0615045 0.0289519 95 85 76
0.256372 0.0613011 0.0285732 107 99 89
0.256087 0.0611264 0.0281793 119 109 97
0.255774 0.0610289 0.0277691 117 111 102
0.294429 0.0679959 0.020949 166 166 144
0.294758 0.0680864 0.021148 164 164 141
0.295049 0.0682915 0.02152 168 165 138
0.287976 0.0845876 -0.00153246 0 9 0
0.287824 0.0848582 -0.00143229 0 8 0
0.287767 0.0849181 -0.00102437 0 9 0
0.287721 0.0849915 -0.000552001 0 7 0
0.287768 0.0849674 -2.8857e-06 0 7 0
0.287814 0.0847219 0.00032609 0 7 0
0.287845 0.0844699 0.000660618 0 6 0
0.287878 0.0842586 0.000907973 0 6 0
0.287926 0.0845667 0.00108967 0 6 0
0.287964 0.0842992 0.0014222 0 6 0
0.288032 0.084612 0.00160251 0 6 0
0.288086 0.0843437 0.00193067 0 6 0
0.288188 0.0846717 0.00209655 0 7 0
0.288253 0.0844226 0.00237819 0 5 0
0.288344 0.0847173 0.00257265 0 6 1
0.288432 0.0842379 0.00269428 0 5 0
0.288527 0.0845828 0.00292721 0 6 1
0.288626 0.0842754 0.00320226 0 9 2
0.288692 0.084589 0.00339636 0 10 3
0.288786 0.0843582 0.00369086 0 11 3
0.288839 0.0846648 0.00388667 0 14 4
0.288915 0.0844421 0.00419393 1 12 3
0.288948 0.0847328 0.0043928 1 11 3
0.288316 0.0838507 0.00253112 1 4 0
0.288172 0.0841004 0.00223947 0 5 0
0.288082 0.0837708 0.00206833 1 5 0
0.288026 0.0840363 0.00174219 0 5 0
0.287992 0.0837083 0.00156291 0 6 0
0.287938 0.0840019 0.00122942 0 5 0
0.288167 0.0835124 0.00234716 2 6 0
0.288131 0.0832227 0.00216857 2 7 0
0.288052 0.0834581 0.00190061 1 5 0
0.287733 0.0850994 -0.00120011 0 8 0
0.287693 0.0854516 -0.00112702 0 7 0
0.2877 0.085231 -0.000835941 0 8 0
0.287727 0.0856314 -0.000777193 0 7 0
0.28771 0.0853056 -0.000386086 0 6 0
0.287796 0.0857551 -0.000369789 0 7 0
0.287795 0.0854979 -5.71753e-05 0 8 0
0.28791 0.0860211 -0.000122092 0 9 0
0.287909 0.0857642 0.000188339 0 9 0
0.287976 0.0862948 0.000118429 0 9 0
0.287979 0.0860444 0.000412343 0 10 0
0.28803 0.0863118 0.000651806 0 10 0
0.288079 0.0860467 0.000973538 0 9 1
0.288118 0.0863477 0.00117237 0 11 1
0.288171 0.0860923 0.001495 0 11 1
0.288215 0.0863965 0.00168994 0 11 1
0.288309 0.0861463 0.00200689 0 11 2
0.288354 0.0864473 0.00219942 0 11 3
0.288457 0.0862018 0.00250749 0 12 3
0.288496 0.0865029 0.0027113 0 13 4
0.288617 0.0862563 0.00301704 0 14 4
0.288641 0.0865589 0.00321275 0 16 5
0.28872 0.0863052 0.00353326 0 16 5
0.288753 0.0866128 0.0037245 0 16 5
0.288846 0.0863598 0.00404844 0 15 4
0.288878 0.0866539 0.0042476 0 16 5
0.288954 0.0863933 0.00457374 0 15 4
0.288996 0.0866947 0.00477071 0 14 4
0.289043 0.0864417 0.00508794 0 11 2
0.289095 0.0867449 0.00528146 0 13 2
0.289138 0.0864951 0.00560575 0 10 2
0.289189 0.0868012 0.00579533 0 11 2
0.289082 0.0861877 0.00541249 0 11 2
0.289 0.0861438 0.0048912 0 13 4
0.288918 0.0861029 0.00436788 0 15 4
0.288793 0.0860574 0.00385053 0 15 4
0.288675 0.0860061 0.00333973 0 14 4
0.288551 0.0859536 0.00282689 0 11 3
0.288397 0.0858954 0.00231595 0 10 2
0.288258 0.0858437 0.00180595 0 10 1
0.288136 0.085796 0.00129508 0 10 1
0.288028 0.0857465 0.000784435 0 8 0
0.287946 0.0855155 0.000500814 0 9 0
0.287841 0.0852354 0.000255873 0 8 0
0.287867 0.0849923 0.000559974 0 7 0
0.287892 0.0848365 0.000752777 0 6 0
0.287974 0.0851521 0.000931958 0 8 0
0.28801 0.0848844 0.00126473 0 7 0
0.288099 0.0852066 0.00143721 0 8 0
0.288145 0.0849471 0.00176475 0 7 1
0.288259 0.0852788 0.00193821 0 8 1
0.288288 0.0850084 0.0022657 0 7 1
0.288393 0.0853283 0.00244761 0 8 1
0.288459 0.0850459 0.00278033 0 8 1
0.288553 0.085389 0.00295398 0 10 2
0.288657 0.0851474 0.00327357 0 11 3
0.28871 0.0854488 0.00346451 0 13 3
0.288792 0.0851928 0.00377996 1 14 4
0.28882 0.0854888 0.00398641 0 14 4
0.288896 0.0852598 0.00428035 1 13 4
0.288926 0.0855504 0.00448746 1 14 4
0.28897 0.0852743 0.00477682 0 11 3
0.288998 0.0855585 0.00502397 0 11 2
0.28904 0.0858888 0.00521072 0 10 2
0.288958 0.0858489 0.00469244 0 13 4
0.288864 0.085793 0.00418135 0 15 4
0.288747 0.0857497 0.003665 0 15 5
0.288626 0.0856977 0.00314672 0 11 3
0.288483 0.0856473 0.00263625 0 9 2
0.288323 0.0855868 0.00212976 0 8 1
0.28819 0.085533 0.00161448 0 10 1
0.288075 0.0854893 0.00110226 0 9 0
0.287952 0.0854317 0.000604539 0 9 0
0.288956 0.0850124 0.00455783 1 12 4
0.288871 0.0849693 0.004077 0 14 4
0.288745 0.0848935 0.00358667 0 13 3
0.288612 0.0848499 0.00312955 0 8 2
0.287726 0.0857365 -0.000910647 0 7 0
0.287808 0.0859518 -0.000609392 0 9 0
0.2879 0.086278 -0.000440101 0 9 0
0.28798 0.0865595 -0.00020222 0 10 0
0.288037 0.0865783 0.000342171 0 10 0
0.288077 0.086608 0.000854249 0 11 0
0.288152 0.086647 0.00137481 0 12 1
0.288259 0.0867037 0.00188089 0 13 2
0.288374 0.0867323 0.00240982 0 13 3
0.288549 0.0867985 0.0029067 0 15 4
0.288676 0.0868525 0.00341604 0 17 5
0.288774 0.0869065 0.00392842 0 17 5
0.288908 0.0869489 0.00445044 0 15 4
0.289038 0.0869994 0.00496152 0 14 4
0.289137 0.0870468 0.00547763 0 13 2
0.289221 0.0871051 0.00599653 0 12 1
0.288029 0.0868906 -3.77912e-05 0 11 1
0.288081 0.0869269 0.000481344 0 11 0
0.288113 0.0869136 0.00104181 0 11 0
0.288179 0.0869432 0.00156916 0 12 2
0.288278 0.0869893 0.00209205 0 13 2
0.288426 0.0870391 0.00260359 0 14 3
0.288588 0.0871043 0.00310255 0 17 4
0.2887 0.087143 0.00362451 0 17 5
0.2888 0.0872035 0.00412998 0 17 5
0.288949 0.0872446 0.00464482 0 16 5
0.289072 0.0872877 0.00517358 0 14 3
0.289177 0.0873487 0.00568204 0 14 3
0.289243 0.087392 0.00619785 0 12 2
0.288084 0.0871887 0.000151181 0 12 0
0.288109 0.087214 0.000686291 0 12 1
0.288137 0.0872196 0.00123277 0 12 1
0.288214 0.0872498 0.00176033 0 13 2
0.288317 0.087276 0.00229164 0 14 3
0.288452 0.0873464 0.0027898 0 16 5
0.288596 0.0873918 0.00331026 0 17 5
0.288705 0.0874363 0.00382446 0 17 5
0.288842 0.0874877 0.00433468 0 17 5
0.288972 0.0875314 0.00485469 0 16 5
0.2891 0.0875796 0.00538214 0 15 3
0.289182 0.0876289 0.00589111 0 14 2
0.289241 0.0876708 0.00640651 0 11 1
0.288111 0.087489 0.000355008 0 12 1
0.288125 0.0875064 0.000888088 0 12 1
0.288163 0.0875113 0.00143149 0 14 2
0.288257 0.0875509 0.00195589 0 15 3
0.288338 0.0875845 0.00248247 0 15 3
0.288477 0.0876345 0.00300141 0 16 5
0.288609 0.0876672 0.00352296 0 17 5
0.288742 0.0877258 0.0040267 0 18 5
0.288874 0.0877813 0.00454113 0 16 5
0.289 0.0878243 0.00506027 0 16 5
0.28912 0.0878681 0.00558272 0 15 3
0.28917 0.087897 0.00611324 0 14 2
0.289198 0.0879448 0.0066136 0 14 2
0.288122 0.0877834 0.000549026 0 13 0
0.288128 0.0877841 0.00109711 0 14 2
0.288186 0.0878064 0.00163362 0 16 3
0.288289 0.0878479 0.0021546 0 16 4
0.288369 0.0878787 0.00268468 0 17 5
0.288507 0.0879384 0.00318413 0 18 5
0.288616 0.087958 0.00372802 0 18 6
0.288751 0.088022 0.00423651 0 19 6
0.288773 0.0883022 0.00444678 0 20 7
0.288888 0.0880692 0.00475238 0 17 6
0.288926 0.0883651 0.00494786 0 18 7
0.289027 0.0881052 0.00526992 0 16 5
0.289021 0.0883827 0.00549349 0 17 5
0.289131 0.0881491 0.00580124 0 15 3
0.289146 0.088178 0.00632236 0 16 3
0.289114 0.0884364 0.00601077 0 16 4
0.289011 0.0886391 0.00573306 0 18 5
0.288943 0.088878 0.00543318 0 20 6
0.288111 0.0880636 0.000763397 0 16 2
0.288121 0.0880689 0.00131399 0 16 2
0.288196 0.0881205 0.00181615 0 15 3
0.288289 0.0881212 0.00237752 0 16 4
0.288378 0.0881641 0.00289548 0 16 5
0.288493 0.0882187 0.00340317 0 18 5
0.288627 0.0882527 0.00392648 0 19 6
0.288669 0.0885402 0.00413355 0 21 7
0.288779 0.0885891 0.00465187 0 20 7
0.288925 0.0886451 0.00516338 0 19 7
0.288098 0.0883379 0.000983971 0 16 3
0.288128 0.0883511 0.00152044 0 17 4
0.288213 0.088409 0.00201841 0 17 4
0.288238 0.0886772 0.00225324 0 18 4
0.288298 0.0884053 0.00258494 0 18 5
0.288291 0.0886897 0.00279902 0 19 5
0.288375 0.0884529 0.00310409 0 18 6
0.288371 0.088736 0.00330861 0 19 6
0.288516 0.0884928 0.00363011 0 19 6
0.288517 0.0887765 0.00383402 0 20 7
0.273997 0.0673563 0.0205713 71 5 1
0.274336 0.067449 0.0204998 71 5 1
0.274234 0.0678319 0.0205824 69 4 1
0.274577 0.0679308 0.020506 68 5 1
0.274476 0.0683074 0.0205621 66 5 0
0.27482 0.0684087 0.0204961 66 5 0
0.274377 0.0686985 0.0205857 64 5 1
0.274717 0.0687984 0.0205245 64 6 2
0.274279 0.0690871 0.0205942 61 6 2
0.274614 0.0691791 0.0205349 62 5 1
0.274177 0.0694784 0.0205907 59 5 1
0.274518 0.0695755 0.0205299 59 5 1
0.274492 0.0696653 0.0205301 59 5 1
0.274837 0.0697483 0.0204769 57 6 1
0.274148 0.069593 0.0205874 58 5 0
0.273828 0.0693869 0.0206515 60 5 1
0.273935 0.068992 0.0206587 63 6 2
0.274036 0.0686051 0.020653 65 5 1
0.274138 0.0682174 0.0206251 66 4 0
0.273899 0.0677321 0.0206553 68 4 0
0.273794 0.0681207 0.0206934 66 4 0
0.273355 0.0684126 0.0207872 64 4 1
0.273308 0.0685833 0.0207864 63 4 1
0.272914 0.0687012 0.0208516 63 3 0
0.273207 0.0689764 0.0207803 62 5 1
0.272863 0.0688998 0.0208418 63 3 0
0.273112 0.0693653 0.0207721 61 4 2
0.272763 0.069291 0.0208301 60 3 0
0.272473 0.0689963 0.0209027 60 3 0
0.273452 0.0694396 0.0207084 61 5 2
0.273796 0.0695186 0.0206487 60 5 1
0.273559 0.0690565 0.0207232 62 5 2
0.273659 0.0686518 0.0207211 64 4 1
0.2737 0.0685029 0.0207191 64 4 1
0.274678 0.0675517 0.0204201 70 6 1
0.274917 0.0680255 0.0204385 69 6 1
0.275258 0.0681239 0.0203595 67 5 0
0.275159 0.0685013 0.0204246 65 6 0
0.275496 0.0686001 0.0203431 63 7 1
0.275058 0.0688892 0.0204539 61 7 1
0.275398 0.0689856 0.0203925 60 8 2
0.274957 0.0692822 0.0204715 59 6 1
0.275293 0.0693759 0.0204117 56 6 1
0.275181 0.0698235 0.0204156 56 6 1
0.275625 0.0695104 0.0203439 53 7 1
0.275529 0.0698956 0.0203571 51 8 1
0.275869 0.0699773 0.0203269 43 10 2
0.275971 0.0695857 0.020301 48 10 2
0.276076 0.0691742 0.02026 51 10 2
0.275737 0.069084 0.0203166 57 7 1
0.275837 0.0686942 0.0202698 61 7 1
0.305158 0.0790254 0.00727951 66 7 5
0.30507 0.0794233 0.00712311 69 7 5
0.305024 0.0795963 0.00708084 71 8 5
0.304928 0.0799939 0.00698426 71 9 6
0.304829 0.0803916 0.00692399 69 10 7
0.304723 0.0808094 0.00689798 65 9 6
0.304618 0.0812301 0.0068801 63 8 5
0.305417 0.0794525 0.00709161 69 7 4
0.305718 0.0797223 0.00697788 71 8 5
0.30537 0.0796581 0.00702426 67 8 5
0.305625 0.0801053 0.00687762 69 9 6
0.305276 0.0800568 0.00693958 70 9 6
0.305522 0.080521 0.00680632 69 10 7
0.305175 0.0804635 0.00687382 66 9 7
0.305426 0.080925 0.00678143 65 9 6
0.30507 0.0808765 0.00684777 63 9 6
0.305315 0.0813449 0.00678219 66 9 6
0.30528 0.0814802 0.00678282 65 8 6
0.304974 0.0812928 0.00683464 65 8 5
0.304845 0.0817828 0.00683428 66 8 4
0.304399 0.0821017 0.0068714 68 8 4
0.303967 0.0823913 0.00691035 68 8 5
0.303524 0.0826618 0.00698054 68 8 4
0.303079 0.0829568 0.00705803 71 7 3
0.302652 0.0832193 0.0071768 71 7 4
0.302306 0.0831226 0.00719987 71 7 3
0.302205 0.0834909 0.00733361 72 8 3
0.301865 0.0833923 0.0073463 71 7 3
0.301772 0.0837439 0.00752637 70 6 3
0.301702 0.0839802 0.00768817 70 8 3
0.302034 0.0840785 0.00768203 70 7 3
0.301604 0.0842984 0.00791557 70 8 3
0.301932 0.0844118 0.00789894 69 8 3
0.301518 0.0845989 0.00815752 68 8 3
0.301848 0.0847072 0.00814787 69 8 3
0.301765 0.0849943 0.00839947 67 7 3
0.301433 0.0848968 0.00840121 66 7 3
0.301325 0.085237 0.00876866 63 6 2
0.301253 0.08547 0.00909662 62 6 2
0.301185 0.0856872 0.00944745 61 6 2
0.300907 0.0853926 0.00908223 62 6 2
0.300846 0.0856078 0.00942469 62 6 2
0.300501 0.0855221 0.00939642 61 6 2
0.300443 0.0857077 0.00977849 62 6 1
0.300099 0.0856123 0.00975664 61 6 2
0.300047 0.0857787 0.0101713 62 6 2
0.299762 0.0855248 0.00973644 60 6 1
0.299701 0.0857041 0.010155 61 6 2
0.299419 0.0854377 0.00973188 59 6 1
0.299356 0.0856194 0.0101388 61 6 2
0.299021 0.0855255 0.0101223 61 5 1
0.299308 0.0857446 0.0105271 62 7 2
0.29897 0.0856656 0.0105121 62 6 2
0.29893 0.085745 0.0109202 65 8 2
0.298594 0.0856555 0.0108995 65 8 3
0.298572 0.0856871 0.0113076 69 9 3
0.298254 0.0855593 0.0108889 64 7 2
0.298234 0.0856106 0.0112944 70 9 4
0.297916 0.0854824 0.0108729 67 8 3
0.297895 0.0855331 0.0112807 71 9 4
0.297554 0.0854544 0.0112567 70 9 3
0.297538 0.085464 0.0116697 74 11 5
0.297195 0.0854204 0.0116505 73 11 5
0.297182 0.0853951 0.0120585 75 11 5
0.297959 0.0853842 0.0104666 64 7 2
0.298015 0.0852389 0.0100541 62 6 2
0.298294 0.0854741 0.0104852 62 6 2
0.298353 0.0853283 0.0100768 62 6 2
0.298687 0.0854298 0.0101116 61 6 1
0.299086 0.0853378 0.00972179 61 6 1
0.298637 0.0855601 0.0105029 62 6 2
0.29965 0.085836 0.0105425 63 6 3
0.299275 0.0858291 0.0109373 66 8 3
0.299252 0.0858513 0.0113462 68 9 4
0.298906 0.0857788 0.0113253 69 9 3
0.298898 0.0857582 0.0117407 71 10 4
0.298562 0.0856778 0.0117193 72 10 5
0.298896 0.085727 0.0119371 74 11 5
0.298554 0.0856432 0.0119333 75 11 5
0.298559 0.0855716 0.0123259 76 12 6
0.298229 0.0854023 0.0126953 79 13 7
0.297895 0.0852397 0.0130806 79 12 7
0.297903 0.0851365 0.013367 80 12 6
0.297563 0.0850694 0.0133611 80 12 7
0.297586 0.0849191 0.0137231 80 12 6
0.297218 0.0850145 0.0133569 80 12 7
0.297928 0.0849975 0.0137392 79 12 6
0.298217 0.0855967 0.0117118 72 10 4
0.298218 0.08555 0.012111 76 12 6
0.29822 0.085505 0.0123127 77 12 6
0.297885 0.085347 0.0126916 80 14 7
0.29755 0.085181 0.0130697 79 12 7
0.300383 0.0858634 0.0101869 62 5 2
0.300717 0.0859616 0.0101943 62 6 2
0.301063 0.0860334 0.0102045 60 6 2
0.300777 0.0857969 0.00978794 62 6 2
0.301115 0.0858727 0.00980552 61 6 2
0.30274 0.082864 0.00707477 69 6 3
0.303186 0.0825716 0.00701053 68 7 4
0.303621 0.0822859 0.0069333 68 8 4
0.304063 0.0819944 0.00688589 66 8 5
0.304501 0.0816824 0.00686069 67 8 5
0.302106 0.0838364 0.00752459 71 8 4
0.294421 0.0679949 0.0211664 171 170 145
0.294724 0.0681504 0.021532 171 169 142
0.294646 0.0683775 0.0220125 184 184 152
0.29497 0.0685375 0.0219768 181 179 149
0.294385 0.0680592 0.021545 177 175 147
0.294331 0.0682107 0.0219276 184 186 154
0.294304 0.0682758 0.0220475 187 188 155
0.259605 0.0678822 0.0190303 68 5 1
0.259689 0.0675753 0.0193887 68 7 2
0.259229 0.067959 0.0193936 64 5 1
0.259292 0.0676675 0.0197366 66 6 1
0.25886 0.0680566 0.019778 64 4 1
0.258904 0.0677667 0.0200925 62 4 2
0.258508 0.0681519 0.0201667 62 3 0
0.258501 0.0679163 0.0204601 62 3 1
0.258067 0.0684302 0.0205737 64 2 0
0.258146 0.0679746 0.0208413 62 2 0
0.257719 0.0681426 0.0212827 65 2 1
0.258148 0.067681 0.0211291 62 3 0
0.257773 0.0676658 0.0215302 65 3 1
0.258246 0.067331 0.0213726 63 3 1
0.257933 0.0673024 0.021676 65 3 1
0.258344 0.0669933 0.0216265 65 4 0
0.257962 0.0670402 0.0219008 66 3 0
0.258414 0.0667044 0.0218965 67 6 1
0.25804 0.0667075 0.0221264 66 4 0
0.258487 0.0664009 0.0221678 67 6 2
0.258108 0.0664017 0.0223655 67 4 0
0.258873 0.0664045 0.0219867 69 8 3
0.259263 0.0663972 0.021812 69 8 3
0.25965 0.0663991 0.0216332 70 10 4
0.260035 0.0664169 0.0214479 71 10 5
0.258795 0.0666789 0.0216803 67 7 2
0.25918 0.0666607 0.0214681 69 9 3
0.259574 0.066658 0.0212742 70 10 4
0.259971 0.0666396 0.0210782 71 10 5
0.25871 0.066979 0.0213726 67 6 2
0.259095 0.0669403 0.0211277 69 7 3
0.259497 0.0669064 0.0208975 70 9 4
0.2599 0.0668718 0.0206718 72 10 5
0.258626 0.0672923 0.0210773 66 5 2
0.259019 0.0672169 0.0207868 67 6 2
0.259427 0.0671522 0.0205098 70 8 3
0.259839 0.0670896 0.0202486 72 9 4
0.258558 0.0675894 0.0207683 65 4 1
0.258956 0.0674987 0.0204317 64 5 2
0.259366 0.0673987 0.0201218 67 7 2
0.259764 0.0673246 0.0198084 70 9 3
0.301938 0.0789434 0.00725098 71 10 6
0.301506 0.0792342 0.00710984 69 10 7
0.301842 0.0793335 0.00714267 69 10 7
0.301405 0.0796377 0.00704166 66 11 7
0.30174 0.0797369 0.00706455 65 10 7
0.301299 0.0800469 0.00700548 65 10 7
0.301635 0.0801334 0.00701876 63 10 6
0.30153 0.0805696 0.00702001 64 9 7
0.301868 0.0806395 0.00702209 66 9 7
0.30181 0.0808711 0.00702938 65 9 6
0.302203 0.0807133 0.00701365 66 10 6
0.301366 0.0811745 0.00705729 66 9 6
0.300929 0.0814546 0.0071168 66 8 4
0.301069 0.0795424 0.00701685 66 10 7
0.300962 0.0799644 0.0069853 65 10 7
0.301185 0.0804968 0.00701633 68 10 8
0.301471 0.0807657 0.00703447 65 9 6
0.300625 0.0798659 0.00695807 66 11 6
0.300505 0.0803156 0.00697536 65 11 6
0.30084 0.0804188 0.00700122 66 11 7
0.300466 0.080475 0.00698694 66 10 6
0.300802 0.0805799 0.00701388 65 10 6
0.300694 0.0809592 0.00705236 66 9 6
0.301035 0.0810692 0.00706297 67 8 5
0.301135 0.0806793 0.0070212 67 10 7
0.302177 0.0794237 0.00715903 70 11 7
0.302415 0.0798929 0.0070935 68 11 8
0.302071 0.0798215 0.00709308 67 11 7
0.302314 0.0803014 0.00703387 66 11 7
0.301973 0.0802223 0.00704375 64 11 7
0.259549 0.068199 0.0187107 68 6 1
0.259147 0.0683125 0.0191032 66 4 1
0.258836 0.0683387 0.019477 65 3 1
0.258457 0.0684759 0.0198915 68 3 0
0.27305 0.0821619 0.00105261 9 0 0
0.273028 0.0821258 0.00146258 7 0 0
0.273052 0.0820457 0.00184791 2 0 0
0.327984 0.0696252 0.0217496 79 59 7
0.328257 0.069908 0.0220617 56 51 7
0.327924 0.0698048 0.0220443 86 64 8
0.327857 0.0700296 0.0223385 90 67 9
0.328181 0.0701543 0.0223448 88 65 8
0.32778 0.0702879 0.0226673 96 74 9
0.259518 0.0684777 0.0184138 68 4 1
0.259129 0.0686536 0.0187975 67 4 1
0.258704 0.068765 0.0193179 67 3 1
0.257297 0.0683531 0.0218197 68 4 1
0.256955 0.0681229 0.0223393 66 3 1
0.25657 0.068227 0.0228674 68 4 1
0.256205 0.0682751 0.0233447 66 5 3
0.255843 0.068379 0.0237814 64 5 3
0.295549 0.0700812 0.0188143 130 124 109
0.273503 0.0823894 0.000668111 18 1 0
0.273468 0.0823589 0.000939643 10 1 0
0.273651 0.0826067 0.000929895 12 5 0
0.273639 0.0825539 0.00130613 9 4 0
0.273807 0.0828868 0.00124875 11 7 1
0.27378 0.0826654 0.00165343 4 1 0
0.274001 0.0829903 0.00167879 5 7 1
0.274016 0.0828016 0.0019964 0 8 2
0.274198 0.0831399 0.00205612 1 10 3
0.274201 0.0829116 0.00233226 0 10 4
0.274308 0.0832489 0.00242426 0 11 3
0.274398 0.0830965 0.00267748 0 14 5
0.274377 0.08353 0.00277702 0 15 5
0.274487 0.0831197 0.00303515 0 13 4
0.274496 0.0835153 0.00314898 0 15 6
0.274245 0.0837614 0.00259563 0 13 5
0.274216 0.0834588 0.00232629 0 11 3
0.274075 0.0836496 0.00212336 0 12 5
0.274088 0.0833309 0.0018802 1 10 3
0.273908 0.0835574 0.00165341 2 9 3
0.273905 0.0832408 0.00144471 11 7 1
0.273739 0.0835481 0.00115802 5 11 3
0.273765 0.0831936 0.001037 11 9 2
0.273657 0.0834142 0.00069158 17 12 3
0.273671 0.0829554 0.00074198 20 8 0
0.27362 0.083242 0.000317964 22 12 2
0.273646 0.0829071 0.000501038 22 6 0
0.273554 0.0829362 0.00025356 28 10 2
0.273567 0.0837183 0.000324845 10 15 4
0.273509 0.0842167 0.000221748 8 17 5
0.273556 0.0840596 0.000504594 5 16 5
0.27361 0.0837956 0.000758704 11 13 3
0.27339 0.0823238 0.00131415 8 0 0
0.273482 0.0823222 0.00167827 4 0 0
0.273783 0.082493 0.00200995 0 4 2
0.273982 0.0825736 0.00233596 0 3 1
0.274217 0.0827809 0.00262921 0 12 4
0.274363 0.0827375 0.0029397 0 11 3
0.273532 0.0822235 0.00200851 0 0 0
0.294871 0.0714501 0.0169169 79 67 55
0.294882 0.071609 0.016866 76 65 55
0.295054 0.0713516 0.0172034 89 82 71
0.295171 0.0715639 0.0172727 80 73 64
0.295331 0.0713163 0.0176429 93 89 78
0.295457 0.0717961 0.0175634 76 74 65
0.2956 0.0715802 0.0179016 92 91 83
0.295386 0.072154 0.0172713 70 64 52
0.29531 0.0724788 0.0169546 64 52 34
0.295608 0.0727675 0.0171842 46 40 31
0.295533 0.0730003 0.0168384 64 45 28
0.295805 0.0731994 0.0172904 36 30 24
0.295825 0.0735678 0.0170411 57 34 20
0.296044 0.0736639 0.0175598 38 26 22
0.29602 0.073998 0.0174097 46 24 13
0.296065 0.0745305 0.0173655 80 47 23
0.296052 0.0751143 0.017187 103 52 27
0.296023 0.0756834 0.0170404 112 62 35
0.296052 0.0754163 0.0168214 90 43 22
0.296133 0.07514 0.0166136 88 44 22
0.296264 0.0748249 0.0164579 67 30 16
0.296404 0.0745066 0.0162787 65 28 14
0.296493 0.0742107 0.0160976 59 31 16
0.296348 0.0737781 0.0161213 59 33 16
0.296476 0.0735201 0.0158958 55 37 20
0.296497 0.0733277 0.0157251 48 36 21
0.29602 0.0748598 0.0169334 105 53 27
0.295987 0.0743261 0.0170701 87 44 20
0.296065 0.074572 0.0167283 82 41 22
0.295944 0.0741011 0.0168081 92 49 24
0.296134 0.0743563 0.0165138 83 38 19
0.29614 0.074016 0.016374 77 38 19
0.295877 0.0739218 0.0170736 74 45 23
0.295735 0.0735197 0.0165465 69 40 22
0.295044 0.0720706 0.0168633 67 58 43
0.29516 0.0718415 0.0171272 75 64 51
0.295149 0.0711113 0.0174539 93 89 78
0.295359 0.0707551 0.0180458 114 111 98
0.295294 0.070971 0.0177601 104 103 92
0.295494 0.0710658 0.0180571 103 101 90
0.295625 0.0713305 0.0180911 102 100 90
0.273557 0.0844462 -0.00184125 25 10 2
0.271392 0.0675725 0.0210333 66 3 0
0.271347 0.067747 0.0210676 64 3 0
0.251073 0.0624994 0.0260322 83 81 52
0.250854 0.0623012 0.0264349 64 66 39
0.250768 0.0626033 0.026158 74 74 46
0.250471 0.0626283 0.0263543 60 65 38
0.25067 0.0621594 0.026852 44 53 30
0.250545 0.0623692 0.026615 51 59 34
0.250347 0.0622298 0.0270295 34 47 24
0.250246 0.0624673 0.0267922 41 50 27
0.249966 0.0624312 0.0269344 33 45 24
0.249627 0.0624973 0.0270546 30 44 19
0.250197 0.0626571 0.026529 56 59 32
0.250547 0.062087 0.0273562 27 43 22
0.250144 0.0620444 0.0274631 19 39 18
0.249986 0.062236 0.0271777 26 43 20
0.249674 0.0622153 0.0273855 23 39 17
0.249285 0.0624685 0.0272493 28 44 18
0.24926 0.0622384 0.0275474 20 38 17
0.249141 0.0620622 0.027945 6 28 11
0.249011 0.0619527 0.0283847 0 24 9
0.248936 0.0619044 0.0288954 0 20 6
0.2495 0.0620569 0.027807 13 33 14
0.249354 0.0619213 0.028222 3 27 11
0.249245 0.0618648 0.0286376 0 23 8
0.249405 0.0617774 0.0290145 0 20 6
0.249143 0.0618076 0.0292165 0 18 5
0.249332 0.0617236 0.0294626 0 17 5
0.24892 0.0618485 0.0294589 0 17 6
0.249147 0.0617158 0.0297842 0 17 6
0.248843 0.061791 0.030015 0 17 6
0.249302 0.0616164 0.0300966 0 17 6
0.24911 0.0616271 0.030375 0 19 7
0.24952 0.0616226 0.0297561 0 17 6
0.249708 0.0616611 0.029377 0 19 6
0.249812 0.0617481 0.0289169 4 23 7
0.250178 0.061774 0.0287813 10 28 10
0.249922 0.061831 0.0284361 5 27 10
0.250306 0.0618825 0.0283211 9 28 11
0.250067 0.0619455 0.0279777 10 30 12
0.250433 0.0620036 0.0278506 18 34 16
0.249564 0.0618213 0.0285641 1 25 8
0.249705 0.0619194 0.0281188 8 30 12
0.249846 0.0620475 0.0277219 16 33 14
0.24858 0.0618622 0.0302525 0 17 5
0.248776 0.0617181 0.0305806 0 18 6
0.248436 0.0618389 0.0307679 0 19 6
0.248613 0.0616541 0.0310841 0 19 6
0.270855 0.0772241 0.00819989 42 8 5
0.270609 0.0770455 0.00845125 48 8 6
0.270658 0.0773037 0.00864778 43 5 3
0.312764 0.0762688 0.0125549 72 8 2
0.27112 0.0774644 0.00796275 34 7 5
0.270931 0.0775117 0.00842932 41 6 3
0.270721 0.0775575 0.00888964 45 4 3
0.331543 0.0769428 0.013204 0 21 5
0.331786 0.0774893 0.0147434 0 18 5
0.33193 0.0775444 0.0152293 0 18 5
0.332022 0.0775916 0.0157419 0 19 6
0.332054 0.0776235 0.0162637 0 19 6
0.332064 0.0776203 0.0168106 0 19 5
0.331811 0.0778042 0.0160082 0 19 5
0.331853 0.0778202 0.0165286 0 19 6
0.271371 0.0777127 0.00771572 31 8 6
0.271214 0.0777448 0.00819652 34 7 5
0.271014 0.0777665 0.00867467 41 5 4
0.270812 0.0777848 0.0091622 44 5 4
0.271527 0.0779922 0.00796352 33 8 5
0.271865 0.0783484 0.00806271 41 10 7
0.272063 0.0785547 0.00835628 45 10 6
0.272278 0.0787138 0.0084304 46 10 7
0.272599 0.0789308 0.00807679 47 12 6
0.27258 0.0789157 0.008494 47 11 6
0.272909 0.0791264 0.00812763 52 12 6
0.272893 0.0791125 0.00855857 52 11 7
0.273215 0.0793165 0.008189 50 11 6
0.273202 0.0793139 0.00862009 53 11 7
0.273515 0.0795039 0.00849019 52 11 6
0.273507 0.0795081 0.00867084 52 11 6
0.273828 0.0796841 0.00872866 50 9 4
0.27349 0.0795043 0.00909825 58 9 5
0.273817 0.0796676 0.00915668 54 9 4
0.273487 0.0795067 0.00928816 57 9 5
0.273811 0.0796521 0.00959556 56 9 4
0.27348 0.0794894 0.00968426 58 9 4
0.273801 0.0796055 0.0100253 58 8 4
0.273472 0.0794772 0.00998829 61 8 4
0.273469 0.079429 0.0104075 63 9 5
0.273143 0.0793236 0.0100718 61 8 5
0.273145 0.0792964 0.01037 63 9 5
0.272821 0.0791618 0.0100501 61 10 5
0.272815 0.0791401 0.0104503 63 9 5
0.272488 0.0789867 0.0104236 62 10 5
0.272479 0.0789796 0.0105974 64 10 5
0.272161 0.0788101 0.0105995 62 10 5
0.27248 0.0789486 0.0110057 64 10 6
0.272156 0.0787918 0.0110071 62 9 5
0.272477 0.0789092 0.0114048 66 10 6
0.271845 0.0786444 0.010585 60 9 5
0.271546 0.0784605 0.0101825 57 8 5
0.271253 0.0782566 0.0097903 53 7 5
0.27095 0.0780106 0.00945683 46 6 4
0.271117 0.0779781 0.00895568 42 6 4
0.271308 0.0779769 0.00846445 39 7 5
0.271862 0.078642 0.0101809 58 9 5
0.271571 0.0784507 0.00977721 54 8 5
0.271298 0.0782467 0.00940168 49 8 4
0.271243 0.0781767 0.00919239 46 7 4
0.271429 0.0781767 0.00876261 42 7 4
0.271592 0.0781817 0.00830284 39 9 6
0.273225 0.0793568 0.00778253 43 10 5
0.273533 0.079549 0.0078578 43 9 4
0.273869 0.0798053 0.00757139 37 9 3
0.274167 0.080103 0.00721698 30 10 2
0.274115 0.0803818 0.00692004 18 8 2
0.27402 0.0807816 0.00677061 10 8 1
0.273941 0.0811151 0.00663051 10 8 1
0.273861 0.0814286 0.00635195 6 8 2
0.274201 0.0814954 0.00640669 7 10 2
0.274338 0.0817087 0.00627608 6 11 3
0.274221 0.0814058 0.00650914 11 10 2
0.274493 0.0815868 0.00657183 10 11 3
0.274274 0.0811835 0.00669934 11 9 2
0.274559 0.0811374 0.00681687 16 9 3
0.274361 0.0808129 0.00681928 17 8 2
0.274698 0.0808618 0.00692095 18 10 3
0.274455 0.0804506 0.00700545 27 9 2
0.274912 0.081012 0.0069685 27 11 3
0.274757 0.0814095 0.00682261 18 11 3
0.274974 0.0818325 0.00680877 19 13 3
0.274834 0.0820215 0.00652329 11 16 5
0.27512 0.082217 0.00684267 18 15 3
0.274906 0.0823243 0.00658038 9 17 4
0.275153 0.0825589 0.00691491 11 14 3
0.275102 0.0826329 0.00683251 13 14 3
0.273856 0.0797089 0.00807744 46 10 5
0.274186 0.079856 0.00817619 45 9 4
0.273846 0.079686 0.00831724 48 10 5
0.274176 0.0798458 0.0083708 46 10 4
0.274161 0.0798237 0.00878429 52 9 4
0.274146 0.0798051 0.00920806 54 9 4
0.274142 0.0797788 0.00964982 55 9 4
0.274141 0.0797282 0.0101174 58 8 4
0.273805 0.0795484 0.0105285 60 8 4
0.27414 0.0796602 0.0105596 59 8 3
0.274128 0.0796198 0.0108843 62 8 4
0.274465 0.0797328 0.0108739 60 8 4
0.273801 0.0794869 0.0109787 62 9 5
0.273791 0.0794463 0.0112673 62 9 5
0.273469 0.0793705 0.0109474 63 9 4
0.273464 0.0793156 0.0113937 64 10 5
0.273135 0.0792108 0.011197 65 9 5
0.27313 0.0791603 0.011629 65 10 5
0.272803 0.0790745 0.0112471 65 10 6
0.272802 0.0790232 0.0116472 68 10 6
0.273141 0.0790784 0.0120275 68 11 6
0.273459 0.0792766 0.011657 64 10 5
0.272808 0.0791085 0.0108537 65 10 5
0.273139 0.0792557 0.010779 62 9 5
0.273521 0.0795102 0.00826559 49 11 5
0.274498 0.0799966 0.00841218 48 9 4
0.274494 0.0799804 0.00855031 48 9 4
0.274811 0.0801249 0.0087932 53 11 5
0.274494 0.0799773 0.00875946 49 9 4
0.274797 0.0801143 0.00903798 55 10 5
0.274475 0.0799387 0.00922475 54 8 4
0.274781 0.080089 0.00930237 56 10 5
0.274475 0.0798845 0.00969207 56 8 4
0.274805 0.080032 0.00973028 55 8 4
0.27479 0.0799419 0.0100976 59 8 4
0.275122 0.0800673 0.010162 62 9 4
0.27479 0.0798902 0.0105084 58 9 4
0.27446 0.0797814 0.0104836 59 8 4
0.274474 0.0798299 0.0101517 59 8 4
0.274651 0.0820474 0.00622158 6 15 4
0.274742 0.0824266 0.00627853 7 17 5
0.279655 0.0865295 -0.00322772 11 5 0
0.279804 0.0869067 -0.00310385 6 5 0
0.28073 0.0885321 -0.00309443 0 10 1
0.281172 0.0881929 -0.00319491 0 9 1
0.281064 0.0886358 -0.00312606 0 12 1
0.281504 0.0883006 -0.003242 0 10 0
0.281384 0.0887561 -0.00315236 0 11 1
0.280618 0.0889206 -0.00301673 0 12 1
0.280954 0.0890287 -0.00303558 0 13 1
0.281281 0.0891383 -0.00304225 0 13 2
0.280509 0.0893126 -0.00292685 0 14 1
0.280844 0.0894129 -0.00293215 0 13 1
0.281177 0.0895162 -0.00293489 0 15 3
0.280405 0.0896831 -0.00280619 0 15 2
0.280746 0.089789 -0.00279859 0 16 3
0.281094 0.0898615 -0.00280744 0 17 3
0.279612 0.0868625 -0.00309092 7 5 0
0.255563 0.0638552 0.0248983 68 30 23
0.255454 0.0642039 0.0246841 66 30 24
0.255821 0.0641248 0.0247451 65 23 17
0.255694 0.064572 0.0244484 65 22 14
0.256034 0.0645996 0.0243719 61 13 7
0.255946 0.0650494 0.0242097 63 15 8
0.256377 0.0647305 0.0242431 60 10 6
0.256265 0.0651734 0.0241232 58 8 4
0.256598 0.0651917 0.0240352 58 5 0
0.256512 0.0654582 0.0239256 60 4 0
0.256813 0.0655028 0.0237901 60 4 0
0.255608 0.0649882 0.0242661 65 18 11
0.255367 0.0645318 0.0245127 66 26 21
0.256169 0.0641458 0.0247047 60 17 14
0.256527 0.06419 0.0246591 60 13 8
0.256487 0.0642934 0.0245334 59 12 7
0.256801 0.0644933 0.0243121 60 10 4
0.256726 0.0647719 0.0241822 59 7 2
0.256943 0.0651675 0.0239231 58 5 1
0.257152 0.0654738 0.0236389 61 4 0
0.257085 0.0647513 0.0241212 59 6 2
0.257325 0.0651231 0.0238354 59 5 1
0.257689 0.0651148 0.0236419 62 5 1
0.257582 0.0654409 0.0234346 63 4 1
0.258023 0.0654023 0.0232587 64 6 1
0.258376 0.0654586 0.0231132 67 7 3
0.258751 0.065525 0.0229809 68 8 4
0.259122 0.0655893 0.0228661 68 10 4
0.293675 0.0806755 0.00562766 67 9 2
0.294016 0.0805855 0.00580454 68 10 3
0.29392 0.0807886 0.00609709 64 8 4
0.294315 0.0807522 0.00621333 61 8 4
0.294675 0.0809795 0.0065576 57 7 3
0.294624 0.0812309 0.00679418 57 7 3
0.294703 0.0815057 0.00702754 54 6 2
0.294671 0.0817829 0.0072445 54 6 2
0.294637 0.0820587 0.00745474 54 6 2
0.294598 0.08234 0.00766241 54 5 1
0.294557 0.082614 0.00788299 54 5 1
0.294959 0.0826811 0.00787021 55 6 1
0.294924 0.0829293 0.00811219 56 5 2
0.29532 0.0829809 0.00812116 57 5 2
0.29528 0.0832158 0.00838224 58 5 2
0.295687 0.0832629 0.00839648 61 5 2
0.295648 0.0834979 0.00865236 61 5 1
0.296052 0.0835621 0.00864199 63 5 2
0.29601 0.0838141 0.00888335 64 5 1
0.294261 0.0809966 0.00646568 60 6 3
0.294517 0.0828678 0.00811882 54 5 1
0.29487 0.0831722 0.00836984 57 5 1
0.295238 0.0834497 0.00864436 60 5 1
0.295603 0.0837474 0.00889367 63 5 1
0.295966 0.084068 0.00912388 64 5 2
0.29448 0.0831163 0.00837527 56 5 1
0.294837 0.0834021 0.0086381 58 5 1
0.295191 0.0836875 0.0089078 60 5 1
0.295564 0.0840029 0.00913564 62 5 1
0.294441 0.0833556 0.00863555 57 5 1
0.294802 0.0836406 0.0088996 59 5 1
0.295154 0.0839323 0.0091541 62 5 2
0.295451 0.084088 0.00925555 62 5 1
0.294399 0.0835868 0.00889955 59 5 1
