ply
format ascii 1.0
element vertex 1226
property float x
property float y
property float z
property uchar diffuse_red
property uchar diffuse_green
property uchar diffuse_blue
end_header
0.280378 0.0730368 -0.000544168 0 0 0
0.280413 0.0728057 -0.000813259 0 0 0
0.280552 0.0725683 -0.000495515 0 0 0
0.280597 0.0722606 -0.00066836 0 0 0
0.280828 0.0718274 -0.000644497 0 0 0
0.281064 0.0714117 -0.00063884 0 0 0
0.281159 0.0711047 -0.000813605 6 3 0
0.281271 0.0707561 -0.0009636 6 3 0
0.281208 0.0705435 -0.00125535 8 4 0
0.281589 0.0703863 -0.0010877 11 7 0
0.281531 0.0701673 -0.00136064 7 2 0
0.282008 0.0702224 -0.000988157 8 3 0
0.281861 0.0697528 -0.0015046 11 4 1
0.282036 0.0699756 -0.00125002 9 4 1
0.282225 0.0698662 -0.00134071 12 6 3
0.28229 0.0700491 -0.00114968 9 5 2
0.282463 0.0699465 -0.00120863 10 14 11
0.282506 0.0701793 -0.000921354 12 8 6
0.28284 0.0699945 -0.00102514 13 22 20
0.282933 0.0702767 -0.000688309 12 16 16
0.283182 0.0699965 -0.000845211 21 29 26
0.283443 0.0698901 -0.000704341 24 38 37
0.283581 0.0696002 -0.00068265 41 57 54
0.283782 0.0693899 -0.000418451 58 79 78
0.283568 0.0693218 -0.000843719 56 66 61
0.28381 0.069072 -0.000628517 77 89 80
0.283565 0.0690204 -0.00104709 67 73 65
0.283856 0.0687818 -0.000814624 89 93 82
0.28371 0.0687305 -0.00110041 71 75 65
0.283897 0.0684592 -0.000937449 83 84 75
0.283712 0.0684686 -0.00119588 74 75 67
0.283915 0.0682893 -0.000934761 95 95 87
0.283683 0.0682375 -0.0012253 77 78 71
0.283877 0.0681018 -0.000937726 97 97 89
0.28365 0.0679937 -0.00122293 83 82 75
0.283848 0.0679121 -0.000962472 98 97 89
0.283681 0.0675821 -0.00100772 100 101 91
0.283914 0.0677777 -0.000682347 119 121 109
0.283796 0.0674708 -0.000692762 125 126 113
0.283906 0.0676788 -0.000324297 129 133 120
0.283774 0.0672764 -0.000393075 138 140 124
0.283821 0.0674177 -0.000282564 137 139 123
0.283769 0.067302 -0.000186762 138 139 124
0.283966 0.0690709 -0.000139983 88 101 94
0.28399 0.0688288 -0.000398262 89 101 95
0.28403 0.0685462 -0.000536196 104 107 97
0.284016 0.0682113 -0.000579709 115 114 104
0.282671 0.0705673 -0.00041366 19 13 5
0.282667 0.0707995 -7.09072e-05 15 9 4
0.282466 0.0709567 0.000182828 7 7 2
0.282274 0.0711171 0.000486182 6 11 5
0.282127 0.0712739 0.00079463 4 11 2
0.28198 0.0714592 0.00109182 3 12 5
0.281888 0.0716604 0.00139346 2 10 2
0.281624 0.0718386 0.00113781 3 10 0
0.281546 0.0720727 0.0013926 4 10 0
0.281331 0.0719853 0.000922967 0 8 0
0.281253 0.0722284 0.00116074 2 8 0
0.281024 0.0724173 0.000892323 0 7 0
0.280972 0.0726702 0.00112312 3 9 0
0.280794 0.0726111 0.000613898 1 6 0
0.280707 0.0728876 0.000818145 2 8 0
0.280601 0.0728126 0.000326716 0 5 0
0.280526 0.0730722 0.000554254 0 5 0
0.280405 0.0730586 -3.37046e-06 0 2 0
0.280323 0.0733206 0.000222334 0 4 0
0.280196 0.073542 -8.01282e-05 0 2 0
0.28006 0.0737803 0.000161507 0 2 0
0.279944 0.0740096 -0.000147774 0 1 0
0.279846 0.0742605 7.87359e-05 0 1 0
0.281203 0.0724828 0.00139133 5 10 0
0.280933 0.0729467 0.00133129 3 11 0
0.280681 0.0731564 0.00103897 2 10 0
0.280467 0.0733313 0.000784841 0 6 0
0.280649 0.0734345 0.00124193 4 9 0
0.280427 0.0736032 0.000995788 2 7 0
0.280667 0.073701 0.00146764 6 12 1
0.280391 0.0739107 0.00117587 4 11 0
0.280417 0.0741763 0.0013982 3 10 0
0.28007 0.0743803 0.00110249 1 9 0
0.280939 0.073245 0.00152227 6 11 0
0.280239 0.0735661 0.000463289 0 3 0
0.280181 0.073828 0.000688447 0 3 0
0.280121 0.0741124 0.000891742 1 9 0
0.279931 0.0742941 0.000629636 0 6 0
0.279856 0.0745605 0.000844739 0 7 0
0.279756 0.0745046 0.000311282 0 1 0
0.279997 0.0740332 0.000400091 0 2 0
0.281157 0.0703602 -0.00150197 4 2 0
0.281319 0.0700316 -0.00164312 14 8 2
0.281048 0.070024 -0.00191608 4 1 0
0.281395 0.0696076 -0.0019146 6 1 0
0.28008 0.0737711 -0.000380832 0 1 0
0.281205 0.0700673 -0.00312827 35 0 0
0.281137 0.0704131 -0.00292397 34 0 0
0.281208 0.0705288 -0.00329333 42 1 0
0.281153 0.0708996 -0.00316046 38 0 0
0.281221 0.0710042 -0.00352681 47 2 0
0.281133 0.0713722 -0.0033966 47 2 0
0.281219 0.0714782 -0.00376231 52 4 2
0.281101 0.0718462 -0.00363017 52 4 2
0.281195 0.0719572 -0.00399727 51 5 2
0.281021 0.0723177 -0.00384584 48 4 2
0.281111 0.0724235 -0.00422293 49 5 3
0.280903 0.0727749 -0.00406253 47 5 3
0.281018 0.0728417 -0.0044581 51 5 3
0.280827 0.0726723 -0.00369083 42 3 2
0.280947 0.0722123 -0.00348371 47 3 2
0.281034 0.0717392 -0.00326063 44 2 0
0.281087 0.0712685 -0.00302881 35 0 0
0.281053 0.0707949 -0.00278859 32 0 0
0.280958 0.0711664 -0.00265182 26 0 0
0.280816 0.071525 -0.0025199 22 0 0
0.280675 0.0718801 -0.00237317 15 0 0
0.280513 0.072242 -0.00222471 10 0 0
0.280365 0.0725743 -0.00208113 4 0 0
0.280964 0.0716376 -0.0028933 30 0 0
0.280823 0.0719965 -0.00274998 25 0 0
0.280634 0.0723531 -0.00259737 18 0 0
0.280454 0.0727352 -0.00244338 8 0 0
0.28028 0.0729693 -0.001962 0 0 0
0.280299 0.073105 -0.00231535 0 0 0
0.280663 0.0725844 -0.00291954 29 0 0
0.280753 0.0725743 -0.0033169 39 2 1
0.280902 0.0721078 -0.0031215 39 1 0
0.280735 0.0724453 -0.0029674 31 0 0
0.28319 0.0627543 -0.0110268 145 121 99
0.283159 0.0632322 -0.0113074 132 100 78
0.283124 0.0637282 -0.0115457 130 90 67
0.283087 0.0640787 -0.0116691 129 89 66
0.28304 0.0645611 -0.0117925 121 76 54
0.283405 0.0645317 -0.0117936 127 83 60
0.283356 0.065016 -0.0119131 127 82 59
0.283733 0.0648251 -0.0118477 130 91 66
0.283728 0.0649972 -0.0119314 131 90 65
0.284091 0.0649244 -0.0118226 145 111 80
0.284063 0.0650738 -0.0118953 137 98 70
0.284051 0.0654603 -0.012086 130 88 62
0.284401 0.0655356 -0.0120274 143 107 78
0.284022 0.0658497 -0.0122629 129 86 60
0.284382 0.0658987 -0.0122205 138 98 69
0.2841 0.0644632 -0.0115167 152 122 93
0.283774 0.0643629 -0.011673 140 103 76
0.283446 0.064088 -0.0116387 136 94 70
0.284135 0.0640001 -0.0111404 153 129 105
0.28381 0.0639484 -0.0113952 144 110 85
0.283818 0.0635465 -0.0111036 146 120 99
0.283482 0.0637767 -0.0114774 140 104 81
0.283492 0.0633443 -0.0112086 146 120 98
0.284139 0.063595 -0.0107763 152 132 108
0.283826 0.0632243 -0.0108388 148 127 105
0.283508 0.0629376 -0.010917 145 123 101
0.283005 0.0649719 -0.0119097 117 67 44
0.282975 0.0653795 -0.0120543 119 69 45
0.283327 0.0654645 -0.0120572 119 70 47
0.282973 0.0657489 -0.0123303 113 60 39
0.283306 0.065871 -0.0122901 115 64 42
0.283018 0.0660315 -0.012652 110 50 30
0.283319 0.0661847 -0.0125494 113 57 35
0.2833 0.066201 -0.0125804 115 58 35
0.283353 0.0663886 -0.0128696 107 47 27
0.283204 0.0663297 -0.0129028 107 45 25
0.28343 0.0665074 -0.013248 112 48 27
0.283207 0.0663662 -0.0132761 109 40 22
0.283249 0.0663636 -0.0136606 105 36 18
0.283037 0.0660346 -0.0136942 100 31 15
0.283119 0.0660191 -0.0140979 96 25 11
0.28285 0.0656801 -0.013746 94 26 12
0.282937 0.0656629 -0.0141474 91 20 9
0.282656 0.0653325 -0.0137838 89 21 9
0.282761 0.0653094 -0.014195 86 18 7
0.282454 0.0649935 -0.0138288 85 16 7
0.282572 0.0649597 -0.0142432 81 14 5
0.283316 0.0663698 -0.0140541 101 30 13
0.283456 0.0665809 -0.0140295 107 36 18
0.283546 0.0666686 -0.013653 110 42 23
0.283717 0.0666604 -0.013129 114 51 30
0.284041 0.0668092 -0.0130313 118 61 39
0.284018 0.0665297 -0.0127464 120 68 45
0.283674 0.0664734 -0.0128034 118 59 36
0.28365 0.0662377 -0.012527 120 69 47
0.284 0.0662409 -0.0125022 126 79 53
0.272994 0.0706452 -0.0229705 79 7 2
0.272951 0.0708796 -0.0228934 79 8 2
0.272556 0.0708799 -0.0226539 82 9 3
0.272926 0.0710128 -0.0228422 79 8 2
0.272486 0.0712474 -0.0225406 81 9 3
0.272848 0.0713859 -0.0226984 80 8 2
0.272774 0.071748 -0.022553 83 9 4
0.273133 0.0718665 -0.0226807 82 10 3
0.273055 0.0722211 -0.0225121 82 10 3
0.272696 0.0721097 -0.0224039 84 10 4
0.272329 0.0719857 -0.0222676 82 9 3
0.272408 0.0716203 -0.0223982 81 9 3
0.27203 0.0714799 -0.0222202 82 9 4
0.271953 0.0718529 -0.0221064 82 9 4
0.27159 0.0717186 -0.0219292 82 10 4
0.271522 0.0721071 -0.0218191 83 10 4
0.271191 0.071755 -0.0216914 84 9 4
0.271154 0.0719621 -0.021641 84 10 4
0.270798 0.0716687 -0.0214578 85 10 4
0.270739 0.0720657 -0.0213702 84 10 4
0.270388 0.0715854 -0.0211805 86 10 4
0.270326 0.0719808 -0.0211077 85 10 4
0.269983 0.0715099 -0.0208799 86 10 4
0.269908 0.0718947 -0.0208135 86 11 4
0.269573 0.0714174 -0.0205919 86 9 2
0.26952 0.0718165 -0.0205354 84 9 3
0.26916 0.0715813 -0.0203249 85 10 3
0.269106 0.0719819 -0.0202821 85 9 2
0.268753 0.0716632 -0.0200916 83 7 1
0.268694 0.0720598 -0.0200554 83 7 1
0.268335 0.071987 -0.0199086 81 6 0
0.268636 0.0724475 -0.0200072 82 7 1
0.26828 0.0723837 -0.0198724 81 6 0
0.268573 0.072844 -0.019971 81 7 0
0.268224 0.0727788 -0.0198474 81 6 1
0.268164 0.0731731 -0.0198316 82 7 1
0.26781 0.0731201 -0.0198048 81 7 1
0.267754 0.0735188 -0.0198096 81 8 1
0.267402 0.0734642 -0.019804 83 8 2
0.267349 0.0738571 -0.0197994 83 9 2
0.26706 0.0734139 -0.019844 83 8 3
0.267004 0.073805 -0.019822 84 9 3
0.266713 0.0733665 -0.019908 84 9 3
0.266653 0.0737578 -0.0198783 85 9 3
0.266377 0.0733247 -0.0199893 86 10 4
0.266318 0.0737147 -0.0199593 85 10 4
0.266041 0.0732795 -0.0200843 86 10 5
0.265976 0.0736706 -0.0200409 86 10 5
0.265637 0.0736201 -0.0201323 86 10 4
0.265576 0.0740068 -0.0200461 86 10 5
0.265233 0.0739591 -0.0201129 86 10 5
0.26555 0.0741506 -0.0200057 87 11 5
0.265208 0.0741053 -0.0200707 86 11 5
0.265479 0.0745206 -0.0198893 87 12 5
0.26514 0.0744734 -0.0199383 89 12 5
0.265403 0.0749022 -0.0197517 89 12 5
0.265062 0.0748464 -0.0197959 89 13 5
0.26499 0.0752101 -0.0196492 91 15 6
0.264715 0.0747976 -0.0198347 90 13 6
0.264638 0.0751499 -0.0196764 90 14 6
0.26437 0.0747369 -0.0198724 89 13 6
0.264288 0.0750935 -0.0197084 91 15 7
0.264029 0.0746823 -0.0199132 90 13 6
0.263944 0.0750317 -0.0197296 91 14 6
0.263623 0.074877 -0.0198092 91 13 7
0.263527 0.0753233 -0.0195905 92 15 7
0.271081 0.0723384 -0.0215248 84 10 4
0.270641 0.0725768 -0.0212316 84 11 3
0.270186 0.0727608 -0.0209399 84 11 4
0.270112 0.0731954 -0.0208265 85 11 3
0.269778 0.0726797 -0.0206822 85 10 3
0.269717 0.0730604 -0.0205979 85 10 3
0.269392 0.0725973 -0.0204334 85 9 2
0.26932 0.0729892 -0.020353 84 10 2
0.268978 0.0727233 -0.0201658 83 7 1
0.268911 0.0731157 -0.0201126 82 7 1
0.268519 0.0732344 -0.0199396 82 7 0
0.268107 0.0735731 -0.0198416 82 7 1
0.267695 0.0739117 -0.0198036 81 8 2
0.267295 0.0742546 -0.0197826 85 10 3
0.266943 0.0742017 -0.0198044 85 11 3
0.267233 0.0746447 -0.0197512 85 11 4
0.26688 0.0746022 -0.0197653 85 11 4
0.267162 0.0750432 -0.0196847 85 12 5
0.266815 0.0749831 -0.0196933 85 12 5
0.267092 0.0754201 -0.0195857 86 14 5
0.266746 0.075361 -0.0195872 87 16 6
0.267069 0.0755806 -0.0195341 88 17 7
0.266719 0.0755186 -0.0195403 87 16 6
0.266646 0.0758866 -0.0194129 90 20 9
0.266296 0.0758228 -0.0194167 89 18 7
0.266223 0.0761948 -0.0192962 90 21 10
0.265951 0.0757562 -0.0194264 89 18 7
0.265877 0.0761296 -0.0193012 91 21 10
0.2656 0.0756979 -0.019451 91 17 8
0.265524 0.0760629 -0.0193046 92 21 10
0.265253 0.0756363 -0.0194794 91 16 7
0.265177 0.0759975 -0.0193246 92 18 8
0.264911 0.0755731 -0.0195054 92 16 7
0.264831 0.0759339 -0.0193383 93 18 9
0.26456 0.0755065 -0.0195237 92 16 7
0.264486 0.0758676 -0.0193503 92 19 9
0.264219 0.0754441 -0.0195441 92 16 7
0.264143 0.0758048 -0.0193785 93 18 9
0.26387 0.0753878 -0.0195661 92 16 7
0.263789 0.0757444 -0.0193971 93 18 9
0.263465 0.0755878 -0.0194593 93 18 8
0.265327 0.0752701 -0.0196192 91 15 6
0.265674 0.0753227 -0.0195888 88 13 6
0.265744 0.0749572 -0.0197181 88 12 5
0.266024 0.0753843 -0.0195605 88 14 6
0.266098 0.0750135 -0.0196925 86 12 5
0.266371 0.0754494 -0.0195469 86 15 6
0.266444 0.075075 -0.0196641 85 13 5
0.265819 0.0745766 -0.0198387 88 12 5
0.265846 0.0744465 -0.0198789 87 11 5
0.266187 0.0744979 -0.0198355 87 12 4
0.266255 0.0741081 -0.0199055 86 11 4
0.266536 0.0745495 -0.0197971 86 11 4
0.266596 0.0741513 -0.0198445 86 10 4
0.266467 0.0749288 -0.0197063 85 12 4
0.266119 0.0748702 -0.0197337 87 12 5
0.265915 0.0740598 -0.0199715 88 11 5
0.264062 0.0761583 -0.0192018 93 20 10
0.264408 0.0762257 -0.0191964 95 23 11
0.264757 0.0762905 -0.0191857 94 22 10
0.264334 0.0765884 -0.0190318 95 25 13
0.264675 0.0766505 -0.0190228 97 28 15
0.265105 0.0763675 -0.0191745 95 25 13
0.26545 0.0764371 -0.0191688 93 22 11
0.265803 0.0765 -0.019167 94 25 13
0.266149 0.0765674 -0.0191616 96 32 19
0.266572 0.0762734 -0.0192939 91 22 11
0.266996 0.0759606 -0.0194127 91 22 10
0.267414 0.0756553 -0.019542 87 18 8
0.267447 0.0754748 -0.0195912 86 18 7
0.267512 0.075099 -0.0196869 85 14 5
0.267584 0.0747055 -0.0197584 84 11 3
0.267638 0.0743069 -0.0197872 84 9 3
0.267991 0.0743669 -0.01981 83 10 2
0.268048 0.0739683 -0.0198352 83 9 2
0.268409 0.0740276 -0.0199086 83 9 1
0.268459 0.0736294 -0.0199196 82 8 1
0.268825 0.0736996 -0.020056 82 8 2
0.268889 0.0733026 -0.0200914 82 8 1
0.269206 0.0737687 -0.0202336 83 9 2
0.269256 0.0733797 -0.0202838 83 9 2
0.269587 0.0738439 -0.0204378 83 10 2
0.269658 0.0734147 -0.0205184 83 10 2
0.270048 0.0735282 -0.0207417 84 11 3
0.26998 0.0739568 -0.0206216 83 11 3
0.270351 0.0740848 -0.020765 84 11 4
0.270275 0.0744492 -0.0206177 85 14 5
0.270642 0.0745536 -0.0207212 86 13 5
0.27056 0.0749101 -0.0205536 88 16 7
0.270924 0.0750137 -0.0206377 88 18 7
0.270865 0.0752477 -0.0205206 90 20 9
0.271218 0.0753754 -0.0205791 91 22 11
0.270788 0.0755959 -0.0203368 92 23 11
0.271127 0.0757246 -0.0203904 93 25 13
0.270703 0.0759398 -0.0201473 94 28 14
0.271051 0.0760579 -0.0201915 95 28 14
0.270619 0.076282 -0.019954 97 33 18
0.271483 0.0758441 -0.0204376 93 27 14
0.271564 0.0754981 -0.020636 91 24 10
0.271913 0.0756424 -0.0206833 94 27 13
0.272266 0.0757572 -0.0207326 95 31 16
0.26953 0.0741961 -0.0203486 84 11 3
0.269904 0.0743379 -0.0204918 84 12 4
0.269454 0.0746156 -0.0202352 84 12 4
0.269832 0.0747054 -0.0203586 86 13 5
0.269758 0.0750688 -0.0202133 87 16 6
0.270122 0.0751712 -0.0203008 88 18 7
0.270044 0.0755228 -0.0201232 90 20 8
0.270396 0.0756178 -0.0201997 91 22 10
0.270355 0.0758137 -0.0200977 93 25 13
0.270275 0.0761595 -0.0199156 96 30 16
0.270196 0.0765132 -0.0197376 97 33 19
0.269875 0.0762308 -0.0197765 93 28 15
0.269523 0.0761453 -0.0197228 95 29 16
0.269925 0.0760382 -0.0198724 93 27 14
0.2696 0.0757803 -0.0198842 90 23 10
0.269963 0.0758737 -0.0199547 93 26 13
0.269681 0.0754238 -0.0200519 87 17 6
0.269169 0.0760569 -0.0196787 91 24 12
0.26882 0.075971 -0.0196378 91 24 11
0.268745 0.0763386 -0.0194982 93 29 16
0.26847 0.0758865 -0.0195972 90 22 11
0.268397 0.0762564 -0.0194621 93 27 14
0.268042 0.0761795 -0.0194469 92 27 13
0.267969 0.0765481 -0.0193152 96 32 18
0.267619 0.0764727 -0.0193152 93 28 14
0.267545 0.0768525 -0.0191852 99 37 22
0.267268 0.076411 -0.019305 93 28 15
0.267194 0.076777 -0.0191765 97 34 20
0.266922 0.0763459 -0.0192985 93 26 14
0.266849 0.0767064 -0.0191693 97 33 19
0.266498 0.0766346 -0.0191591 94 28 16
0.266425 0.077002 -0.0190208 100 39 23
0.266075 0.0769259 -0.0190114 97 32 19
0.266344 0.0773674 -0.0188802 105 45 30
0.265998 0.0772945 -0.0188597 101 40 25
0.266277 0.0777372 -0.0187565 114 59 40
0.265924 0.0776579 -0.0187245 116 58 39
0.265851 0.0780338 -0.0186161 119 67 47
0.265568 0.077579 -0.0186982 107 48 33
0.265496 0.0779526 -0.0185816 118 62 44
0.265147 0.0778762 -0.0185636 110 52 37
0.265069 0.078255 -0.0184792 124 74 52
0.264719 0.0781775 -0.0184445 117 61 46
0.264647 0.0785409 -0.0184229 123 78 59
0.264789 0.0778051 -0.0185378 117 59 40
0.264453 0.0776894 -0.0185332 108 49 32
0.264869 0.0774341 -0.0186876 102 42 28
0.264524 0.0773657 -0.0186799 104 41 26
0.264604 0.0770111 -0.0188486 99 33 19
0.264955 0.0770754 -0.018847 100 35 21
0.265029 0.0767241 -0.0190219 98 30 17
0.2653 0.0771466 -0.01885 101 37 22
0.265374 0.0767869 -0.0190137 99 33 19
0.265646 0.0772178 -0.0188531 102 39 25
0.265727 0.0768552 -0.0190091 98 32 19
0.265221 0.0775021 -0.0186894 108 48 32
0.267341 0.0760257 -0.0194278 89 22 11
0.267763 0.0757333 -0.0195489 88 21 9
0.267801 0.0755366 -0.0196114 86 17 6
0.267867 0.0751485 -0.0196988 84 12 4
0.267934 0.0747586 -0.0197688 84 10 3
0.26829 0.0748163 -0.0198184 83 11 3
0.268348 0.0744249 -0.0198718 84 9 2
0.268656 0.0748789 -0.0199044 83 11 4
0.268721 0.0744451 -0.0199809 83 10 3
0.269021 0.0749371 -0.0200062 86 14 4
0.269089 0.0745527 -0.020102 84 12 4
0.269388 0.0749991 -0.0201114 86 15 5
0.269324 0.0753346 -0.0199784 89 18 7
0.26925 0.075694 -0.0198312 90 22 10
0.268966 0.0752314 -0.0199029 86 14 4
0.268896 0.0756016 -0.0197801 88 20 8
0.268538 0.0755222 -0.019723 88 18 7
0.268611 0.0751356 -0.0198406 85 13 4
0.268224 0.0752046 -0.0197396 84 14 4
0.26816 0.0755908 -0.0196362 87 18 6
0.268112 0.0758062 -0.0195707 87 18 7
0.267692 0.0761034 -0.0194374 89 23 11
0.268774 0.0740947 -0.0200274 82 9 2
0.269138 0.0741627 -0.0201792 84 10 2
0.269157 0.0740594 -0.0201905 83 10 2
0.267122 0.0771528 -0.0190495 102 42 26
0.266775 0.0770776 -0.0190295 101 39 23
0.266703 0.0774472 -0.0189058 106 48 31
0.265415 0.0783415 -0.0185295 122 69 51
0.265002 0.0786368 -0.0185088 122 80 62
0.2646 0.0789969 -0.0186146 125 91 79
0.270483 0.0752693 -0.0203777 89 19 8
0.270196 0.0748116 -0.0204545 86 14 6
0.269273 0.0732562 -0.0203064 83 8 1
0.269022 0.0725207 -0.0202018 84 7 1
0.26908 0.0721306 -0.0202618 84 8 3
0.269454 0.0722137 -0.0204986 85 9 3
0.269849 0.0722942 -0.0207578 85 10 3
0.270244 0.0724239 -0.0210177 85 11 3
0.270715 0.0721969 -0.021333 85 10 4
0.273205 0.0714998 -0.0228334 80 9 4
0.273285 0.0711427 -0.0229852 81 9 3
0.273355 0.070774 -0.0231369 79 7 2
0.272173 0.0707154 -0.0224388 81 8 4
0.272105 0.0711031 -0.0223392 82 9 4
0.27172 0.070946 -0.0221125 82 8 4
0.271656 0.0713318 -0.0220168 82 10 4
0.271289 0.0711839 -0.0218098 84 10 4
0.271254 0.071361 -0.0217744 83 10 4
0.270863 0.0712782 -0.021527 85 10 4
0.26786 0.0621919 -0.0121104 90 33 17
0.263638 0.0693895 -0.0217814 86 10 6
0.263247 0.0697347 -0.0218736 85 9 7
0.263578 0.0697731 -0.0217262 85 10 7
0.263176 0.0701261 -0.0217924 85 9 6
0.263964 0.0694171 -0.0216232 86 10 7
0.262848 0.0700903 -0.021928 86 9 6
0.262792 0.0703752 -0.0218591 84 8 6
0.262726 0.070755 -0.0217605 85 8 5
0.282134 0.0611241 -0.00971544 134 124 107
0.282473 0.0613235 -0.00968645 137 127 109
0.282049 0.0612307 -0.0093335 128 117 103
0.282392 0.0614112 -0.00930246 133 123 104
0.282007 0.0613067 -0.0091662 129 119 104
0.282347 0.0614736 -0.00915393 133 124 104
0.281926 0.0614942 -0.00879889 130 121 105
0.282257 0.0616759 -0.00880667 129 124 108
0.281824 0.0617434 -0.00848999 118 106 95
0.282159 0.0619334 -0.0084954 122 111 100
0.281725 0.0620496 -0.00821725 107 92 81
0.282064 0.0622365 -0.00822003 110 96 83
0.281787 0.0621788 -0.00815346 109 93 81
0.28175 0.0624621 -0.00795272 103 85 73
0.281407 0.0620842 -0.00809722 106 90 78
0.281366 0.0623776 -0.00791011 99 78 66
0.281029 0.062006 -0.00806122 107 88 74
0.280969 0.0623183 -0.007887 94 68 56
0.280631 0.0619474 -0.00804893 98 76 64
0.280561 0.062309 -0.00793125 87 55 46
0.280202 0.0619182 -0.00805755 96 68 56
0.280131 0.0623195 -0.00800141 82 49 39
0.28027 0.0615958 -0.00821953 105 85 72
0.280668 0.0616375 -0.00821579 109 92 77
0.281065 0.0617235 -0.00825637 115 99 82
0.281448 0.0617952 -0.00827854 115 101 88
0.280311 0.0612972 -0.00840804 109 95 82
0.28071 0.0613362 -0.00839387 110 99 86
0.281106 0.0614056 -0.00842062 119 105 90
0.281114 0.0611917 -0.00871241 126 113 97
0.28117 0.0613818 -0.00848461 119 105 89
0.281247 0.0611816 -0.00882509 122 113 97
0.281584 0.0613217 -0.00880537 126 114 100
0.281666 0.0611573 -0.00917533 124 116 101
0.281501 0.0615485 -0.00846235 117 105 91
0.280742 0.0610598 -0.00862925 121 110 95
0.28281 0.0615637 -0.00968058 140 129 113
0.282697 0.0616797 -0.00915514 138 128 109
0.283153 0.0618856 -0.00974873 143 133 114
0.283064 0.0619535 -0.0092297 138 129 112
0.283382 0.0622769 -0.00927749 136 129 112
0.282933 0.0621624 -0.00888155 143 129 115
0.28326 0.0624951 -0.00891135 132 124 111
0.282826 0.0624602 -0.00857618 133 119 109
0.283155 0.0628361 -0.00866373 136 125 111
0.282734 0.0625558 -0.00847425 134 120 110
0.282994 0.0630198 -0.00843716 129 117 107
0.282676 0.0628453 -0.00828097 115 106 98
0.28293 0.0633111 -0.00825989 116 104 96
0.28259 0.0631398 -0.00811077 106 94 86
0.282841 0.0636136 -0.00809731 93 78 74
0.282495 0.0634416 -0.00793738 88 68 67
0.282742 0.0639221 -0.00793636 87 67 62
0.282388 0.0637557 -0.00779448 87 61 56
0.282612 0.0642383 -0.00779392 81 53 47
0.282217 0.0640766 -0.00766012 76 46 38
0.282478 0.0645693 -0.00770151 75 43 35
0.282032 0.0644692 -0.0076242 74 37 27
0.282306 0.0649475 -0.00764413 71 34 23
0.281664 0.0648914 -0.00761094 68 28 17
0.281983 0.065351 -0.00761212 67 26 15
0.281599 0.0653734 -0.0075372 66 20 10
0.281767 0.0656932 -0.00747833 63 18 9
0.281594 0.0657579 -0.00722307 61 15 7
0.281753 0.0659706 -0.0072401 59 14 7
0.281841 0.066106 -0.00711489 62 16 9
0.282086 0.0661509 -0.00742348 61 19 9
0.282072 0.0664114 -0.00716421 59 14 7
0.282373 0.0665933 -0.00736446 58 17 7
0.282107 0.0666378 -0.00688897 59 14 7
0.282376 0.06684 -0.00710954 59 17 10
0.282191 0.0669318 -0.0066904 60 18 10
0.282456 0.0671626 -0.00694445 60 18 10
0.28245 0.06741 -0.00670254 64 23 16
0.282684 0.0676511 -0.0069583 63 22 15
0.282667 0.0679161 -0.00673046 65 25 20
0.282894 0.0681479 -0.00697921 70 29 25
0.282849 0.0684197 -0.00676324 68 25 19
0.282956 0.0678748 -0.00719413 69 25 20
0.283086 0.0675943 -0.00739107 70 30 22
0.283196 0.0673383 -0.00763034 68 30 20
0.283471 0.0670945 -0.00786167 69 34 23
0.28393 0.0668995 -0.00805816 75 46 38
0.282719 0.0673902 -0.00720092 61 18 9
0.282813 0.0671292 -0.00743239 63 21 12
0.283055 0.0668912 -0.00770483 66 27 14
0.28355 0.0667068 -0.00793905 66 34 23
0.284014 0.0665087 -0.00813291 79 53 45
0.284414 0.0663634 -0.00842705 97 78 69
0.284635 0.0661476 -0.00866998 109 94 84
0.284895 0.0663895 -0.00892568 125 110 98
0.284784 0.0659305 -0.00894107 123 109 95
0.284999 0.0661815 -0.00914909 133 120 105
0.285014 0.065832 -0.00930392 143 130 112
0.28519 0.0663425 -0.00940993 146 133 115
0.285269 0.0660668 -0.00966081 153 137 117
0.285392 0.0665777 -0.00970934 156 140 120
0.285425 0.0663066 -0.00990833 158 142 122
0.28555 0.0665357 -0.0101981 162 146 125
0.285425 0.0660682 -0.0101459 157 141 120
0.285527 0.0662922 -0.0104315 161 145 124
0.285443 0.0660191 -0.0106581 153 140 119
0.285636 0.0665362 -0.0107185 166 150 126
0.285536 0.0662685 -0.0109882 160 146 124
0.285714 0.0667813 -0.0110352 168 154 130
0.285591 0.0665219 -0.011292 169 153 127
0.285784 0.067034 -0.0113324 166 153 131
0.285638 0.0667793 -0.0115814 168 151 125
0.2858 0.0672949 -0.0116546 166 154 129
0.285629 0.0670467 -0.0119033 169 152 125
0.2858 0.0675552 -0.0119633 168 154 129
0.285598 0.0673132 -0.0121967 169 148 120
0.285939 0.0678072 -0.0117161 169 160 139
0.285899 0.0675533 -0.0114043 168 157 137
0.28583 0.0673005 -0.0110936 168 156 136
0.285759 0.0670521 -0.0107906 167 153 131
0.285673 0.0668075 -0.0104784 166 150 127
0.285555 0.0668401 -0.00999369 161 144 124
0.285492 0.0670936 -0.00975733 149 134 116
0.285321 0.066849 -0.00947564 147 132 115
0.28564 0.0673404 -0.0100381 154 140 120
0.285757 0.0675836 -0.0103321 154 144 127
0.285774 0.0673212 -0.0105568 163 153 131
0.28585 0.0675719 -0.0108693 162 152 133
0.285672 0.0670816 -0.0102603 161 148 126
0.285914 0.067822 -0.0111682 164 154 136
0.285992 0.0680727 -0.0114707 164 157 139
0.285117 0.0666265 -0.00920166 135 122 108
0.285286 0.0657929 -0.00991023 156 139 116
0.285336 0.0657283 -0.0103299 152 136 117
0.285218 0.0655185 -0.0100022 154 137 112
0.285149 0.0652611 -0.0102575 145 135 117
0.285056 0.0652567 -0.00976225 148 134 113
0.28496 0.0649112 -0.00993911 141 132 115
0.284832 0.0649863 -0.00947 140 127 108
0.284782 0.0646422 -0.00965174 141 130 113
0.284585 0.0646998 -0.00921913 135 123 106
0.28461 0.064392 -0.00943783 140 126 108
0.28439 0.0642489 -0.00921913 139 127 108
0.284438 0.0639956 -0.00948134 137 125 106
0.284185 0.0637536 -0.00926201 137 124 106
0.284316 0.0635635 -0.00975581 142 132 112
0.284003 0.0631566 -0.00944357 146 136 118
0.284042 0.063044 -0.00974417 136 129 114
0.28373 0.0626694 -0.00941161 135 126 108
0.283768 0.0626056 -0.00967576 137 130 114
0.283463 0.0622067 -0.00968333 140 130 114
0.283187 0.061932 -0.0100904 145 133 114
0.283592 0.0628847 -0.0090473 145 134 115
0.283891 0.0633261 -0.00911527 149 135 115
0.2838 0.0636388 -0.00886771 138 128 111
0.283855 0.0638684 -0.00882502 134 124 110
0.283538 0.0636804 -0.00862399 126 118 104
0.283766 0.0641696 -0.00863724 120 109 96
0.283451 0.0639806 -0.00844821 116 105 95
0.283671 0.0644621 -0.00845965 108 96 84
0.283367 0.0642758 -0.0082738 103 91 82
0.283581 0.0647587 -0.00827906 93 80 73
0.283277 0.064575 -0.00811001 84 67 61
0.283483 0.0650474 -0.00811167 84 61 52
0.283178 0.0648816 -0.00795666 81 56 49
0.283119 0.0652516 -0.007863 75 45 37
0.282771 0.0650688 -0.00772224 72 38 31
0.282674 0.0654673 -0.00766515 73 38 29
0.282485 0.0654209 -0.00762822 70 32 22
0.282687 0.0659093 -0.00766153 69 32 20
0.282202 0.0658156 -0.00759113 67 25 14
0.282489 0.0662753 -0.00756536 63 22 11
0.284569 0.064002 -0.00995586 141 129 110
0.284469 0.0638657 -0.0097123 141 129 110
0.284639 0.0642456 -0.00972217 143 131 113
0.284772 0.0644648 -0.0100869 141 134 116
0.284947 0.0648108 -0.0103355 144 134 115
0.285056 0.0650805 -0.0106034 152 140 118
0.285242 0.0655171 -0.010635 153 142 121
0.285051 0.065248 -0.0109536 149 138 118
0.285304 0.0657641 -0.0109499 157 143 122
0.285128 0.0655679 -0.0112084 162 143 116
0.285351 0.0660245 -0.0112583 163 145 119
0.28512 0.0658024 -0.0115012 162 139 112
0.285383 0.066274 -0.0115495 169 145 120
0.285327 0.0663164 -0.0117026 169 145 120
0.285047 0.066435 -0.0121969 160 128 94
0.284903 0.0647565 -0.0105908 147 135 114
0.284886 0.0648431 -0.0108115 151 136 115
0.282452 0.0668987 -0.00718473 59 19 9
0.282723 0.0667358 -0.00753151 63 22 10
0.282889 0.066387 -0.0076654 67 28 17
0.283213 0.066537 -0.0078001 68 33 23
0.283288 0.0661448 -0.00785328 68 37 28
0.283639 0.0663153 -0.00800579 67 38 30
0.283708 0.0659481 -0.00808264 76 51 42
0.284044 0.0661442 -0.00824686 87 65 54
0.284007 0.0657689 -0.0083025 86 68 60
0.284319 0.0659161 -0.00845402 94 76 67
0.284125 0.0654348 -0.00846175 101 83 72
0.284482 0.0656933 -0.00868848 109 94 82
0.284451 0.0653485 -0.0087714 118 104 90
0.284728 0.0655303 -0.00901609 130 117 102
0.284588 0.06509 -0.0090294 126 114 98
0.284897 0.0653553 -0.00933105 138 126 107
0.284294 0.0647898 -0.0088526 120 108 94
0.284327 0.0644872 -0.00900271 132 120 101
0.284065 0.064397 -0.00880982 129 118 102
0.284102 0.0641017 -0.00899454 140 128 111
0.285123 0.0656128 -0.00961428 151 138 115
0.282956 0.0660021 -0.00773541 70 37 26
0.283048 0.0656163 -0.00778294 73 40 31
0.28338 0.0657728 -0.00791926 69 40 32
0.28345 0.0654098 -0.00800671 79 53 43
0.283778 0.0655999 -0.00817654 82 63 55
0.283788 0.0652301 -0.00826771 91 75 68
0.283893 0.0649472 -0.00845589 104 91 81
0.284214 0.0650843 -0.00866378 108 95 82
0.28398 0.0646501 -0.0086343 111 99 87
0.282398 0.0649609 -0.00765615 71 34 24
0.282846 0.0647133 -0.00780791 77 47 40
0.28296 0.0644034 -0.00794782 83 59 54
0.283059 0.0640962 -0.00810037 93 77 72
0.283155 0.0637871 -0.00825051 105 94 88
0.283223 0.0635059 -0.00844279 122 111 100
0.283285 0.0632091 -0.00861927 133 124 111
0.283485 0.0632108 -0.00878322 140 129 113
0.2826 0.0618898 -0.00882053 132 126 113
0.282489 0.0621683 -0.00852452 125 118 107
0.282375 0.0625463 -0.0082216 104 92 86
0.282093 0.0625682 -0.00803947 101 87 78
0.282048 0.0628868 -0.00788464 99 80 71
0.281669 0.0627833 -0.00781636 90 66 58
0.281609 0.0631488 -0.0077135 79 49 40
0.281297 0.0627151 -0.00779178 87 57 46
0.281209 0.0631275 -0.0077345 82 50 38
0.280895 0.0627012 -0.00781961 83 50 40
0.280784 0.0631284 -0.00778822 78 41 31
0.280451 0.062724 -0.00789523 77 40 29
0.280336 0.0631591 -0.00788287 76 35 23
0.280006 0.0627539 -0.00798187 75 35 25
0.279914 0.0631494 -0.00795575 72 25 13
0.282334 0.0626757 -0.00813423 106 92 84
0.282262 0.0629777 -0.00796001 97 80 73
0.282155 0.0632848 -0.00780609 88 66 60
0.282287 0.0637148 -0.00776418 87 58 52
0.281922 0.0635993 -0.00770265 84 54 45
0.281837 0.0640066 -0.00763674 73 39 29
0.281709 0.0644429 -0.00762682 69 31 22
0.281497 0.0644281 -0.00763324 69 27 18
0.281214 0.0647963 -0.00756726 65 21 11
0.280882 0.0643683 -0.0076458 65 19 9
0.280911 0.0646818 -0.00750259 64 16 7
0.280687 0.0643308 -0.00761592 65 19 9
0.280658 0.0647098 -0.00727041 62 13 6
0.280423 0.0644117 -0.00743511 65 16 6
0.280323 0.0646115 -0.00705828 65 13 5
0.280069 0.064325 -0.00724763 67 14 4
0.280023 0.06455 -0.00680695 61 11 4
0.279773 0.0642857 -0.00702595 64 11 4
0.279699 0.0645203 -0.00658256 60 10 4
0.27946 0.0642383 -0.00680252 61 11 5
0.279377 0.0644667 -0.00633611 58 11 6
0.279507 0.0639971 -0.00724153 63 12 3
0.279799 0.0639776 -0.00745327 68 17 6
0.280198 0.0640788 -0.0075561 68 17 7
0.279699 0.0638568 -0.00751495 69 17 6
0.279977 0.0637777 -0.00769593 69 19 8
0.28047 0.0639562 -0.00770577 68 21 10
0.280576 0.0639385 -0.00772749 68 21 10
0.280983 0.0640037 -0.00772138 69 25 15
0.281421 0.0639976 -0.00766683 70 31 22
0.281076 0.0635804 -0.00773203 74 36 27
0.281537 0.0635605 -0.00768458 78 43 33
0.280676 0.0635598 -0.00778744 73 30 20
0.280247 0.0635447 -0.00783672 70 23 14
0.279831 0.0634915 -0.00783747 71 21 9
0.279786 0.0637756 -0.00762473 68 17 6
0.281996 0.0632251 -0.00775985 85 59 53
0.281713 0.0610856 -0.00938325 132 123 106
0.273889 0.0619069 -0.0106922 87 36 19
0.274267 0.061858 -0.0105896 87 34 18
0.273796 0.0620887 -0.0103613 80 27 13
0.273416 0.0621076 -0.0104437 77 25 11
0.273337 0.0622684 -0.0100939 73 20 9
0.273736 0.0622482 -0.00999542 76 20 8
0.273261 0.0624275 -0.00972674 70 15 5
0.273178 0.0625782 -0.00934691 68 11 2
0.273656 0.0623995 -0.0096314 69 14 5
0.271786 0.0705667 -0.0222033 81 8 4
0.271409 0.0703899 -0.0219564 82 9 4
0.271381 0.0705808 -0.0219308 82 9 4
0.27099 0.0704952 -0.021663 84 8 4
0.27135 0.0707958 -0.0218958 82 10 4
0.27093 0.0708933 -0.021592 85 9 4
0.270906 0.0710203 -0.0215692 85 10 4
0.270448 0.0711961 -0.0212499 86 10 5
0.270575 0.0704524 -0.0213616 85 9 4
0.270517 0.0708064 -0.0212998 86 10 4
0.270099 0.0707225 -0.0209853 85 8 3
0.27004 0.0711158 -0.0209329 86 10 4
0.26969 0.0706347 -0.0206652 86 8 3
0.269631 0.0710255 -0.0206346 86 10 3
0.269256 0.0709496 -0.0203824 85 8 2
0.269192 0.0713371 -0.0203442 84 9 3
0.268809 0.0712633 -0.0201202 84 8 2
0.268393 0.071592 -0.0199336 83 6 1
0.267981 0.0719321 -0.0198358 83 6 1
0.267921 0.0723256 -0.0198206 82 7 1
0.26758 0.0722697 -0.0198262 82 7 2
0.26751 0.0726686 -0.0198168 82 7 2
0.267167 0.0726167 -0.019858 83 8 3
0.267114 0.0730174 -0.0198538 83 8 3
0.26683 0.0725715 -0.019943 85 9 4
0.266773 0.0729755 -0.0199301 84 9 4
0.266495 0.0725297 -0.0200442 87 9 4
0.266435 0.0729247 -0.0200192 86 9 4
0.266159 0.0724879 -0.0201454 88 10 5
0.266104 0.0728806 -0.0201172 86 10 5
0.265825 0.0724479 -0.020264 87 10 6
0.265767 0.072837 -0.020226 86 10 5
0.265437 0.0728026 -0.0203419 86 10 5
0.26537 0.0731819 -0.0202896 86 10 5
0.26503 0.0731384 -0.0203821 85 10 5
0.264964 0.0735296 -0.0202887 86 10 4
0.264622 0.073475 -0.0203731 86 11 5
0.26459 0.0736493 -0.0203186 85 11 5
0.264254 0.0736052 -0.0203816 87 11 5
0.26452 0.0740112 -0.0201845 88 11 6
0.264178 0.0739631 -0.0202391 88 12 5
0.264448 0.0743705 -0.0200387 89 13 6
0.264103 0.0743176 -0.0200819 89 13 6
0.267864 0.0727182 -0.0198074 82 7 1
0.267463 0.0730654 -0.0198106 81 7 2
0.265705 0.0732277 -0.0201854 86 10 5
0.265299 0.0735717 -0.0202097 87 11 5
0.264933 0.0736982 -0.0202434 87 11 5
0.264867 0.0740576 -0.0201275 87 11 5
0.26931 0.0705503 -0.0204017 86 8 2
0.26887 0.0708732 -0.0201416 84 7 1
0.268928 0.0704756 -0.0201498 85 8 2
0.268498 0.070758 -0.0199487 82 7 1
0.268446 0.071159 -0.0199481 82 7 1
0.268148 0.0707386 -0.0198396 82 6 1
0.268094 0.0711371 -0.0198408 82 6 1
0.26774 0.0710855 -0.0198042 84 6 2
0.268034 0.0715329 -0.0198438 82 5 1
0.267679 0.0715023 -0.0198203 84 7 2
0.267627 0.0718782 -0.0198196 83 7 2
0.267228 0.0722232 -0.0198732 85 9 3
0.266887 0.0721838 -0.0199512 85 9 4
0.266552 0.0721371 -0.0200474 86 10 5
0.266223 0.0720939 -0.0201698 88 11 6
0.291137 0.0803003 -0.0344593 85 90 81
0.291042 0.0803339 -0.0340568 90 93 83
0.291402 0.0804637 -0.0343183 92 96 86
0.291353 0.0805265 -0.0339898 93 94 83
0.291545 0.0805723 -0.0341631 92 96 85
0.291589 0.0806587 -0.0338353 101 103 91
0.291774 0.0807078 -0.0338912 100 102 90
0.291634 0.0807079 -0.0335613 103 104 92
0.291987 0.0808054 -0.033611 104 107 94
0.291879 0.0808017 -0.0333532 105 108 96
0.291901 0.0808153 -0.0330978 109 112 100
0.291817 0.0807558 -0.0327624 119 121 107
0.291772 0.0806623 -0.0323983 124 126 111
0.291744 0.0805551 -0.032122 126 126 110
0.292045 0.0805774 -0.0317602 129 126 112
0.291733 0.0804046 -0.0317986 133 129 111
0.292011 0.0803845 -0.031423 131 126 108
0.291683 0.0802191 -0.0315305 131 124 109
0.291981 0.0801297 -0.0311095 137 128 108
0.29166 0.0799599 -0.0312092 134 124 105
0.291966 0.079855 -0.0307838 127 116 99
0.291646 0.0796674 -0.030883 127 115 98
0.291951 0.0795355 -0.0304716 125 110 93
0.291647 0.0793576 -0.0305864 121 102 86
0.291952 0.0792804 -0.0302351 118 91 75
0.291645 0.0791444 -0.030361 118 91 73
0.291952 0.079008 -0.0299553 117 83 64
0.291629 0.0788936 -0.0300523 113 76 58
0.291943 0.0787673 -0.0296381 111 69 54
0.291612 0.0786893 -0.029729 107 63 49
0.291587 0.0784889 -0.0293963 98 49 37
0.291256 0.0784224 -0.0294774 97 48 38
0.291222 0.0782356 -0.0291132 88 34 25
0.290876 0.0781806 -0.0291854 80 29 20
0.290862 0.0781139 -0.0290414 78 23 16
0.290524 0.0780263 -0.0290981 77 20 14
0.290829 0.0779207 -0.028682 76 18 12
0.290491 0.0778373 -0.0287643 76 16 11
0.29081 0.0777637 -0.0284606 74 14 9
0.290466 0.0775969 -0.0284315 74 11 7
0.290795 0.0774858 -0.0281272 70 10 6
0.290445 0.0773037 -0.0281181 71 8 5
0.290789 0.0771948 -0.0278413 69 7 4
0.290451 0.0771034 -0.0279295 71 7 4
0.290792 0.0768279 -0.0275835 66 5 3
0.290453 0.0767748 -0.0276631 68 6 3
0.290797 0.0766623 -0.027465 64 4 2
0.290462 0.0764513 -0.0274029 67 5 3
0.290813 0.0763481 -0.0272355 62 3 2
0.290123 0.0763984 -0.0274761 70 5 4
0.29234 0.0805177 -0.0313308 130 129 113
0.292638 0.080387 -0.0309096 131 127 111
0.292976 0.0804858 -0.0308196 127 128 112
0.292936 0.0802331 -0.0304944 132 128 111
0.293291 0.0803139 -0.0304194 134 127 110
0.292928 0.0799943 -0.0301595 123 116 106
0.293275 0.0800493 -0.0300773 124 117 106
0.293252 0.0797681 -0.02978 122 111 101
0.29363 0.0800936 -0.0300421 122 116 104
0.293623 0.0798103 -0.0297279 119 111 101
0.293998 0.0799576 -0.0298433 125 116 104
0.29398 0.0797883 -0.0296573 125 116 103
0.294353 0.0797377 -0.0295996 119 111 100
0.293972 0.0795259 -0.0293812 110 99 92
0.294353 0.0795026 -0.0293481 113 104 93
0.293966 0.0792221 -0.0291048 104 89 82
0.294347 0.0791664 -0.0290398 99 85 79
0.293966 0.0789745 -0.0289687 97 77 70
0.294342 0.0788487 -0.0288485 90 71 64
0.293994 0.078549 -0.0288237 93 68 59
0.294357 0.0785885 -0.0287734 85 59 51
0.294054 0.0781475 -0.0287363 92 58 46
0.29441 0.0781348 -0.0286848 82 54 46
0.29409 0.0779701 -0.0287059 90 55 43
0.293725 0.0780189 -0.028709 94 58 45
0.293368 0.0780037 -0.0287313 95 50 33
0.293364 0.078123 -0.0287895 99 58 39
0.292999 0.0781516 -0.0287889 97 54 40
0.29333 0.0784823 -0.0289463 104 67 52
0.292974 0.0784812 -0.0290143 109 73 54
0.293287 0.0788661 -0.0291583 112 86 67
0.292942 0.0787957 -0.0292282 110 81 65
0.292927 0.0790105 -0.0293746 114 89 74
0.292598 0.0788948 -0.029455 114 78 60
0.292579 0.07924 -0.0297112 116 90 76
0.292265 0.0791118 -0.0298362 119 93 77
0.292264 0.0794244 -0.0301146 121 102 89
0.292282 0.078836 -0.0295594 116 79 61
0.292617 0.0787444 -0.029343 113 74 54
0.292618 0.0784627 -0.029069 103 56 41
0.292634 0.0781734 -0.028811 94 43 32
0.293004 0.0780051 -0.0286961 95 51 36
0.292639 0.078012 -0.0286731 88 36 27
0.292269 0.0779315 -0.0285031 83 33 26
0.291885 0.0778195 -0.02833 78 25 18
0.291509 0.0776863 -0.0281567 74 17 10
0.291142 0.0775378 -0.028076 72 13 7
0.291143 0.0772498 -0.0278054 69 10 4
0.291165 0.0778185 -0.0284062 77 20 13
0.29119 0.0780477 -0.0287574 83 28 19
0.291521 0.077838 -0.0283595 77 22 15
0.291545 0.0780673 -0.0287042 83 30 22
0.291897 0.0779431 -0.0284951 80 28 23
0.291913 0.0781751 -0.0288189 88 39 31
0.292278 0.0781782 -0.0288184 92 42 32
0.291141 0.0770356 -0.0276371 68 8 3
0.291159 0.0767077 -0.0274177 63 5 2
0.29117 0.0763744 -0.0271662 61 4 2
0.291934 0.0785396 -0.0293199 102 52 38
0.292275 0.0785681 -0.0292524 108 63 47
0.292278 0.0784419 -0.0291083 105 58 45
0.291918 0.0783075 -0.0289911 92 43 33
0.29157 0.0782787 -0.02905 88 37 28
0.293683 0.0783743 -0.0288511 97 66 54
0.293663 0.0784946 -0.0289244 101 71 59
0.293627 0.0789011 -0.029056 102 81 71
0.293605 0.0791535 -0.029188 104 87 79
0.293265 0.0791198 -0.0292818 112 89 74
0.293255 0.0794326 -0.0295125 113 97 87
0.292917 0.0793561 -0.0296158 115 97 84
0.292907 0.0796675 -0.0298413 118 108 97
0.292578 0.0795616 -0.0299817 120 103 89
0.292599 0.0798864 -0.030279 122 110 98
0.292271 0.0797304 -0.0303806 131 119 101
0.292285 0.0800217 -0.0306952 130 123 106
0.294782 0.0781479 -0.0286757 71 48 48
0.294729 0.0785884 -0.0287416 75 55 55
0.295109 0.0785953 -0.0287722 73 59 59
0.294725 0.0787176 -0.0288112 79 61 58
0.295087 0.0790704 -0.0290587 87 80 77
0.294721 0.0791001 -0.0290262 91 81 76
0.294728 0.0794239 -0.0292927 105 99 90
0.295478 0.0789831 -0.0290949 86 82 77
0.295482 0.0793453 -0.0294212 104 99 90
0.295107 0.0794277 -0.0293829 104 98 90
0.295496 0.079631 -0.029725 117 113 101
0.295106 0.079721 -0.0296857 114 110 99
0.295499 0.0798125 -0.0299329 125 121 108
0.295128 0.0800376 -0.0300689 129 125 110
0.295124 0.0801877 -0.0302837 131 125 110
0.294732 0.0797841 -0.0296717 118 113 101
0.294749 0.0800011 -0.0299332 125 122 107
0.294375 0.0800539 -0.0299556 128 121 106
0.294752 0.0801567 -0.0301266 129 124 108
0.294385 0.0802378 -0.0301731 130 125 108
0.295873 0.0792251 -0.0294919 109 105 96
0.295888 0.0795118 -0.0297986 121 115 105
0.295906 0.0796987 -0.0300215 125 120 109
0.293662 0.0803524 -0.0303625 128 123 110
0.292309 0.0802715 -0.0310022 134 129 110
0.292606 0.0801443 -0.0305908 134 124 107
0.2936 0.0795374 -0.0294518 113 103 95
0.292068 0.0807238 -0.0340316 96 94 83
0.291839 0.080622 -0.0342484 91 94 84
0.291735 0.0805229 -0.0344748 86 90 82
0.292143 0.0805959 -0.0344741 93 87 72
0.292402 0.0807265 -0.0342227 109 99 79
0.292696 0.0807393 -0.0344241 110 87 64
0.290965 0.0803055 -0.0336608 98 97 87
0.291299 0.0805342 -0.0336161 105 105 92
0.291214 0.080479 -0.0332214 110 109 96
0.291556 0.0806699 -0.0331826 107 108 95
0.291481 0.0805775 -0.0327845 116 116 102
0.296277 0.0826337 -0.037407 0 0 0
0.296244 0.0824373 -0.0370749 0 0 0
0.296604 0.0828073 -0.0372821 0 0 0
0.296626 0.082566 -0.036981 0 0 0
0.296886 0.0824296 -0.0367615 0 0 0
0.296996 0.0821332 -0.0364747 0 0 0
0.296212 0.0822012 -0.0366277 0 0 0
0.295853 0.0820243 -0.03642 0 0 0
0.296187 0.0819959 -0.03625 0 0 0
0.295827 0.0818617 -0.0360878 0 0 0
0.296099 0.0818089 -0.0359497 0 0 0
0.295776 0.0816953 -0.0357467 0 0 0
0.296119 0.0816347 -0.0356534 0 0 0
0.296133 0.0814377 -0.0353252 4 1 0
0.295504 0.0817304 -0.035938 0 0 0
0.295494 0.0818367 -0.0362115 0 0 0
0.296929 0.0812567 -0.0353564 0 0 0
0.296846 0.0814448 -0.0355587 0 0 0
0.296516 0.0813464 -0.0352893 1 0 0
0.296479 0.0815554 -0.035603 0 0 0
0.29696 0.0818005 -0.0360956 0 0 0
0.29658 0.082062 -0.0363478 0 0 0
0.296579 0.0823418 -0.0366893 0 0 0
0.296479 0.0817975 -0.0359726 0 0 0
0.296834 0.0816018 -0.0358081 0 0 0
0.267197 0.0623982 -0.0112137 82 21 9
0.267712 0.0624428 -0.0110931 80 18 6
0.26741 0.062476 -0.0108835 79 18 7
0.267925 0.0625135 -0.0107619 75 15 5
0.267629 0.0625481 -0.0105538 75 15 5
0.268137 0.0625887 -0.0104298 71 12 5
0.26784 0.0626258 -0.0102336 71 12 5
0.268357 0.0626512 -0.0100973 68 9 2
0.268061 0.062705 -0.0098999 69 10 3
0.26858 0.0627367 -0.00976527 67 10 3
0.268281 0.062791 -0.00956866 66 9 2
0.2685 0.0629061 -0.00925811 65 8 2
0.268215 0.0624884 -0.0109678 78 18 6
0.268434 0.0625441 -0.0106279 74 15 5
0.268653 0.0626141 -0.0102986 71 14 5
0.268871 0.062693 -0.00996632 68 10 3
0.269082 0.0627784 -0.00964149 67 9 3
0.268791 0.062852 -0.00945694 67 9 2
0.269296 0.0628714 -0.00931989 64 8 2
0.269009 0.0629432 -0.00914292 64 8 2
0.269517 0.0629568 -0.00899285 64 9 2
0.269223 0.0630296 -0.00880748 63 10 2
0.269738 0.0630384 -0.00866739 62 9 2
0.269444 0.0631168 -0.00848285 63 9 2
0.269961 0.0631343 -0.00835258 62 8 2
0.269663 0.0631853 -0.00816835 61 10 2
0.269879 0.0632568 -0.00782788 60 9 2
0.269354 0.0632298 -0.00797755 60 9 2
0.269141 0.0631893 -0.00831249 61 9 2
0.26893 0.0631047 -0.00862172 63 9 2
0.268717 0.0630123 -0.00893914 65 8 1
0.269076 0.0633086 -0.00776435 60 11 2
0.270256 0.0630755 -0.00852499 64 8 2
0.270533 0.0629932 -0.00871336 64 9 2
0.270834 0.0629186 -0.0088977 65 9 2
0.271116 0.0628422 -0.00908049 65 9 2
0.27141 0.0627582 -0.00926422 66 10 2
0.271699 0.0626806 -0.0094468 68 10 2
0.271993 0.0625917 -0.00962552 70 12 4
0.272283 0.062514 -0.00980449 70 13 5
0.271771 0.0625238 -0.00995941 70 12 4
0.27127 0.0625261 -0.0101003 69 12 4
0.270758 0.0625376 -0.010254 71 12 4
0.270255 0.0625451 -0.0104071 71 13 4
0.269742 0.062544 -0.0105441 74 14 5
0.269237 0.0625401 -0.0106919 76 15 5
0.268725 0.0625126 -0.0108336 75 15 5
0.268945 0.0625904 -0.0104997 72 13 4
0.269156 0.0626607 -0.0101662 71 10 3
0.269374 0.0627268 -0.00983353 70 10 2
0.269594 0.0628011 -0.00950846 66 9 2
0.269805 0.0628766 -0.00917362 64 9 2
0.270024 0.0629727 -0.008851 65 8 2
0.269453 0.0625976 -0.0103544 71 11 3
0.269657 0.0626504 -0.0100263 69 11 2
0.26988 0.0627261 -0.00969284 67 9 2
0.270099 0.0628136 -0.0093704 65 8 2
0.270324 0.0628988 -0.00903615 65 9 2
0.270612 0.0628254 -0.00921933 65 10 2
0.270903 0.0627537 -0.00940131 66 9 2
0.271199 0.0626727 -0.00958906 67 10 3
0.271487 0.0626002 -0.00977663 68 12 4
0.27097 0.0626065 -0.00992536 68 11 4
0.270472 0.0626066 -0.0100766 70 13 5
0.269956 0.0625888 -0.0102147 71 12 5
0.270679 0.0626764 -0.00974599 67 10 3
0.27018 0.0626639 -0.00988042 69 11 4
0.27039 0.0627477 -0.0095568 67 9 3
0.29717 0.0844057 -0.0392939 0 0 0
0.297333 0.0843801 -0.0389411 0 0 0
0.297382 0.0842596 -0.0386603 0 0 0
0.297692 0.0842493 -0.0384252 0 0 0
0.298006 0.0841205 -0.0381749 0 0 0
0.297675 0.0840566 -0.0381643 0 0 0
0.290339 0.0789211 -0.0321008 96 84 78
0.290269 0.0786591 -0.031793 85 70 66
0.290555 0.0791598 -0.031819 105 94 84
0.290441 0.0788153 -0.0314409 86 68 65
0.290735 0.0791036 -0.0313608 98 85 80
0.290711 0.078866 -0.0309898 93 71 65
0.29102 0.0791009 -0.0309312 111 92 79
0.291003 0.0788903 -0.0306112 101 71 61
0.291324 0.0790166 -0.0304867 114 86 74
0.2913 0.0787932 -0.030155 106 67 53
0.291332 0.0792862 -0.030826 112 92 81
0.291034 0.0794087 -0.0312996 110 99 87
0.290758 0.0793795 -0.0317295 106 97 90
0.290595 0.0794072 -0.032137 102 95 86
0.290355 0.0791696 -0.0323998 101 95 87
0.291344 0.0796605 -0.0312134 124 114 99
0.29105 0.079697 -0.0316352 117 109 96
0.290788 0.0796679 -0.0321015 109 106 97
0.290618 0.0796634 -0.0324392 113 106 92
0.290362 0.0794343 -0.0327141 103 97 86
0.291351 0.0799683 -0.0315555 124 118 104
0.291065 0.0799818 -0.0319995 123 117 102
0.290812 0.0799106 -0.0324625 119 115 101
0.290653 0.0797775 -0.0325807 113 106 92
0.290442 0.0796558 -0.0329824 102 96 85
0.291412 0.0802598 -0.0319869 130 127 110
0.291112 0.0802136 -0.0324303 124 120 104
0.29086 0.0801117 -0.0328487 111 110 97
0.290785 0.0800534 -0.0329093 106 103 93
0.290896 0.080236 -0.0332596 102 101 88
0.290589 0.0799284 -0.0332976 100 96 86
0.290671 0.0800335 -0.0336825 96 95 85
0.291438 0.0804425 -0.0324114 123 123 108
0.291162 0.0803661 -0.0328266 114 113 100
0.290181 0.0784766 -0.0315405 78 57 57
0.2904 0.078629 -0.0310625 82 56 54
0.290678 0.0786561 -0.0306079 89 56 50
0.290964 0.0786146 -0.0301598 90 46 37
0.291282 0.0786009 -0.0298277 103 57 44
0.290918 0.0783431 -0.0295653 86 37 29
0.290559 0.0781798 -0.0294697 80 31 24
0.290229 0.0780645 -0.0295373 73 21 17
0.290187 0.0779077 -0.0291717 73 19 16
0.290265 0.0781681 -0.0298301 71 25 21
0.290316 0.0782966 -0.0302343 75 36 32
0.290358 0.0784502 -0.0306708 77 42 39
0.290658 0.078553 -0.0303937 90 53 45
0.290644 0.0784728 -0.0302199 89 50 43
0.290952 0.0785028 -0.0299235 89 43 35
0.290602 0.0783266 -0.0298452 82 35 29
0.290154 0.0777211 -0.0288461 72 12 9
0.29013 0.0774803 -0.0285111 71 10 8
0.290115 0.0771854 -0.0281817 71 8 5
0.290109 0.0768573 -0.027881 69 6 4
0.290113 0.0767156 -0.027736 70 6 4
0.297551 0.0846666 -0.0396666 0 0 0
0.297421 0.0845774 -0.0394409 0 0 0
0.297515 0.0845278 -0.0391443 0 0 0
0.282319 0.0650255 -0.0133991 89 21 9
0.28253 0.0653613 -0.013368 92 25 12
0.282436 0.065371 -0.012962 95 31 15
0.282669 0.0657037 -0.0129324 100 37 20
0.282678 0.0656621 -0.0125769 108 48 28
0.282776 0.0658377 -0.0127812 100 38 21
0.282696 0.0656643 -0.0125271 107 49 28
0.282736 0.0657031 -0.0133285 97 29 14
0.282943 0.0660388 -0.0132874 106 36 18
0.282903 0.066031 -0.0129056 105 41 23
0.282202 0.0650429 -0.0129844 91 26 12
0.282154 0.0650413 -0.0125979 99 36 19
0.282405 0.0653561 -0.012582 102 40 22
0.282434 0.0652645 -0.0122355 108 48 30
0.282564 0.0650575 -0.0119673 119 68 45
0.282649 0.065036 -0.0119464 119 67 45
0.282649 0.0654401 -0.0122153 115 60 39
0.297699 0.0832609 -0.037463 0 0 0
0.296027 0.0770329 -0.0287229 54 38 44
0.296346 0.077495 -0.0288881 62 51 54
0.295965 0.0775059 -0.0287358 53 39 44
0.295912 0.0779623 -0.0287711 61 51 55
0.296287 0.0778845 -0.0289345 69 62 64
0.296272 0.0783399 -0.0290002 87 82 81
0.256737 0.0708257 -0.0222354 91 12 7
0.256652 0.0711353 -0.0220103 91 12 7
0.256574 0.0714483 -0.0217741 89 12 7
0.256999 0.0712248 -0.0220109 91 12 7
0.256916 0.0715494 -0.0217772 90 13 7
0.257184 0.0719512 -0.0215509 91 12 7
0.257439 0.0723484 -0.0213091 92 14 8
0.257708 0.0727566 -0.021078 91 14 8
0.257974 0.0731625 -0.0208573 92 14 7
0.258312 0.0732461 -0.0208522 92 14 8
0.258232 0.0735646 -0.0206219 93 14 7
0.258494 0.073959 -0.020376 94 14 7
0.258756 0.0743432 -0.0201215 94 15 7
0.259023 0.0747071 -0.0198461 95 15 8
0.258984 0.0749361 -0.0196546 95 15 8
0.259386 0.0749951 -0.0196655 94 16 8
0.258952 0.0752045 -0.0194352 95 16 8
0.259354 0.0752583 -0.0194425 94 16 8
0.25892 0.0754732 -0.019213 95 16 8
0.259322 0.0755276 -0.0192211 95 15 8
0.258896 0.0757344 -0.0189804 96 18 9
0.259293 0.0758032 -0.0190063 95 17 9
0.258864 0.0760038 -0.018759 96 18 8
0.259256 0.076078 -0.0187907 99 21 10
0.258832 0.0762695 -0.0185328 100 22 11
0.259224 0.0763505 -0.018567 101 24 12
0.258807 0.0765285 -0.0183005 102 26 13
0.259192 0.0766125 -0.0183423 101 25 13
0.259159 0.0768854 -0.0181258 106 32 17
0.259545 0.0769648 -0.0181647 104 30 15
0.259135 0.0771568 -0.0179068 109 39 24
0.259509 0.0772388 -0.0179498 108 39 23
0.259475 0.0775212 -0.017746 112 46 29
0.259861 0.0776054 -0.0177914 113 49 31
0.259824 0.0779006 -0.0175981 122 62 43
0.260213 0.0779821 -0.0176431 123 65 45
0.260155 0.0783004 -0.0174919 135 86 60
0.260528 0.0784047 -0.0175732 131 78 55
0.260106 0.0786666 -0.0174012 139 95 69
0.260463 0.0788126 -0.0175222 134 99 75
0.260173 0.0792219 -0.0175202 136 108 87
0.260434 0.07943 -0.0177288 130 114 96
0.259858 0.0796397 -0.0175438 138 117 95
0.260131 0.0798493 -0.017729 139 127 106
0.259889 0.080233 -0.0176885 150 141 117
0.260198 0.080408 -0.0178642 150 143 119
0.259896 0.0807342 -0.0177579 156 152 129
0.260237 0.0808981 -0.0179088 159 151 127
0.25983 0.0811004 -0.0176495 154 152 129
0.260172 0.0812185 -0.0177522 157 153 130
0.259777 0.0814004 -0.0174734 155 152 130
0.260135 0.0815038 -0.0175475 153 151 131
0.260127 0.0816886 -0.0173422 151 151 132
0.26038 0.0819311 -0.0169649 142 142 124
0.26063 0.0820988 -0.016491 133 132 117
0.260966 0.0821737 -0.0164375 130 127 112
0.261197 0.0823011 -0.015835 124 111 100
0.26154 0.0823468 -0.0157722 126 113 100
0.261883 0.0823765 -0.0157163 124 107 94
0.26222 0.0823934 -0.0156586 125 107 95
0.262569 0.0823977 -0.0155919 121 103 92
0.262909 0.0823907 -0.0155071 123 106 93
0.263246 0.082362 -0.0153699 126 105 90
0.263589 0.082334 -0.0152535 126 99 85
0.263943 0.0823149 -0.0151719 125 92 80
0.259471 0.0809405 -0.0175164 154 150 127
0.25966 0.080612 -0.0176431 151 145 123
0.25932 0.0804365 -0.0174833 150 141 117
0.259581 0.0800469 -0.0175299 144 136 115
