ply
format ascii 1.0
element vertex 1253
property float x
property float y
property float z
property uchar diffuse_red
property uchar diffuse_green
property uchar diffuse_blue
end_header
0.270582 0.0872425 0.0484549 0 13 3
0.270697 0.087353 0.0487462 0 16 4
0.270483 0.0874771 0.0487682 0 16 4
0.26951 0.0883606 0.0452684 0 12 3
0.269848 0.0884198 0.0451041 0 11 1
0.269563 0.0886718 0.0453698 0 10 1
0.310988 0.0925331 0.00491063 61 8 2
0.310668 0.0924846 0.00504402 61 8 2
0.31132 0.0925702 0.00478964 64 8 2
0.31165 0.0925891 0.00467118 63 8 3
0.311984 0.0926123 0.00454963 66 8 3
0.281897 0.0860738 0.0463279 76 101 92
0.315841 0.0901713 0.0104217 86 27 16
0.315796 0.090619 0.010257 85 27 15
0.315691 0.090881 0.0101985 94 36 24
0.281501 0.0863812 0.046358 90 102 89
0.28109 0.0866754 0.0463913 102 110 92
0.280971 0.0870351 0.0462328 113 119 103
0.280659 0.0869954 0.0463999 121 119 96
0.280848 0.0873815 0.0460723 111 116 99
0.280537 0.0873565 0.0462335 112 115 91
0.280795 0.0875183 0.0459957 111 117 100
0.280488 0.0874975 0.0461627 117 120 96
0.280354 0.0877719 0.0459436 134 132 108
0.280031 0.0877106 0.0460718 130 128 102
0.279887 0.0880092 0.0458317 135 134 109
0.27971 0.0876809 0.0462136 120 114 79
0.279577 0.0879745 0.0459895 123 119 87
0.279253 0.0879213 0.0461115 102 103 72
0.279103 0.0882026 0.0458489 117 115 85
0.278933 0.0879098 0.0462591 69 76 48
0.278782 0.088169 0.0459858 81 86 57
0.278608 0.0879178 0.0464272 46 58 37
0.278459 0.0881507 0.0461376 51 63 40
0.278287 0.087941 0.04661 31 46 27
0.278139 0.0881553 0.0463145 40 54 32
0.277888 0.088098 0.0466446 21 40 20
0.277757 0.0882283 0.0463947 27 43 24
0.277563 0.0881841 0.0468264 12 32 14
0.277452 0.0883106 0.0465713 14 34 15
0.27719 0.0883755 0.0468216 4 26 9
0.276961 0.0885033 0.0465109 8 29 11
0.276713 0.0886015 0.0467503 2 23 8
0.277217 0.0884307 0.0462615 15 36 17
0.277505 0.0883828 0.0460491 27 44 25
0.2779 0.0884345 0.0457399 42 57 37
0.278077 0.0882747 0.0461079 42 56 35
0.278592 0.088381 0.0456697 91 95 66
0.278717 0.0882531 0.0458662 85 88 60
0.278949 0.0884198 0.0455504 118 118 90
0.279425 0.0882505 0.0457166 128 124 95
0.280326 0.0869297 0.046503 111 108 82
0.306907 0.093087 0.0059552 37 22 6
0.306994 0.0934245 0.00601116 52 28 10
0.307259 0.0929913 0.00612469 41 22 6
0.307351 0.0933119 0.00623434 49 28 11
0.307616 0.0929146 0.00622407 47 23 8
0.307659 0.0932274 0.00636507 55 30 12
0.307994 0.0928882 0.00626291 47 23 8
0.308004 0.0931713 0.00640553 72 38 16
0.308376 0.0931392 0.00644527 64 30 13
0.308423 0.0934357 0.00656653 81 39 19
0.308811 0.0934029 0.0065914 87 41 20
0.308476 0.0937702 0.00666638 91 51 27
0.308862 0.0937175 0.00672865 97 51 27
0.308903 0.0940333 0.00685471 106 57 33
0.30928 0.0939643 0.00697569 104 55 31
0.309076 0.0943264 0.00706179 116 70 42
0.309468 0.0943176 0.00726683 136 82 52
0.309095 0.0946325 0.00725441 137 87 54
0.309553 0.0943769 0.00735416 136 82 52
0.30909 0.0946749 0.00727925 137 86 55
0.309411 0.0947107 0.00752915 152 98 63
0.308945 0.0949811 0.00744094 150 108 69
0.309263 0.0950074 0.00769248 160 124 79
0.308991 0.0952567 0.00780722 160 139 97
0.309094 0.0952663 0.00788163 161 139 97
0.308927 0.0955246 0.00806013 162 147 112
0.309417 0.0952893 0.00812723 168 146 103
0.309259 0.0955676 0.00829545 169 153 118
0.309714 0.095275 0.00839836 171 151 113
0.309581 0.0956109 0.00853162 177 159 122
0.309898 0.0956348 0.00878581 181 161 127
0.309469 0.0959965 0.00867031 179 163 133
0.309787 0.0960585 0.00890555 185 169 138
0.309407 0.0964254 0.00880437 181 168 140
0.309717 0.096519 0.00902834 185 174 146
0.309532 0.0969747 0.00904154 189 184 156
0.30985 0.097056 0.0092754 192 187 158
0.309548 0.0975333 0.00918013 189 186 158
0.309867 0.0976137 0.0094174 194 189 160
0.309467 0.098057 0.00925251 189 185 155
0.30979 0.0981286 0.00948874 195 192 160
0.309377 0.0984949 0.00933856 187 186 156
0.309702 0.0985391 0.00958602 197 193 162
0.309269 0.0988583 0.00947174 187 186 156
0.309132 0.0991878 0.0096196 186 187 158
0.30898 0.0994877 0.0097898 189 190 160
0.310098 0.0981517 0.00973549 199 193 162
0.310173 0.0976648 0.0096495 197 192 161
0.310256 0.0971399 0.00957211 196 189 159
0.309929 0.0970735 0.00933547 192 187 158
0.310333 0.0966226 0.00948992 194 184 151
0.310007 0.0965601 0.00924922 188 177 147
0.310422 0.0961507 0.00939472 190 172 141
0.310108 0.0961011 0.00916141 186 171 139
0.310532 0.0957019 0.0092868 186 165 130
0.310205 0.0956569 0.00904758 183 163 129
0.310611 0.0952595 0.00919276 184 155 114
0.310305 0.0952571 0.00893479 182 154 114
0.31039 0.094836 0.00883578 178 141 94
0.310137 0.0949153 0.00852137 171 127 85
0.310337 0.0945167 0.00849272 165 110 74
0.310099 0.0946291 0.00818687 167 121 79
0.310437 0.0941975 0.00827711 147 89 61
0.310195 0.0943213 0.00797022 152 95 63
0.310568 0.0939403 0.00804596 134 76 49
0.310325 0.0940398 0.00774797 132 73 45
0.310738 0.0937378 0.00780933 121 60 38
0.310439 0.0937787 0.00751381 117 57 34
0.310013 0.095259 0.0086635 179 150 108
0.30986 0.0949721 0.00823156 172 138 95
0.310005 0.0946525 0.00808071 164 116 75
0.309866 0.0943838 0.00762699 138 84 56
0.310005 0.0940593 0.00745127 123 65 39
0.309569 0.0950001 0.00795192 166 127 84
0.309714 0.0946977 0.00779179 155 102 66
0.309934 0.0939508 0.00729533 121 64 38
0.309452 0.0939776 0.00704611 110 56 33
0.309441 0.0938575 0.00697289 110 56 33
0.309254 0.0936723 0.00677787 95 45 25
0.310412 0.0981392 0.00999341 205 198 166
0.310501 0.0976661 0.00990247 204 197 164
0.310577 0.0971534 0.00981508 199 192 161
0.310886 0.0971791 0.0100671 205 196 162
0.310981 0.096682 0.00997237 201 187 152
0.311002 0.0968173 0.0100254 203 191 157
0.31129 0.0966754 0.0102352 201 185 151
0.311305 0.0967026 0.0102616 201 185 151
0.311282 0.0963782 0.010137 202 188 152
0.311612 0.0965939 0.0105161 204 189 154
0.311576 0.0962608 0.0103963 200 179 145
0.311856 0.0961353 0.0106588 200 183 149
0.31158 0.0959397 0.0102577 195 171 138
0.311869 0.0958319 0.0104887 197 174 140
0.311577 0.0956201 0.0100946 192 167 135
0.311875 0.0955024 0.0103412 190 165 132
0.311578 0.0952948 0.009959 189 162 126
0.311868 0.0951707 0.0102022 188 162 129
0.311556 0.0949633 0.0098283 183 150 108
0.311864 0.0948498 0.0100564 183 151 113
0.311554 0.0946413 0.00968584 179 139 93
0.311873 0.0945363 0.00989837 179 141 98
0.311738 0.0942485 0.00968821 173 120 79
0.311854 0.0942103 0.0097612 174 121 80
0.311924 0.0939617 0.00967683 172 119 78
0.312144 0.0939851 0.00985311 163 115 79
0.312036 0.09374 0.00959177 155 98 64
0.3124 0.0935028 0.00962434 152 99 66
0.31225 0.0934317 0.00923366 139 83 54
0.312616 0.0932827 0.00918565 133 73 46
0.312413 0.0933404 0.0090011 125 63 40
0.312679 0.0932554 0.00876019 119 56 35
0.312369 0.0933077 0.00847592 118 53 32
0.312659 0.0932691 0.00823164 109 43 25
0.312384 0.0933243 0.00795391 106 41 23
0.312687 0.0932961 0.00769415 101 33 17
0.31253 0.0933198 0.0075463 99 31 15
0.312785 0.0932845 0.00771726 101 32 17
0.312604 0.0933365 0.00728474 98 29 14
0.312935 0.0933285 0.00717156 93 24 12
0.312254 0.0933597 0.00737877 96 29 14
0.31198 0.0933789 0.00759565 103 37 20
0.312281 0.0933349 0.00785417 104 38 20
0.311751 0.0934213 0.00787943 109 44 26
0.312084 0.0933634 0.00819473 114 49 29
0.311806 0.0934266 0.00843414 118 55 34
0.312097 0.093374 0.00871933 124 62 39
0.311869 0.093496 0.00895911 133 75 49
0.312182 0.0934618 0.0092325 137 82 54
0.311677 0.0936542 0.00918292 143 87 57
0.312011 0.0936401 0.00946641 149 94 62
0.311564 0.0939273 0.00939014 164 108 71
0.311571 0.0943684 0.0096145 180 136 90
0.311912 0.0933968 0.00749117 102 37 20
0.31169 0.0934342 0.00731915 99 32 17
0.311458 0.0934782 0.00760289 106 40 22
0.311162 0.0935024 0.0073252 103 38 20
0.31094 0.0935731 0.00759233 111 48 27
0.31123 0.0935317 0.00787634 114 49 29
0.31152 0.0934735 0.00815482 117 54 32
0.311294 0.0935907 0.00839239 128 67 43
0.311569 0.0935324 0.00867311 129 68 43
0.311087 0.0937453 0.00862252 135 76 49
0.31138 0.0936908 0.00890984 142 84 54
0.310921 0.0939632 0.00884563 155 98 65
0.311244 0.0939339 0.0091262 165 106 69
0.310843 0.0943272 0.00908068 174 117 76
0.311205 0.0943498 0.00935492 180 130 84
0.311013 0.094827 0.00935462 184 149 103
0.311268 0.094854 0.00954787 181 145 102
0.310921 0.0952737 0.00943982 185 160 121
0.311244 0.0952948 0.00968479 185 158 120
0.310846 0.0957232 0.00952453 190 168 134
0.311152 0.0957309 0.00978198 192 168 134
0.310746 0.0961754 0.00963323 195 175 145
0.311055 0.0961965 0.00989004 195 176 143
0.31066 0.0966514 0.00973045 195 184 152
0.311263 0.0960559 0.0100129 201 180 146
0.311028 0.0936591 0.00812309 124 62 40
0.310823 0.0938306 0.00833544 137 77 50
0.310665 0.0940633 0.00856935 155 97 64
0.310504 0.0944241 0.0087089 171 118 78
0.310689 0.094804 0.00910956 180 141 94
0.312971 0.0932313 0.00815215 103 35 18
0.313194 0.0932363 0.00777187 96 28 13
0.313363 0.0931765 0.00815529 105 35 19
0.313672 0.0931549 0.0079731 97 29 14
0.313841 0.0930657 0.00834445 101 30 15
0.314 0.0931255 0.00783619 91 23 11
0.314169 0.0930322 0.00820736 94 25 12
0.314327 0.0931173 0.00769944 89 20 10
0.314497 0.0930078 0.0080676 92 23 12
0.314651 0.0931161 0.00756512 85 18 9
0.314824 0.0929897 0.00793655 89 20 10
0.314492 0.0932131 0.00720213 83 15 6
0.314167 0.0932118 0.00733811 87 19 10
0.313838 0.0932123 0.00746961 88 21 9
0.313531 0.0932099 0.00765413 93 25 11
0.31336 0.0932847 0.00726317 88 20 9
0.31312 0.093257 0.00760525 94 25 13
0.314003 0.0932915 0.00696787 85 17 9
0.313693 0.093279 0.00714087 87 19 9
0.313532 0.093335 0.00675584 84 16 8
0.313279 0.093317 0.00706831 88 20 9
0.31303 0.0932141 0.00827968 106 37 21
0.313504 0.093101 0.00847615 108 40 23
0.31367 0.0929804 0.0088452 112 43 27
0.314004 0.0929337 0.00871091 102 32 17
0.31384 0.0928037 0.00919442 115 48 30
0.314179 0.0927329 0.00905769 113 45 29
0.313982 0.0926097 0.00951962 120 53 35
0.314341 0.0925068 0.00936505 112 45 29
0.314127 0.0923657 0.00983411 120 57 39
0.314509 0.0922211 0.0096842 113 47 32
0.314415 0.0918721 0.0102283 118 62 46
0.314655 0.0919182 0.00995556 111 49 33
0.314744 0.0917083 0.0101048 110 51 35
0.315022 0.0918211 0.00984499 104 40 25
0.315078 0.0916856 0.0099469 104 40 25
0.315412 0.0916746 0.00982406 98 34 23
0.315262 0.0912044 0.0102118 100 40 26
0.315572 0.0912303 0.0100552 95 36 23
0.315377 0.0908405 0.0103529 96 37 25
0.315458 0.0905769 0.0104171 91 38 26
0.315758 0.091646 0.00972081 96 34 22
0.315584 0.0920201 0.00943163 96 33 20
0.31519 0.0921241 0.00945285 102 36 23
0.31539 0.0923351 0.00908476 94 31 19
0.315006 0.092422 0.00911327 99 33 18
0.315343 0.0924178 0.00898668 94 29 16
0.315158 0.0926616 0.00863823 92 27 14
0.315556 0.0925797 0.00864504 86 19 9
0.315497 0.0926542 0.00851901 86 18 8
0.315726 0.0923538 0.00897506 88 21 11
0.315899 0.0920573 0.00930406 89 23 12
0.314839 0.0921716 0.00955109 112 46 31
0.314683 0.0924383 0.00924894 110 43 28
0.314336 0.0929013 0.00856756 99 30 16
0.314662 0.0928708 0.00842436 96 29 15
0.314988 0.0928461 0.00828317 89 23 11
0.314823 0.0926766 0.00876629 97 30 16
0.314509 0.0926939 0.00891257 104 34 20
0.310714 0.0981109 0.0102473 207 200 166
0.310723 0.0975891 0.0100578 205 197 164
0.311012 0.0971443 0.0101608 205 196 161
0.310743 0.0979184 0.0101898 208 200 167
0.311043 0.0978019 0.010446 207 197 164
0.311032 0.0974697 0.0102996 206 197 163
0.311317 0.0976782 0.0107059 208 198 164
0.311324 0.0973553 0.0105528 206 195 161
0.311593 0.0972316 0.0108234 207 197 162
0.311319 0.097023 0.0104067 204 192 158
0.311596 0.0969045 0.0106694 205 193 159
0.308933 0.0943629 0.00701114 115 69 42
0.308853 0.0949613 0.00737451 150 107 69
0.308567 0.0947631 0.00708403 135 98 60
0.308512 0.0948907 0.00715325 136 98 60
0.308169 0.0947704 0.00695984 126 86 51
0.308309 0.095135 0.0073393 146 121 77
0.30796 0.0950127 0.00715655 131 105 63
0.3081 0.0953414 0.00754119 147 130 93
0.30777 0.0952092 0.00738417 141 123 85
0.30791 0.095548 0.00773903 146 137 104
0.307563 0.0954008 0.00758946 143 132 99
0.307385 0.0955786 0.00778582 139 127 91
0.307424 0.0950585 0.00721597 133 114 74
0.307304 0.0947157 0.0068286 107 86 47
0.307011 0.0945956 0.00667456 106 86 46
0.307519 0.0944608 0.00663581 94 65 36
0.30719 0.0943219 0.00647233 71 56 28
0.307742 0.0942894 0.00659398 102 64 35
0.307426 0.0940097 0.00638038 80 50 26
0.307732 0.0939308 0.00648308 71 43 20
0.307418 0.0936634 0.00628151 55 35 15
0.307701 0.0935738 0.00641096 69 40 18
0.306998 0.0937721 0.00612763 50 32 12
0.306952 0.0941439 0.00628581 63 45 22
0.30683 0.0942349 0.00628543 57 48 22
0.30763 0.0948536 0.00697428 123 99 57
0.30784 0.094595 0.00678337 117 82 46
0.308161 0.0945264 0.00681437 110 69 41
0.308134 0.094187 0.00668159 95 55 30
0.3081 0.0938397 0.00657836 86 49 25
0.30806 0.0934906 0.00650581 74 40 18
0.30851 0.0941103 0.00677323 107 62 37
0.308558 0.0944416 0.00689644 123 77 47
0.308654 0.0952152 0.00755702 156 128 84
0.308809 0.0955065 0.00797531 161 147 111
0.308622 0.0957696 0.00811596 164 154 124
0.308952 0.0958576 0.00831717 171 157 124
0.308741 0.0961947 0.00841851 175 162 134
0.309082 0.096326 0.00860375 179 168 138
0.308538 0.096595 0.00848161 169 165 138
0.30886 0.0967523 0.0086399 177 172 144
0.308335 0.0969884 0.00852791 171 169 141
0.308665 0.0971681 0.00867921 177 175 146
0.308137 0.0973852 0.00858991 172 170 140
0.308469 0.0975687 0.00872594 175 175 145
0.307937 0.0977589 0.00864905 172 169 139
0.30827 0.0979558 0.00877705 175 174 145
0.307729 0.0980985 0.00872324 171 169 139
0.308068 0.0983289 0.00883646 176 174 145
0.307528 0.098443 0.00881845 166 166 136
0.307869 0.0986822 0.00894057 171 171 142
0.307325 0.0987719 0.00893416 167 165 135
0.307653 0.0989862 0.00905901 172 171 142
0.307124 0.0990786 0.00908457 171 170 140
0.307463 0.0992689 0.00923016 174 174 145
0.306798 0.0988667 0.00896531 164 163 133
0.306458 0.0986016 0.00887295 157 156 126
0.306131 0.0983426 0.00880542 154 151 121
0.306999 0.0985334 0.00883979 162 160 130
0.306664 0.098276 0.00875063 158 156 127
0.306336 0.0980528 0.00867148 146 145 118
0.307196 0.0982079 0.00872238 165 164 133
0.306862 0.0979687 0.00863623 154 154 126
0.306528 0.0977572 0.0085354 144 146 119
0.307398 0.0978756 0.00862055 165 162 133
0.307075 0.0976718 0.00852434 155 154 126
0.306716 0.0974539 0.00840373 142 144 117
0.3076 0.0975437 0.008525 165 163 134
0.307263 0.0973343 0.00841823 156 155 126
0.306939 0.0971443 0.00830214 145 146 119
0.307803 0.0971831 0.00844581 165 163 135
0.307443 0.0969833 0.00831707 156 153 125
0.307138 0.0967843 0.00822313 148 147 118
0.307998 0.0967891 0.00838356 164 160 133
0.30767 0.0966129 0.00826107 156 152 124
0.307338 0.0964037 0.00815062 148 145 115
0.308215 0.0964015 0.00832643 171 161 131
0.307876 0.096242 0.00818734 164 154 124
0.307545 0.0960341 0.00805175 155 147 118
0.307349 0.0959035 0.00798037 146 141 110
0.308415 0.096055 0.0082395 167 156 125
0.308072 0.0959241 0.00805809 161 150 117
0.307734 0.0957579 0.00790741 150 141 107
0.30826 0.0956744 0.00790567 156 144 113
0.308454 0.0954451 0.00773637 155 137 100
0.30928 0.0959498 0.00853525 176 162 132
0.309204 0.0968595 0.00882748 184 178 150
0.309327 0.0974499 0.00903352 186 182 154
0.309118 0.0979181 0.00901024 183 182 152
0.309039 0.0983884 0.00912106 183 182 153
0.308936 0.0987788 0.00924422 182 182 153
0.308794 0.0991133 0.00938792 184 184 155
0.308643 0.0994233 0.009559 184 184 155
0.308472 0.099685 0.00975044 184 186 157
0.308988 0.0973112 0.00883919 182 179 150
0.308797 0.0977613 0.00885389 179 178 150
0.308603 0.0981671 0.00890709 179 178 148
0.30893 0.0983337 0.00906223 183 181 152
0.3084 0.0985308 0.00897418 178 176 146
0.308727 0.0986965 0.00912913 182 181 152
0.308184 0.098865 0.00906976 176 177 149
0.308535 0.0990295 0.00923408 179 179 152
0.307998 0.0991662 0.00920817 176 177 147
0.308338 0.0993248 0.00938223 180 181 151
0.307806 0.0994413 0.00938931 179 179 152
0.308144 0.0995821 0.00956048 181 181 153
0.307948 0.0998098 0.00975346 182 183 154
0.307751 0.100024 0.00996986 183 187 159
0.307612 0.0996671 0.00958082 181 182 153
0.315177 0.0880033 0.0204968 179 127 89
0.315315 0.0881113 0.0201358 181 127 90
0.315441 0.088555 0.0198786 177 121 86
0.315557 0.0886675 0.0195058 177 121 85
0.315428 0.0888973 0.0199698 177 120 85
0.315526 0.0890124 0.0195981 177 119 84
0.315386 0.0892463 0.0200612 176 119 82
0.31549 0.0893522 0.0196896 177 118 83
0.315331 0.0895894 0.0201438 171 116 82
0.315434 0.0897083 0.0197748 174 116 81
0.315265 0.0899423 0.0202274 169 117 83
0.31535 0.0900675 0.0198535 176 118 84
0.315164 0.0902965 0.020296 150 113 84
0.315245 0.0904228 0.019928 171 120 85
0.315022 0.0906536 0.0203544 153 115 85
0.315114 0.090788 0.019993 166 119 85
0.314848 0.0910399 0.0203978 157 117 84
0.31497 0.0911425 0.0200079 170 121 87
0.314785 0.0915107 0.0201301 168 123 89
0.314999 0.0912833 0.0196644 175 124 89
0.314883 0.0916344 0.0196944 175 125 91
0.31503 0.0914113 0.0192855 176 127 94
0.314913 0.0917706 0.0193561 181 129 96
0.315008 0.0915854 0.0189779 178 131 99
0.314902 0.0919193 0.0191101 184 134 99
0.314923 0.0920011 0.0187573 188 139 105
0.31485 0.0922403 0.0190927 189 140 107
0.31485 0.0923676 0.0188258 189 140 110
0.314813 0.0925485 0.0190548 190 144 108
0.314823 0.0927129 0.0187681 193 147 116
0.314773 0.0928435 0.0191631 191 148 115
0.314804 0.0930577 0.018842 192 151 122
0.314749 0.0932138 0.0193372 186 153 119
0.314812 0.093418 0.018947 188 154 121
0.314705 0.0930747 0.0197263 181 149 116
0.314731 0.0928005 0.01956 186 146 111
0.314682 0.0927505 0.0199325 177 138 104
0.314728 0.0923809 0.019829 175 132 101
0.314664 0.0922119 0.0202213 170 125 96
0.314654 0.0918994 0.0202843 164 120 87
0.314565 0.091734 0.0205039 166 123 90
0.314614 0.0913875 0.0205765 159 117 86
0.314675 0.090944 0.0207744 153 115 84
0.31486 0.0905848 0.0207126 141 108 84
0.315009 0.0902054 0.0206627 149 109 84
0.314957 0.0897402 0.0209363 155 107 79
0.315046 0.0893817 0.0208595 165 112 83
0.315111 0.0890364 0.0207761 177 119 83
0.315143 0.0886863 0.0206902 180 122 86
0.315165 0.0883448 0.0205943 179 124 87
0.315119 0.0898383 0.020586 156 113 82
0.315207 0.0894826 0.0205034 164 113 82
0.315252 0.0891325 0.0204182 177 119 83
0.315297 0.0887896 0.0203294 176 121 84
0.315309 0.0884488 0.0202367 178 123 86
0.314778 0.0924993 0.0193837 185 142 106
0.314823 0.0921483 0.0194279 183 135 100
0.314816 0.0919899 0.0196625 179 131 99
0.314758 0.0919384 0.0199712 169 124 91
0.315632 0.0887849 0.019124 178 123 87
0.315661 0.0889133 0.0187364 176 123 88
0.315665 0.0890426 0.0183454 170 126 93
0.315708 0.0891763 0.0179534 175 134 103
0.315712 0.0896424 0.0176625 173 131 100
0.31575 0.0901037 0.0173726 172 136 109
0.315794 0.090567 0.0170876 172 139 115
0.315899 0.0906821 0.0167157 177 158 131
0.31588 0.090813 0.0163127 177 159 131
0.315601 0.0891246 0.0192242 176 119 84
0.315564 0.0894723 0.0193137 173 117 83
0.315492 0.0898261 0.019394 174 117 81
0.315396 0.090197 0.0194595 176 117 83
0.315291 0.0905573 0.0195315 174 120 84
0.31516 0.0909125 0.0196023 174 120 86
0.315624 0.0892594 0.0188246 173 120 85
0.315575 0.0896025 0.0189075 171 118 85
0.315509 0.0899627 0.0189908 173 118 85
0.315414 0.090319 0.0190796 175 120 87
0.315295 0.0906846 0.0191516 172 119 87
0.315169 0.091043 0.019211 175 122 90
0.305538 0.0940362 0.00357056 0 11 1
0.305422 0.0941684 0.00320229 0 12 1
0.305602 0.0943605 0.00368229 0 14 3
0.305495 0.0945391 0.00322851 0 14 2
0.305644 0.0947075 0.00378244 0 14 3
0.305506 0.0948545 0.00336303 0 14 1
0.305687 0.0950428 0.00387716 3 17 4
0.305533 0.0951808 0.00348301 0 16 3
0.30556 0.0954935 0.00366086 0 15 1
0.305849 0.0942506 0.00394637 3 16 4
0.305885 0.0945878 0.00406261 3 17 3
0.305914 0.0949129 0.00416557 7 18 5
0.3059 0.095231 0.00428926 6 19 4
0.305862 0.0955355 0.00446346 4 17 3
0.30585 0.0958634 0.00465179 5 17 3
0.305881 0.0961395 0.00491017 9 20 3
0.305757 0.0959378 0.00443152 3 19 2
0.305697 0.0956871 0.0040949 2 16 2
0.305726 0.0953698 0.00396696 2 16 2
0.290465 0.0977578 -0.00116951 0 14 1
0.291167 0.0977382 -0.0014412 0 17 2
0.290846 0.0979154 -0.00114715 0 15 2
0.291199 0.0980127 -0.00120002 0 16 2
0.290955 0.098238 -0.000870495 0 13 0
0.291308 0.0982681 -0.000970227 0 14 1
0.290639 0.0982044 -0.000764221 0 12 0
0.290573 0.0980458 -0.000923506 1 14 2
0.293263 0.0992755 -0.000445785 0 13 1
0.293605 0.0992219 -0.000542276 0 14 1
0.293975 0.0990995 -0.000622566 0 15 2
0.294392 0.0989438 -0.000657202 0 16 4
0.294784 0.098769 -0.000683519 0 16 4
0.295161 0.0986554 -0.00074169 0 17 4
0.295527 0.0985525 -0.000805584 0 16 4
0.295893 0.0984601 -0.000869931 0 16 4
0.296255 0.0983557 -0.000938261 0 16 3
0.296631 0.0982559 -0.00100429 0 16 3
0.296976 0.0981863 -0.00110228 0 17 4
0.297333 0.0981327 -0.00120879 0 18 4
0.297667 0.0980945 -0.00133156 0 18 5
0.297997 0.0980669 -0.00145691 0 19 6
0.298337 0.0980343 -0.00157271 0 19 5
0.298802 0.0981163 -0.00131245 0 20 6
0.299274 0.0982149 -0.00106034 1 21 7
0.299723 0.0983326 -0.000830049 1 21 6
0.300131 0.0983958 -0.00074507 1 21 7
0.293382 0.099305 -0.000104077 0 15 2
0.293783 0.0991748 -0.0001385 0 15 3
0.294205 0.0989927 -0.000166923 0 16 4
0.294591 0.0988464 -0.000217845 0 16 4
0.294972 0.0987132 -0.000264209 0 16 4
0.295348 0.0986032 -0.000307507 0 17 4
0.295709 0.0985335 -0.000371182 0 17 5
0.296069 0.0984475 -0.000440568 0 16 4
0.296429 0.0983721 -0.000529779 0 16 3
0.296776 0.0982888 -0.000621 0 17 3
0.297137 0.0982322 -0.000718116 0 18 4
0.297469 0.0981823 -0.000839286 0 18 4
0.297801 0.098153 -0.00096291 0 19 4
0.297944 0.0982777 -0.000576568 0 19 5
0.298274 0.0982669 -0.000705814 1 20 6
0.298396 0.0984239 -0.000333598 1 20 6
0.298724 0.0984091 -0.000457774 1 20 6
0.298843 0.0985622 -0.000112981 1 20 6
0.299176 0.0985604 -0.000222218 1 20 7
0.299278 0.0986782 0.000100035 1 21 7
0.299557 0.0986022 -0.000185928 1 21 6
0.299476 0.0986621 8.71439e-06 1 21 6
0.299799 0.0987603 0.000172027 2 21 6
0.299569 0.0988058 0.000480307 1 20 7
0.299916 0.0988954 0.000696377 1 21 6
0.299663 0.0989251 0.000979621 1 20 6
0.299986 0.0989766 0.00120028 1 21 7
0.299739 0.099056 0.00147026 1 20 6
0.299883 0.0990932 0.0015621 1 20 6
0.299555 0.099126 0.00178834 0 18 5
0.299875 0.0992277 0.00200688 0 20 5
0.29963 0.099259 0.00227923 0 18 5
0.299952 0.099374 0.00247857 0 19 5
0.299626 0.0993728 0.00271327 0 17 4
0.299958 0.099499 0.00290797 1 18 6
0.299445 0.099481 0.00301236 0 18 5
0.299772 0.099596 0.00321666 1 18 5
0.299256 0.099588 0.00331636 1 17 5
0.299598 0.0997068 0.00353625 2 18 6
0.29907 0.099708 0.00360903 2 17 5
0.299378 0.0998302 0.00384904 2 18 6
0.298883 0.0998338 0.00390787 1 16 4
0.299181 0.0999858 0.00416026 2 17 6
0.29876 0.100011 0.00421502 3 16 4
0.299014 0.100098 0.00437414 3 18 5
0.298836 0.100209 0.00456729 3 15 4
0.299257 0.100188 0.00455899 2 16 5
0.29903 0.100366 0.00491393 1 11 3
0.299341 0.100309 0.00483429 1 15 3
0.299407 0.1004 0.00510607 0 13 3
0.299653 0.100245 0.00482045 2 14 3
0.299743 0.100394 0.00533623 1 14 3
0.300025 0.100249 0.00510274 1 14 3
0.300102 0.100341 0.00559235 0 12 1
0.300374 0.100214 0.00538272 3 14 3
0.30043 0.100261 0.00589388 2 11 2
0.300698 0.100146 0.00565706 3 14 3
0.300767 0.100139 0.00618153 1 10 1
0.301019 0.100048 0.00589552 1 8 1
0.30119 0.09988 0.00623535 0 6 0
0.301479 0.0998563 0.00596693 0 7 0
0.301631 0.0996162 0.00629393 0 5 0
0.301953 0.0996238 0.00605314 0 5 0
0.302056 0.0993372 0.00636817 0 5 0
0.301795 0.0998245 0.00572815 0 7 0
0.301532 0.099976 0.00544033 0 9 1
0.301245 0.100023 0.00563114 0 9 1
0.301234 0.100057 0.00514635 1 12 3
0.300956 0.100099 0.00539777 1 14 3
0.300927 0.100094 0.0048861 0 15 4
0.300647 0.100135 0.0051461 1 16 3
0.300632 0.100104 0.00463449 1 16 5
0.30033 0.100158 0.00488772 2 16 4
0.300341 0.100094 0.00440714 2 17 5
0.299991 0.100148 0.00461045 1 16 4
0.300032 0.100028 0.00417958 2 17 4
0.299599 0.100062 0.00430419 1 17 5
0.299729 0.0999201 0.00394698 2 18 5
0.301839 0.0999534 0.00519544 0 10 1
0.301533 0.100022 0.00490989 1 13 3
0.301223 0.100063 0.00462904 1 16 4
0.300905 0.100073 0.00436854 2 17 5
0.300618 0.100051 0.00413394 2 18 5
0.300302 0.0999606 0.00393822 2 18 5
0.299985 0.0998563 0.00374726 1 18 5
0.301843 0.099999 0.00465416 0 14 3
0.30152 0.100038 0.00437256 0 15 4
0.301197 0.100054 0.00410607 1 17 5
0.300874 0.10002 0.00385363 1 17 5
0.300538 0.0999262 0.00364392 1 18 6
0.300223 0.099806 0.00349581 1 18 6
0.300072 0.0997154 0.00338057 1 18 5
0.301828 0.100014 0.0041162 1 15 4
0.301491 0.100015 0.00383433 1 17 5
0.301135 0.09998 0.00357057 1 18 5
0.300789 0.0998835 0.00334757 1 19 7
0.300421 0.0997234 0.00316947 2 19 6
0.301796 0.0999827 0.0035716 0 17 5
0.301421 0.09994 0.00329779 0 17 6
0.301036 0.099823 0.00305807 1 19 6
0.300665 0.0996642 0.0028725 1 19 6
0.300301 0.0995184 0.0026968 0 18 6
0.300086 0.0995522 0.00299656 1 18 6
0.300219 0.0993366 0.0022078 0 20 6
0.300127 0.0991359 0.0017575 1 19 6
0.300339 0.099089 0.00145391 1 20 6
0.300213 0.0990205 0.000987423 1 20 6
0.300288 0.0989938 0.00067536 1 20 6
0.300098 0.0988851 0.000375385 1 21 6
0.300386 0.0989162 0.000287916 1 21 7
0.300067 0.0987748 5.27995e-05 1 21 6
0.300327 0.0987616 -7.24029e-05 1 22 6
0.299902 0.0986022 -0.000274132 1 21 6
0.300221 0.0985885 -0.00041681 1 22 7
0.299798 0.0984306 -0.000633443 0 20 7
0.300608 0.0990412 0.000613415 1 20 6
0.300817 0.0991825 0.000928132 0 19 5
0.300492 0.0990862 0.00106319 0 20 5
0.300885 0.0992589 0.00130111 0 19 5
0.300637 0.0991724 0.00146316 0 20 6
0.300685 0.0992213 0.00171939 0 18 4
0.301006 0.0993572 0.00168168 0 19 6
0.300984 0.0993925 0.00193344 0 18 6
0.301174 0.0994948 0.0020088 0 19 5
0.301186 0.0995799 0.00232371 0 18 6
0.30145 0.0996005 0.00211671 0 19 6
0.301586 0.0996712 0.00228436 0 18 5
0.301937 0.0997373 0.00234216 0 19 6
0.301398 0.0995251 0.00184007 0 18 5
0.2995 0.0985291 -0.000360954 1 21 6
0.299061 0.0983901 -0.000580049 0 20 7
0.298607 0.0982563 -0.000836851 1 21 6
0.298131 0.0981503 -0.00109451 0 19 5
0.299387 0.0983668 -0.000702807 1 20 6
0.298944 0.0982477 -0.000951232 1 20 6
0.298467 0.0981426 -0.00121139 0 20 6
0.301722 0.099893 0.00304654 1 17 5
0.301301 0.0997782 0.00279281 1 19 6
0.30091 0.0996032 0.00258937 1 19 7
0.300552 0.0994575 0.00240617 1 20 6
0.301634 0.0997532 0.00258931 0 18 5
0.300793 0.0994006 0.00213772 1 19 6
0.300452 0.0992562 0.00193081 0 20 6
0.293672 0.0991012 0.000452174 0 16 3
0.293998 0.0989996 0.000272747 0 16 3
0.294362 0.0988755 0.000183224 0 16 4
0.294794 0.098781 0.000272268 0 17 4
0.295063 0.0986961 -2.98396e-05 0 17 4
0.295204 0.0987242 0.000326848 0 18 4
0.295411 0.0986016 -0.000162461 0 17 4
0.295554 0.0986483 0.000238099 0 17 4
0.295866 0.0985786 4.57414e-05 0 17 4
0.296025 0.0987113 0.000486641 0 19 5
0.296351 0.0986435 0.000330646 0 18 5
0.296463 0.0988086 0.000670488 0 19 4
0.296702 0.0986102 0.000241743 0 19 5
0.296812 0.0987641 0.000573954 0 18 5
0.29716 0.0987243 0.00048021 0 19 5
0.296932 0.0989013 0.000930266 0 18 6
0.297281 0.0988693 0.000838563 1 19 5
0.297076 0.0990048 0.00131357 0 18 6
0.297406 0.0989766 0.00118668 1 19 6
0.297538 0.0990629 0.00156282 1 18 5
0.297749 0.0989437 0.00109804 1 18 5
0.297744 0.0990366 0.00142976 1 18 5
0.297971 0.0989607 0.00114343 1 20 5
0.298138 0.0989904 0.00125683 1 20 5
0.298324 0.0988914 0.000943895 1 19 4
0.298322 0.0990221 0.00137274 1 19 5
0.298554 0.098946 0.00109185 1 19 5
0.29865 0.0990795 0.00159994 1 19 5
0.298876 0.0989954 0.00132036 1 19 5
0.298986 0.0991197 0.0018271 0 18 4
0.299206 0.0990607 0.00153304 1 19 5
0.299347 0.0990854 0.00164189 0 19 5
0.299435 0.0989919 0.00125369 1 19 6
0.299305 0.0991754 0.00206244 0 19 5
0.299302 0.0992764 0.00250466 1 17 4
0.299113 0.099365 0.00280692 0 17 4
0.298923 0.0994722 0.00310365 1 16 3
0.298735 0.0995818 0.00340049 1 16 3
0.298562 0.0997206 0.00369793 1 16 3
0.298405 0.0998967 0.00402164 2 16 4
0.298443 0.10015 0.00443352 3 15 3
0.298586 0.10036 0.0048426 0 10 2
0.298781 0.100499 0.00518948 1 12 3
0.299125 0.100519 0.00531842 1 12 3
0.29889 0.100608 0.00555651 1 12 3
0.299235 0.100645 0.00573625 0 12 2
0.298916 0.100699 0.00588228 1 12 3
0.299123 0.100758 0.00616353 0 11 2
0.298684 0.100767 0.00613331 0 13 3
0.298871 0.100821 0.00644732 0 13 3
0.298538 0.100826 0.00650884 0 14 3
0.29883 0.100839 0.0068416 0 13 3
0.298443 0.100811 0.00682208 0 14 3
0.299214 0.10084 0.00693958 0 12 2
0.299158 0.100838 0.0065885 0 12 2
0.299533 0.100812 0.00672952 0 11 2
0.299403 0.100793 0.00637964 0 11 2
0.299666 0.10076 0.00638722 0 9 1
0.299536 0.100692 0.00603693 0 9 1
0.299896 0.100642 0.00619903 0 7 1
0.299849 0.10052 0.0058054 1 10 1
0.300173 0.100439 0.00604897 0 10 1
0.29958 0.100563 0.00567065 1 11 1
0.299424 0.100517 0.00543301 0 12 2
0.299069 0.099236 0.00234157 0 17 4
0.297617 0.098812 0.000727324 1 19 4
0.297488 0.0986822 0.00036722 1 19 6
0.297041 0.0985669 0.000127748 0 19 5
0.297382 0.0985119 4.46104e-06 0 19 6
0.29692 0.098401 -0.000243153 0 19 5
0.297259 0.0983513 -0.000345493 0 19 4
0.297603 0.0982984 -0.000474222 0 19 5
0.296583 0.098459 -0.000126138 0 18 5
0.296219 0.0985133 -4.56981e-05 0 18 5
0.282397 0.090367 0.0314553 61 10 8
0.282846 0.0906162 0.0316195 61 10 8
0.283305 0.0907883 0.0318513 61 9 7
0.283715 0.090891 0.0319172 65 9 6
0.269834 0.0887571 0.0452501 0 12 1
0.269643 0.088984 0.0454905 0 10 0
0.269721 0.0892822 0.0456093 0 9 1
0.269448 0.0892063 0.0457501 0 7 1
0.296033 0.0922121 0.0167424 37 24 12
0.295991 0.092124 0.0171596 35 21 9
0.29658 0.0925756 0.0170798 17 34 27
0.296266 0.0923123 0.0173439 26 23 15
0.296595 0.092544 0.0172252 17 31 25
0.296418 0.0923192 0.0177146 21 25 19
0.296749 0.0925037 0.017591 14 42 38
0.29706 0.0926498 0.0174622 18 53 50
0.297313 0.0927922 0.0174109 21 54 51
0.29722 0.092897 0.0169459 20 50 45
0.29651 0.0926758 0.0166218 23 29 20
0.297217 0.0930292 0.0165443 23 52 48
0.297618 0.0931216 0.017175 37 75 77
0.29757 0.0932518 0.0167408 44 82 82
0.297535 0.093379 0.0163144 42 75 75
0.297543 0.0935339 0.0159075 42 75 75
0.29772 0.0934974 0.0168685 69 105 99
0.297689 0.0936161 0.0164717 48 83 83
0.297693 0.0937715 0.0161123 51 89 89
0.297694 0.0938771 0.0158002 56 95 93
0.297673 0.0938634 0.0156515 51 90 89
0.297793 0.0942381 0.0156658 65 103 98
0.297739 0.0940157 0.0153136 42 81 81
0.297852 0.0943357 0.0153254 54 94 92
0.297823 0.0941266 0.0149387 46 91 95
0.29794 0.0944702 0.0149734 67 106 103
0.297883 0.0942659 0.0145552 46 92 98
0.297993 0.0946279 0.0145048 65 103 104
0.297865 0.0944346 0.0140836 49 86 81
0.297999 0.0948176 0.0140466 53 87 81
0.297712 0.0945985 0.01365 31 67 56
0.297983 0.0949497 0.0137197 50 73 62
0.297793 0.0949226 0.0133773 45 69 57
0.298062 0.0951849 0.0135233 58 76 63
0.297861 0.0952533 0.0131276 48 68 55
0.298235 0.095518 0.013417 74 91 77
0.298121 0.0954787 0.0129915 47 66 56
0.29841 0.0957371 0.0130179 52 71 59
0.298313 0.095672 0.0127218 43 64 53
0.29856 0.0959098 0.0125989 42 61 49
0.298253 0.0958248 0.0123565 27 48 35
0.29851 0.095946 0.0123068 35 56 45
0.298414 0.0961067 0.012068 26 47 35
0.298747 0.0961378 0.0122604 38 57 45
0.298693 0.0963374 0.0119436 28 46 34
0.299028 0.0965432 0.0122148 56 70 55
0.298951 0.0965184 0.011779 28 44 32
0.299217 0.0967674 0.0118075 39 54 40
0.298818 0.0962826 0.0126104 62 78 63
0.29898 0.0967065 0.012758 78 88 70
0.299145 0.0968446 0.0124128 68 78 58
0.299212 0.0971634 0.0126073 84 92 72
0.299348 0.0970492 0.0121491 64 74 56
0.299444 0.097565 0.0123926 83 89 68
0.299637 0.0975076 0.0119977 67 75 52
0.299732 0.0979733 0.0122643 73 81 62
0.299468 0.0971336 0.0118288 59 71 55
0.297419 0.0947826 0.0132608 26 52 41
0.296989 0.0950558 0.0129508 8 31 20
0.297481 0.0950468 0.0130837 32 53 41
0.297385 0.09534 0.0128342 21 44 32
0.297769 0.0954728 0.0127077 23 45 33
0.298076 0.0955915 0.0126249 33 55 45
0.297776 0.0939391 0.0165548 87 117 106
0.297834 0.0943745 0.0163191 84 117 104
0.297784 0.094091 0.0161823 77 113 103
0.297835 0.094421 0.0160837 78 113 102
0.29777 0.0941173 0.0159382 64 104 100
0.297823 0.0944364 0.0159742 83 113 102
0.297864 0.0945525 0.0158743 96 120 106
0.297902 0.0946407 0.0154595 95 119 107
0.298494 0.0959555 0.0132879 80 94 79
0.298747 0.0963353 0.0130517 80 93 75
0.299813 0.0983069 0.0125481 72 83 67
0.299892 0.0986312 0.012837 80 91 75
0.298633 0.0960314 0.0129052 62 80 65
0.296079 0.0920061 0.0178264 26 20 9
0.279843 0.0888931 0.039 130 100 72
0.27999 0.0891754 0.0394372 144 112 77
0.280167 0.0890033 0.0392124 139 98 67
0.280507 0.089106 0.0394432 144 96 63
0.280701 0.0890407 0.0392035 139 88 57
0.280842 0.0891521 0.0397076 144 98 64
0.280962 0.0891255 0.0396447 143 96 63
0.292231 0.0949311 0.00886906 0 17 4
0.292287 0.0952565 0.00896172 0 17 5
0.292041 0.0953706 0.00869777 0 17 3
0.292287 0.0956083 0.00902519 0 16 4
0.292081 0.0957001 0.00881284 0 16 3
0.292321 0.0959296 0.00912416 0 17 4
0.292104 0.0960298 0.00893003 0 15 2
0.292155 0.0963506 0.00901569 0 16 2
0.292035 0.0961436 0.00860212 0 16 3
0.292097 0.0964847 0.00869941 0 15 2
0.291985 0.0965978 0.00834121 0 16 3
0.292093 0.0969354 0.00843938 0 15 2
0.29189 0.0962739 0.00824272 0 16 3
0.291931 0.0958225 0.00848197 0 17 3
0.315043 0.0910052 0.010461 100 43 28
0.315276 0.0910125 0.0103308 99 42 28
0.314961 0.0911747 0.0103924 101 43 28
0.314657 0.0914661 0.010419 110 54 37
0.271882 0.0874373 0.0499246 0 17 5
0.272075 0.0876724 0.0502194 0 16 4
0.291189 0.095841 0.00649624 0 23 8
0.291131 0.0963104 0.00625807 0 22 8
0.291282 0.0966504 0.00632915 0 22 7
0.291052 0.0967841 0.00600483 0 22 8
0.291222 0.0971064 0.00607959 0 22 7
0.291033 0.0972425 0.0057453 0 22 8
0.29121 0.0975717 0.00582907 0 21 7
0.29103 0.0977121 0.005469 0 20 7
0.291222 0.0980522 0.00558554 1 22 8
0.291038 0.0981846 0.00518257 1 21 8
0.291291 0.0985249 0.00533592 0 24 10
0.291154 0.0986539 0.00496115 0 25 10
0.291509 0.0989096 0.0051902 0 24 10
0.291336 0.0989581 0.00476125 0 24 10
0.291732 0.099163 0.00498691 0 24 9
0.291574 0.0992053 0.00461202 0 25 9
0.292005 0.0994457 0.00478902 0 22 8
0.291804 0.0994193 0.00439888 0 22 8
0.292155 0.0995242 0.0043462 0 18 7
0.291988 0.0994761 0.0039861 0 19 7
0.29232 0.0995058 0.00388487 0 19 6
0.292144 0.0994623 0.00357208 0 19 6
0.292454 0.0994258 0.00341739 0 19 7
0.292019 0.0993813 0.00319164 0 17 6
0.292374 0.0993284 0.00302418 0 17 6
0.291655 0.0993906 0.0032558 0 17 6
0.291804 0.0994283 0.00360332 0 18 6
0.291447 0.0993597 0.00345603 0 17 7
0.291462 0.099351 0.00373589 0 19 8
0.291273 0.0991967 0.00397485 0 21 8
0.291147 0.0989676 0.0043513 0 23 9
0.291036 0.0987807 0.00452754 0 24 9
0.290787 0.0984607 0.00453521 0 23 8
0.290851 0.0983837 0.00472767 0 22 8
0.29142 0.0984078 0.00563577 1 23 9
0.291457 0.0992354 0.00428534 0 21 9
0.291649 0.0993881 0.004031 0 20 8
0.275854 0.0865605 0.0507607 0 9 1
0.275895 0.0868011 0.0505785 0 5 0
0.275612 0.0867245 0.0507041 0 4 1
0.275558 0.0865947 0.0508278 0 13 6
0.271518 0.0875772 0.0498085 0 18 5
0.271757 0.0876667 0.0500517 0 16 5
0.272083 0.0880052 0.0503531 1 15 6
0.301258 0.0899377 0.0228574 122 133 121
0.301676 0.0901971 0.0230376 133 140 126
0.301952 0.0905077 0.0231273 147 147 128
0.302199 0.0908224 0.0232002 145 146 126
0.302412 0.0911395 0.0232959 152 148 122
0.302641 0.0910829 0.0234126 148 144 117
0.302705 0.0914344 0.0234269 145 141 119
0.303055 0.0913403 0.0235839 147 141 112
0.303083 0.0916734 0.0236256 149 140 107
0.30347 0.0916181 0.0237634 155 134 100
0.280297 0.0870955 0.0464796 118 113 87
0.280176 0.0874427 0.0463142 120 118 92
0.277975 0.0879921 0.046809 18 37 18
0.277664 0.0880735 0.0470276 11 32 14
0.277351 0.0881658 0.0472417 2 24 8
0.277242 0.0882934 0.0470087 4 25 9
0.277047 0.0882813 0.0474768 0 20 5
0.276908 0.0884261 0.0472022 0 22 6
0.276731 0.0884081 0.0477132 0 16 1
0.276667 0.0885311 0.0473201 0 18 3
0.276519 0.0885482 0.0477404 0 14 0
0.276332 0.0887161 0.0474309 0 15 2
0.275964 0.0888173 0.0478538 0 13 0
0.27603 0.0888325 0.0476105 0 13 0
0.275726 0.0889227 0.0478189 0 12 0
0.275814 0.0889788 0.0473088 0 14 1
0.275532 0.0890965 0.0475152 0 12 0
0.275719 0.0890362 0.0471821 0 15 1
0.275269 0.0892406 0.0471754 0 13 0
0.275464 0.0891473 0.0468754 0 16 2
0.274996 0.0893479 0.0468421 0 14 1
0.275222 0.0892256 0.0465735 0 18 3
0.274933 0.0892843 0.0463312 0 17 4
0.275986 0.0889372 0.0469504 0 16 2
0.276211 0.088817 0.0472465 0 16 2
0.276458 0.0887069 0.0469979 0 19 3
0.276918 0.0884529 0.0470629 0 22 6
0.292729 0.0950657 0.00936498 0 16 4
0.292784 0.095406 0.00945762 0 15 4
0.292846 0.095737 0.00958132 0 14 4
0.292888 0.0960649 0.00969304 0 15 3
0.293251 0.0959258 0.0100517 0 14 3
0.292978 0.0963821 0.00981256 0 15 3
0.293299 0.0962287 0.0101395 0 13 2
0.293305 0.096528 0.0102318 0 14 2
0.293416 0.096132 0.0104487 0 13 3
0.293453 0.0964682 0.0105484 0 14 3
0.293515 0.0967531 0.0107153 0 14 3
0.29368 0.0966656 0.0109761 0 15 4
0.293699 0.0969896 0.0110576 0 16 4
0.292464 0.0962323 0.00928922 0 18 4
0.292229 0.0966976 0.00914662 0 15 2
0.292174 0.0967821 0.00884627 0 15 2
0.292205 0.0971176 0.00894776 0 14 1
0.292115 0.0972839 0.00856543 0 14 1
0.292061 0.0973889 0.00818667 0 16 2
0.292137 0.0977123 0.00833819 0 15 1
0.292144 0.0978121 0.00795773 0 15 1
0.292343 0.0981167 0.0080697 0 15 4
0.29254 0.0965452 0.0094643 0 16 3
0.292506 0.0969038 0.00953118 0 15 2
0.292196 0.0970192 0.00926933 0 14 1
0.292269 0.0973297 0.0093688 0 14 1
0.292227 0.0974762 0.00899589 0 13 0
0.292174 0.0976147 0.00865583 0 16 2
0.292294 0.0980145 0.0084689 0 16 3
0.292583 0.0983978 0.00828481 0 19 7
0.292648 0.098504 0.00794742 0 18 7
0.292881 0.0987337 0.00816691 1 20 8
0.292988 0.0988729 0.00792839 0 20 8
0.293158 0.0990016 0.00829893 3 21 9
0.293354 0.0991877 0.00798685 2 20 10
0.2935 0.099257 0.00837111 2 20 9
0.293746 0.0994127 0.00816704 1 21 10
0.293889 0.0994603 0.00854378 1 20 9
0.294184 0.0996116 0.00834205 1 22 9
0.29428 0.0996432 0.00877231 2 21 8
0.294585 0.0997607 0.00863691 2 21 8
0.294668 0.0997907 0.0090416 2 21 7
0.295008 0.0999134 0.0088614 1 20 7
0.29493 0.0998833 0.00940101 2 19 6
0.295227 0.0999962 0.00920895 2 18 5
0.295347 0.0999836 0.00956618 2 17 5
0.295551 0.100053 0.00918128 2 18 5
0.295693 0.10003 0.00953042 0 16 3
0.295991 0.100013 0.00932366 0 14 2
0.296136 0.0999325 0.00967289 1 13 2
0.296427 0.0999053 0.0094164 0 12 1
0.296606 0.0997645 0.00983809 0 8 0
0.296792 0.0998508 0.00934004 0 10 1
0.296941 0.0997265 0.0096857 0 8 0
0.297258 0.0997242 0.00951696 0 7 0
0.297098 0.0995501 0.00999502 0 6 0
0.297421 0.0994922 0.00984219 0 4 0
0.297254 0.0992897 0.010285 0 2 0
0.297579 0.099204 0.0101339 0 1 0
0.297403 0.0989242 0.0105186 0 0 0
0.297719 0.0988152 0.0103851 0 0 0
0.297536 0.0984475 0.0107973 0 2 0
0.297945 0.0983676 0.0106164 0 3 0
0.29778 0.0979139 0.0110181 0 6 2
0.298139 0.0979504 0.0108352 0 7 2
0.298127 0.0976283 0.0110621 0 7 4
0.298518 0.0976434 0.0108849 1 11 5
0.297364 0.0980036 0.011198 0 4 0
0.297071 0.0978847 0.0114575 0 4 0
0.296789 0.0980123 0.0115906 0 1 0
0.296492 0.0981308 0.0117513 0 2 0
0.296165 0.098214 0.0119137 0 2 0
0.295855 0.0981008 0.012068 0 5 1
0.295522 0.0980627 0.0120831 0 8 3
0.29721 0.0984874 0.0110273 0 1 0
0.297004 0.0983239 0.0112914 0 2 0
0.296904 0.0988431 0.0111087 0 2 0
0.296686 0.0985184 0.0114429 0 1 0
0.296566 0.0990657 0.0113357 0 3 0
0.296374 0.0986302 0.0116261 0 2 0
0.296257 0.0991306 0.0115248 0 5 0
0.296068 0.0986965 0.0117725 0 4 0
0.295936 0.0991215 0.0116559 0 4 0
0.295636 0.0989206 0.0117318 0 6 0
0.295484 0.0992532 0.0114709 0 7 0
0.295149 0.0990501 0.0115408 0 8 1
0.295021 0.0992911 0.0112747 0 12 3
0.294674 0.0990228 0.01127 0 15 5
0.294584 0.0991872 0.0110404 0 17 6
0.294266 0.0988706 0.0110268 0 16 6
0.29446 0.0992768 0.0107823 0 18 7
0.294064 0.0990651 0.0105385 0 23 8
0.294319 0.0993956 0.0104169 0 19 8
0.29393 0.0992092 0.0102155 0 21 7
0.294118 0.0994556 0.0100286 0 22 10
0.293743 0.0992575 0.00990301 0 21 10
0.293945 0.0994609 0.00966823 1 21 9
0.293591 0.0992415 0.00956606 0 20 8
0.293775 0.0993923 0.00937533 2 20 9
0.293468 0.099168 0.00923113 1 21 8
0.293716 0.0993473 0.00907126 3 20 8
0.293373 0.0991231 0.00890188 2 19 8
0.293623 0.099306 0.00872356 3 20 10
0.293276 0.099072 0.00860856 2 19 8
0.293996 0.0995025 0.00892752 2 21 9
0.294353 0.0996687 0.00917229 2 22 7
0.294582 0.0997427 0.00951954 1 19 7
0.294764 0.0998103 0.00989662 2 19 6
0.295081 0.0999208 0.00977573 2 18 5
0.295173 0.0999253 0.0101057 1 16 2
0.295494 0.0999948 0.00997937 2 14 2
0.295339 0.0998744 0.0104374 0 13 1
0.29566 0.099931 0.0103242 1 13 1
0.295494 0.0997844 0.0108042 0 11 0
0.295813 0.0998109 0.0106838 0 10 1
0.295653 0.099608 0.0111273 0 7 0
0.295978 0.0996332 0.0110079 0 7 0
0.295789 0.0993937 0.0113828 0 5 0
0.296117 0.0994501 0.0112898 0 5 0
0.295353 0.0994829 0.0112333 0 7 0
0.294892 0.0994707 0.0109806 0 14 4
0.295181 0.0996866 0.0109256 0 11 1
0.294742 0.0995727 0.0106831 1 15 4
0.295028 0.0997715 0.010576 1 14 2
0.294621 0.0996488 0.0103476 1 18 5
0.294429 0.0996408 0.0099974 1 19 7
0.294265 0.0996133 0.0096289 2 21 10
0.294054 0.0995316 0.00929165 2 20 8
0.294914 0.0998055 0.010253 2 18 4
0.295827 0.0999923 0.00986849 2 14 2
0.296265 0.0998671 0.00996712 1 11 1
0.296439 0.0997375 0.0103178 0 8 0
0.296774 0.0996283 0.0101741 0 6 0
0.296588 0.0995712 0.0106642 0 4 0
0.296925 0.0994178 0.0104762 0 4 0
0.296756 0.0992854 0.0109369 0 3 0
0.297068 0.0990909 0.0107064 0 3 0
0.297209 0.0987584 0.010843 0 1 0
0.296441 0.0994561 0.0111485 0 4 0
0.296277 0.0996537 0.0108512 0 6 0
0.296133 0.0998038 0.0105151 0 9 0
0.295975 0.0999284 0.010185 1 12 1
0.29574 0.0984646 0.0118717 0 5 0
0.29529 0.0986958 0.0117323 0 7 1
0.2954 0.0983555 0.0119063 0 4 0
0.294936 0.0985076 0.0117381 0 12 3
0.295081 0.0982142 0.0119189 0 7 1
0.29475 0.0985648 0.0116359 0 13 3
0.29481 0.0987809 0.0115506 0 13 3
0.294465 0.098709 0.0113609 0 15 5
0.294311 0.098347 0.0113984 0 14 5
0.294136 0.0984331 0.0111607 0 14 5
0.293615 0.0994029 0.00773496 0 23 9
0.293962 0.0995535 0.00798968 1 24 11
0.294329 0.0997105 0.00794419 0 22 10
0.294528 0.0997515 0.00829567 1 23 9
0.294781 0.0998447 0.00812566 0 22 9
0.294849 0.0998566 0.00848213 1 21 8
0.295211 0.0999681 0.00842034 1 20 7
0.295408 0.100028 0.00882554 2 19 6
0.292944 0.0967508 0.00988405 0 16 3
0.292625 0.0971961 0.00971051 0 14 3
0.292441 0.0976476 0.00949793 0 13 1
0.292317 0.0977839 0.00915076 0 12 1
0.292515 0.098081 0.00930756 0 13 3
0.292465 0.0981919 0.00899053 0 16 4
0.292708 0.0984268 0.00921629 1 17 6
0.292718 0.0985415 0.008837 0 18 6
0.292893 0.0986876 0.00906395 1 19 7
0.293038 0.0988437 0.00879021 3 20 9
0.293151 0.0989238 0.00913728 2 20 8
0.293043 0.0988665 0.00849937 1 18 7
0.29285 0.0986732 0.00847323 1 18 7
0.292524 0.0983053 0.00862239 0 19 7
0.29229 0.0979155 0.00879304 0 15 2
0.293321 0.096866 0.0103689 0 14 2
0.292994 0.0971182 0.0100595 0 15 2
0.293319 0.0972296 0.0104676 0 15 3
0.29305 0.0974905 0.0101773 0 13 3
0.293338 0.0976162 0.0105581 0 13 3
0.293097 0.0978011 0.0102051 0 12 2
0.293257 0.0980341 0.0103265 0 13 3
0.293032 0.098185 0.00998948 0 14 3
0.293252 0.0983863 0.0101233 0 16 5
0.293178 0.0986341 0.00982638 0 18 5
0.293434 0.0986235 0.010168 0 19 8
0.293623 0.0989324 0.0101317 0 18 7
0.29367 0.0986407 0.0104683 0 18 5
0.293911 0.0989142 0.0105141 0 22 8
0.29391 0.0985807 0.0108363 0 17 5
0.294109 0.0988969 0.0108259 0 17 6
0.293473 0.0990641 0.00976999 1 20 8
0.293265 0.0989517 0.00949535 1 18 7
0.293893 0.0980888 0.0110667 0 14 3
0.292716 0.0975157 0.00984725 0 14 3
0.292612 0.0979168 0.00962228 0 12 2
0.292813 0.0982854 0.00962263 0 12 2
0.292978 0.0986643 0.00940791 1 19 7
0.293349 0.0988893 0.00981781 0 18 6
0.29285 0.0978593 0.00990759 0 12 2
0.293517 0.0970965 0.0107654 0 15 4
0.293671 0.0973788 0.0110446 0 15 4
0.293538 0.0974217 0.0108416 0 15 4
0.293683 0.0977582 0.0109526 0 15 3
0.293471 0.097955 0.0106204 0 14 4
0.293662 0.0982337 0.0107325 0 13 4
0.293461 0.0983305 0.0103995 0 15 4
0.27707 0.08691 0.0497869 0 8 0
0.277312 0.086911 0.0495293 0 8 0
0.27693 0.0872153 0.0495625 0 7 0
0.277211 0.0871906 0.0492938 0 9 0
0.276797 0.0874985 0.0493258 0 6 0
0.27666 0.087765 0.0490797 0 7 0
0.276582 0.0879315 0.0488981 0 7 0
0.276782 0.0869038 0.0500491 0 8 0
0.276654 0.0872091 0.0498008 0 5 0
0.276527 0.0875055 0.0495861 0 5 0
0.276374 0.0877819 0.0493444 0 7 0
0.276287 0.0879774 0.049118 0 7 0
0.275982 0.0880353 0.0493621 0 6 0
0.276127 0.087732 0.04962 0 5 0
0.276267 0.0874654 0.0497817 0 4 0
0.276358 0.0872034 0.0500036 0 4 0
0.275928 0.0874847 0.0499078 0 3 0
0.275465 0.0877203 0.0498583 0 3 0
0.275038 0.0880575 0.0498224 0 8 0
0.274694 0.0880903 0.0499407 0 4 0
0.274454 0.0877309 0.0502136 0 4 0
0.274402 0.0881577 0.0500458 0 4 0
0.274064 0.0880639 0.0502387 0 4 0
0.273653 0.0877396 0.0504251 0 6 0
0.274107 0.087656 0.0503409 0 5 0
0.274025 0.0874228 0.0503856 0 6 0
0.273733 0.0873651 0.0503905 0 8 0
0.275362 0.0881075 0.0496814 0 6 0
0.275651 0.0880855 0.0494973 0 5 0
0.275759 0.0878259 0.049688 0 4 0
0.284113 0.0910347 0.030157 67 10 6
0.28426 0.0910181 0.0305331 67 10 6
0.284411 0.0909956 0.0309009 67 9 5
0.28456 0.0909693 0.0312682 66 9 5
0.31449 0.0913933 0.0107438 117 70 51
0.314279 0.0918899 0.0104337 130 79 55
0.315613 0.0893633 0.0185067 172 120 88
0.31562 0.0894943 0.0181226 172 127 94
0.31556 0.0898272 0.0182545 171 127 96
0.315596 0.0899571 0.0178653 171 129 100
0.315482 0.0902866 0.0180191 170 127 96
0.315511 0.0903555 0.0178128 170 130 101
0.315373 0.0906264 0.0181506 171 127 99
0.315421 0.0907586 0.0177576 175 134 108
0.315287 0.0910705 0.0179502 177 134 105
0.315365 0.0911975 0.0175733 176 139 115
0.315171 0.0914344 0.018011 181 139 112
0.315259 0.0915639 0.017635 181 145 123
0.315147 0.0919219 0.0177273 184 149 125
0.315298 0.0920224 0.0173469 186 160 133
0.315241 0.0923525 0.0174279 189 163 137
0.315374 0.0921346 0.0169688 194 172 142
0.31528 0.0924871 0.0170469 196 176 146
0.315368 0.0922859 0.0165598 192 174 141
0.315274 0.0926307 0.0167104 198 181 149
0.315231 0.0927391 0.0163282 195 182 150
0.315166 0.0930423 0.0164879 194 182 151
0.315097 0.0931841 0.0161378 189 177 147
0.31511 0.0933992 0.0165543 189 180 151
0.315023 0.0935143 0.0161614 190 183 153
0.315006 0.0938594 0.0163397 193 189 160
0.314923 0.0936656 0.0158493 188 180 151
0.314878 0.0939695 0.0159198 194 188 158
0.314794 0.0938041 0.0154927 182 174 145
0.314756 0.0941346 0.0156165 190 184 153
0.314665 0.093934 0.0151449 184 176 146
0.314612 0.0942673 0.0152708 188 180 151
0.31452 0.0940669 0.0147913 181 173 144
0.314467 0.0943995 0.0149205 185 177 147
0.314381 0.094202 0.0144344 183 172 143
0.314322 0.0945374 0.0145674 187 177 148
0.314244 0.0943494 0.0140804 180 169 139
0.314172 0.0946784 0.0142183 186 175 147
0.314096 0.0944824 0.0137287 182 171 141
0.314012 0.0948156 0.01387 187 176 146
0.31394 0.0946115 0.0133724 182 171 138
0.313856 0.0949434 0.0135143 190 180 147
0.313753 0.0947494 0.0130293 183 170 139
0.31368 0.0950871 0.0131711 189 178 145
0.3135 0.0952197 0.012832 191 179 146
0.313598 0.0954193 0.0133148 197 188 154
0.313422 0.0955446 0.0129695 198 188 154
0.313531 0.0957511 0.0134512 203 193 160
0.313351 0.0958894 0.0130983 201 191 157
0.313485 0.0960776 0.0135819 204 194 160
0.313301 0.0962178 0.0132371 203 194 160
0.313339 0.0964997 0.0134977 209 199 165
0.313157 0.0966374 0.0131567 208 198 164
0.313148 0.0969584 0.0133252 206 197 163
0.312928 0.097091 0.0130069 206 198 165
0.312894 0.0974087 0.0131763 204 195 163
0.312659 0.0975405 0.0128659 206 197 164
0.312623 0.0978545 0.0130505 203 196 165
0.312369 0.0979827 0.0127697 205 196 166
0.312606 0.098173 0.0132026 198 192 164
0.312319 0.0983004 0.0129283 202 195 166
0.312616 0.0984912 0.0133309 196 189 161
0.312316 0.0986179 0.0130793 198 192 164
0.312367 0.0989436 0.0131667 195 189 163
0.312015 0.0987391 0.0128337 200 193 166
0.31202 0.0990623 0.0129583 203 195 167
0.31173 0.0988641 0.0125994 202 196 167
0.31171 0.0991763 0.0127536 200 196 167
0.311452 0.098985 0.0123329 202 197 167
0.311398 0.0992936 0.0125169 200 195 167
0.311191 0.0991169 0.0120703 201 197 169
0.311101 0.0994318 0.0122799 201 196 168
0.310936 0.0992436 0.0117951 202 200 171
0.310835 0.0995471 0.0120273 202 198 170
0.310568 0.0996815 0.0117545 200 200 170
0.310758 0.0998516 0.0122213 200 200 170
0.31047 0.0999826 0.0119698 195 197 170
0.31073 0.100156 0.0123815 196 197 170
0.310393 0.100289 0.0121574 194 197 170
0.31075 0.100481 0.0124809 192 192 167
0.310377 0.100584 0.01232 191 193 167
0.310434 0.100906 0.0124199 185 184 162
