ply
format ascii 1.0
element vertex 1729
property float x
property float y
property float z
end_header
0.342697 0.152083 0.0575015
0.342969 0.152139 0.0569507
0.343352 0.15215 0.056608
0.34368 0.152183 0.0561612
0.344063 0.152194 0.0558185
0.344391 0.152227 0.0553717
0.344718 0.152261 0.0549251
0.345101 0.152272 0.0545823
0.345429 0.152305 0.0541355
0.345644 0.152385 0.0534808
0.345972 0.152419 0.053034
0.346244 0.152476 0.0524833
0.346515 0.152533 0.0519325
0.346843 0.152566 0.0514858
0.347114 0.152623 0.050935
0.347442 0.152657 0.0504882
0.347769 0.15269 0.0500415
0.348152 0.152701 0.0496988
0.34848 0.152734 0.0492521
0.348807 0.152768 0.0488052
0.349023 0.152848 0.0481504
0.349295 0.152905 0.0475997
0.349566 0.152962 0.0470489
0.34965 0.153094 0.0461487
0.349852 0.153177 0.045469
0.349877 0.153333 0.0444585
0.349961 0.153465 0.0435583
0.350104 0.153572 0.0427684
0.350306 0.153656 0.0420886
0.350568 0.153715 0.0415191
0.350888 0.153751 0.04106
0.35115 0.15381 0.0404905
0.351411 0.15387 0.039921
0.351673 0.153929 0.0393516
0.351934 0.153989 0.0387821
0.352255 0.154024 0.0383229
0.352635 0.154036 0.0379739
0.353015 0.154047 0.037625
0.353395 0.154058 0.0372761
0.353716 0.154093 0.0368169
0.354096 0.154105 0.036468
0.354357 0.154164 0.0358985
0.354678 0.154199 0.0354393
0.354939 0.154259 0.0348698
0.355142 0.154343 0.0341901
0.355344 0.154426 0.0335104
0.355605 0.154486 0.0329409
0.355808 0.154569 0.0322613
0.356069 0.154629 0.0316918
0.356271 0.154712 0.0310121
0.356474 0.154796 0.0303323
0.356617 0.154904 0.0295424
0.356878 0.154963 0.0289729
0.357021 0.155071 0.028183
0.357164 0.155178 0.027393
0.357307 0.155286 0.0266031
0.357391 0.155418 0.0257029
0.35712 0.155694 0.024141
0.357144 0.15585 0.0231306
0.357169 0.156006 0.0221201
0.357016 0.156234 0.0207788
0.357218 0.156318 0.0200991
0.357243 0.156474 0.0190886
0.357327 0.156606 0.0181884
0.357529 0.156689 0.0175087
0.357672 0.156797 0.0167187
0.357993 0.156832 0.0162595
0.358373 0.156844 0.0159106
0.358812 0.156831 0.0156718
0.35937 0.15677 0.0156537
0.359868 0.156733 0.0155253
0.360425 0.156672 0.0155071
0.360983 0.156611 0.0154889
0.361481 0.156574 0.0153605
0.36198 0.156537 0.015232
0.362478 0.1565 0.0151036
0.362917 0.156487 0.0148649
0.363357 0.156474 0.0146263
0.363737 0.156485 0.0142773
0.364175 0.156473 0.0140386
0.364556 0.156484 0.0136896
0.364995 0.156471 0.013451
0.365375 0.156482 0.0131021
0.365755 0.156494 0.0127532
0.366135 0.156505 0.0124042
0.366455 0.15654 0.0119449
0.366776 0.156576 0.0114857
0.367038 0.156635 0.0109163
0.367299 0.156695 0.0103468
0.367501 0.156778 0.00966709
0.367704 0.156862 0.00898746
0.367906 0.156945 0.00830767
0.368049 0.157053 0.00751777
0.368133 0.157185 0.00661754
0.368276 0.157293 0.00582755
0.368064 0.157545 0.00437601
0.367674 0.15787 0.00259371
0.367461 0.158122 0.0011423
0.368019 0.158061 0.00112405
0.253478 0.160525 0.0735673
0.254864 0.160126 0.0750927
0.255599 0.159992 0.0754053
0.256394 0.159835 0.0758282
0.257366 0.159604 0.0765817
0.258042 0.159495 0.0767841
0.258718 0.159386 0.0769864
0.259453 0.159252 0.0772991
0.260248 0.159094 0.0777219
0.260924 0.158985 0.0779243
0.261482 0.158924 0.0779061
0.262217 0.15879 0.0782187
0.262834 0.158705 0.0783108
0.263451 0.15862 0.0784028
0.264067 0.158534 0.078495
0.264625 0.158473 0.0784768
0.265182 0.158412 0.0784586
0.265799 0.158327 0.0785507
0.266357 0.158266 0.0785325
0.266915 0.158205 0.0785143
0.267472 0.158143 0.0784962
0.26803 0.158082 0.078478
0.268528 0.158045 0.0783496
0.269027 0.158008 0.0782211
0.269584 0.157947 0.0782029
0.270142 0.157886 0.0781847
0.27064 0.157849 0.0780564
0.271198 0.157788 0.0780382
0.271755 0.157727 0.07802
0.272313 0.157666 0.0780018
0.272811 0.157629 0.0778734
0.273369 0.157568 0.0778552
0.273867 0.157531 0.0777268
0.274307 0.157518 0.0774881
0.274746 0.157505 0.0772494
0.275185 0.157492 0.0770107
0.275624 0.157479 0.0767721
0.276063 0.157467 0.0765334
0.276502 0.157454 0.0762947
0.277001 0.157417 0.0761662
0.27744 0.157404 0.0759275
0.277879 0.157391 0.0756889
0.278318 0.157378 0.0754502
0.278817 0.157341 0.0753217
0.279197 0.157353 0.0749728
0.279636 0.15734 0.0747341
0.280016 0.157351 0.0743851
0.280395 0.157362 0.0740362
0.280894 0.157325 0.0739078
0.281452 0.157264 0.0738896
0.282009 0.157203 0.0738714
0.282626 0.157118 0.0739635
0.283184 0.157057 0.0739454
0.2838 0.156971 0.0740374
0.284417 0.156886 0.0741295
0.284975 0.156825 0.0741113
0.285532 0.156764 0.0740932
0.28609 0.156703 0.074075
0.286648 0.156642 0.0740568
0.287205 0.156581 0.0740386
0.287704 0.156543 0.0739102
0.288202 0.156506 0.0737818
0.288641 0.156494 0.0735431
0.28908 0.156481 0.0733044
0.28946 0.156492 0.0729555
0.289899 0.156479 0.0727168
0.290339 0.156467 0.0724781
0.290719 0.156478 0.0721291
0.291158 0.156465 0.0718904
0.291597 0.156452 0.0716518
0.292036 0.156439 0.0714131
0.292534 0.156402 0.0712847
0.292974 0.15639 0.071046
0.293413 0.156377 0.0708073
0.293852 0.156364 0.0705686
0.294291 0.156351 0.0703299
0.29473 0.156338 0.0700912
0.29511 0.15635 0.0697423
0.295549 0.156337 0.0695036
0.295929 0.156348 0.0691546
0.296309 0.156359 0.0688057
0.29663 0.156395 0.0683465
0.296951 0.15643 0.0678873
0.297271 0.156466 0.0674281
0.297592 0.156501 0.0669689
0.297913 0.156537 0.0665097
0.298234 0.156572 0.0660505
0.298554 0.156608 0.0655913
0.298934 0.156619 0.0652424
0.299373 0.156606 0.0650036
0.299754 0.156617 0.0646547
0.300311 0.156556 0.0646365
0.30075 0.156543 0.0643978
0.301249 0.156506 0.0642694
0.301865 0.156421 0.0643615
0.302956 0.156143 0.0653356
0.30381 0.155961 0.0658688
0.304663 0.155779 0.0664019
0.305636 0.155549 0.0671555
0.306371 0.155415 0.0674681
0.307106 0.155282 0.0677807
0.308374 0.154931 0.0690856
0.309162 0.154775 0.0694959
0.310104 0.154552 0.0701933
0.310934 0.154376 0.0706826
0.311652 0.154247 0.070964
0.312482 0.154071 0.0714533
0.313201 0.153942 0.0717347
0.313863 0.153835 0.0719119
0.31447 0.153753 0.0719853
0.315077 0.15367 0.0720586
0.315683 0.153587 0.0721319
0.31629 0.153504 0.0722052
0.316841 0.153445 0.0721746
0.317392 0.153386 0.072144
0.317887 0.153349 0.0720092
0.318382 0.153313 0.0718745
0.318877 0.153277 0.0717399
0.319316 0.153264 0.0715012
0.319699 0.153275 0.0711584
0.320082 0.153285 0.0708158
0.320522 0.153272 0.0705771
0.320961 0.15326 0.0703384
0.321512 0.1532 0.0703078
0.322118 0.153117 0.0703811
0.322669 0.153058 0.0703504
0.323164 0.153022 0.0702157
0.323771 0.152939 0.070289
0.324266 0.152903 0.0701543
0.324817 0.152843 0.0701237
0.325424 0.152761 0.070197
0.325974 0.152701 0.0701663
0.326525 0.152642 0.0701356
0.32702 0.152606 0.0700009
0.327515 0.152569 0.0698663
0.32801 0.152533 0.0697315
0.328561 0.152474 0.0697009
0.329056 0.152438 0.0695662
0.329495 0.152425 0.0693275
0.329935 0.152412 0.0690888
0.330374 0.152399 0.0688501
0.330869 0.152363 0.0687154
0.331252 0.152374 0.0683728
0.331691 0.152361 0.0681341
0.332074 0.152371 0.0677914
0.332458 0.152382 0.0674486
0.332841 0.152392 0.067106
0.333169 0.152426 0.0666593
0.333496 0.15246 0.0662126
0.333879 0.15247 0.0658699
0.334263 0.152481 0.0655272
0.33459 0.152515 0.0650805
0.334918 0.152548 0.0646339
0.335245 0.152582 0.0641871
0.335573 0.152616 0.0637404
0.335956 0.152626 0.0633977
0.336395 0.152614 0.063159
0.336834 0.152601 0.0629203
0.337329 0.152565 0.0627856
0.337824 0.152528 0.0626511
0.338264 0.152516 0.0624123
0.338703 0.152503 0.0621737
0.339142 0.15249 0.061935
0.339581 0.152477 0.0616963
0.339964 0.152488 0.0613535
0.340348 0.152498 0.0610109
0.340675 0.152532 0.0605641
0.341003 0.152566 0.0601175
0.341386 0.152576 0.0597748
0.341713 0.15261 0.0593281
0.342041 0.152644 0.0588814
0.342368 0.152677 0.0584347
0.34264 0.152734 0.057884
0.342912 0.152792 0.0573333
0.343295 0.152802 0.0569906
0.343678 0.152812 0.0566479
0.344061 0.152823 0.0563052
0.344389 0.152857 0.0558585
0.344772 0.152867 0.0555158
0.345044 0.152924 0.0549651
0.345427 0.152935 0.0546225
0.345643 0.153015 0.0539678
0.345915 0.153072 0.0534171
0.346186 0.153129 0.0528664
0.346458 0.153186 0.0523156
0.346785 0.15322 0.051869
0.347057 0.153277 0.0513182
0.34744 0.153288 0.0509756
0.347824 0.153298 0.0506329
0.348207 0.153309 0.0502902
0.34859 0.153319 0.0499475
0.348862 0.153376 0.0493968
0.349134 0.153433 0.048846
0.349405 0.153491 0.0482954
0.349677 0.153548 0.0477447
0.349893 0.153628 0.04709
0.350095 0.153712 0.0464103
0.350179 0.153844 0.0455101
0.350262 0.153976 0.0446098
0.350287 0.154132 0.0435993
0.350489 0.154216 0.0429196
0.350633 0.154324 0.0421297
0.350894 0.154383 0.0415602
0.351215 0.154419 0.041101
0.351417 0.154503 0.0404213
0.351678 0.154562 0.0398518
0.35194 0.154622 0.0392824
0.352201 0.154681 0.0387129
0.352522 0.154717 0.0382537
0.352902 0.154728 0.0379047
0.353223 0.154764 0.0374455
0.353603 0.154775 0.0370966
0.353983 0.154786 0.0367476
0.354304 0.154822 0.0362885
0.354684 0.154833 0.0359395
0.354945 0.154893 0.03537
0.355206 0.154952 0.0348006
0.355468 0.155012 0.0342311
0.355611 0.15512 0.0334412
0.355813 0.155204 0.0327614
0.356075 0.155263 0.032192
0.356218 0.155371 0.0314021
0.356479 0.155431 0.0308325
0.356563 0.155563 0.0299323
0.356825 0.155622 0.0293628
0.357027 0.155706 0.0286831
0.35717 0.155814 0.0278932
0.357254 0.155946 0.0269929
0.357456 0.15603 0.0263132
0.357481 0.156186 0.0253027
0.357269 0.156439 0.0238512
0.357353 0.156571 0.022951
0.357259 0.156775 0.02172
0.357283 0.156932 0.0207095
0.357367 0.157064 0.0198093
0.357451 0.157196 0.0189091
0.357535 0.157328 0.0180089
0.35756 0.157484 0.0169983
0.357762 0.157568 0.0163186
0.358023 0.157627 0.0157492
0.358344 0.157663 0.0152899
0.358783 0.15765 0.0150512
0.359341 0.157589 0.0150331
0.359898 0.157528 0.0150149
0.360456 0.157467 0.0149967
0.360954 0.15743 0.0148683
0.361512 0.157369 0.0148501
0.36201 0.157332 0.0147217
0.362509 0.157294 0.0145933
0.362948 0.157282 0.0143546
0.363387 0.157269 0.0141159
0.363826 0.157256 0.0138772
0.364206 0.157267 0.0135283
0.364645 0.157255 0.0132896
0.365025 0.157266 0.0129406
0.365405 0.157277 0.0125917
0.365844 0.157264 0.012353
0.366106 0.157324 0.0117835
0.366427 0.157359 0.0113244
0.366747 0.157395 0.0108651
0.36695 0.157479 0.0101854
0.367211 0.157538 0.00961596
0.367473 0.157598 0.00904649
0.367675 0.157682 0.00836677
0.367818 0.15779 0.00757685
0.367843 0.157946 0.00656633
0.368045 0.158029 0.00588662
0.367833 0.158282 0.00443506
0.366851 0.158849 0.00155023
0.367349 0.158812 0.00142181
0.367906 0.158751 0.00140368
0.252013 0.161431 0.0734422
0.2534 0.161031 0.0749677
0.254076 0.160922 0.07517
0.255107 0.160667 0.0760339
0.255961 0.160485 0.076567
0.256696 0.160351 0.0768796
0.257609 0.160145 0.077523
0.258226 0.160059 0.077615
0.259079 0.159877 0.0781481
0.259755 0.159768 0.0783505
0.260491 0.159634 0.0786632
0.261167 0.159524 0.0788655
0.261843 0.159415 0.0790678
0.2624 0.159353 0.0790496
0.263017 0.159268 0.0791417
0.263634 0.159183 0.0792338
0.264251 0.159097 0.0793259
0.264808 0.159036 0.0793077
0.265366 0.158975 0.0792895
0.265924 0.158914 0.0792714
0.266481 0.158852 0.0792533
0.267098 0.158767 0.0793453
0.267655 0.158706 0.0793271
0.268154 0.158669 0.0791987
0.268712 0.158607 0.0791806
0.26921 0.15857 0.0790521
0.269768 0.158509 0.0790339
0.270266 0.158472 0.0789055
0.270824 0.158411 0.0788874
0.271322 0.158374 0.0787589
0.27188 0.158313 0.0787407
0.272437 0.158252 0.0787225
0.272876 0.158239 0.0784839
0.273434 0.158178 0.0784657
0.273932 0.158141 0.0783372
0.274431 0.158103 0.0782089
0.27487 0.158091 0.0779702
0.275309 0.158078 0.0777315
0.275807 0.158041 0.0776031
0.276247 0.158028 0.0773644
0.276686 0.158015 0.0771257
0.277184 0.157978 0.0769973
0.277623 0.157965 0.0767585
0.278062 0.157952 0.0765199
0.278502 0.15794 0.0762812
0.278941 0.157927 0.0760425
0.279321 0.157938 0.0756936
0.27976 0.157925 0.0754549
0.280199 0.157913 0.0752162
0.280579 0.157924 0.0748672
0.281018 0.157911 0.0746286
0.281517 0.157874 0.0745001
0.282015 0.157837 0.0743717
0.282572 0.157776 0.0743535
0.283189 0.15769 0.0744456
0.283747 0.157629 0.0744274
0.284364 0.157544 0.0745195
0.284921 0.157483 0.0745013
0.285538 0.157397 0.0745935
0.286096 0.157336 0.0745752
0.286594 0.157299 0.0744468
0.287152 0.157238 0.0744286
0.28765 0.157201 0.0743001
0.288148 0.157164 0.0741718
0.288588 0.157151 0.073933
0.289027 0.157138 0.0736943
0.289466 0.157125 0.0734557
0.289846 0.157136 0.0731067
0.290285 0.157124 0.072868
0.290665 0.157135 0.0725191
0.291045 0.157146 0.0721702
0.291484 0.157133 0.0719315
0.291923 0.157121 0.0716928
0.292422 0.157084 0.0715643
0.292861 0.157071 0.0713257
0.2933 0.157058 0.071087
0.293798 0.157021 0.0709585
0.294178 0.157032 0.0706096
0.294618 0.15702 0.0703709
0.295057 0.157007 0.0701322
0.295437 0.157018 0.0697833
0.295876 0.157005 0.0695446
0.296256 0.157016 0.0691957
0.296577 0.157052 0.0687365
0.296897 0.157088 0.0682772
0.297218 0.157123 0.067818
0.297539 0.157159 0.0673589
0.297919 0.15717 0.0670099
0.298239 0.157206 0.0665507
0.29856 0.157241 0.0660915
0.29894 0.157252 0.0657425
0.29932 0.157264 0.0653936
0.299759 0.157251 0.0651549
0.300258 0.157214 0.0650265
0.300697 0.157201 0.0647878
0.301195 0.157164 0.0646594
0.301693 0.157127 0.0645309
0.302725 0.156872 0.0653949
0.303697 0.156642 0.0661485
0.304551 0.15646 0.0666816
0.305464 0.156253 0.0673249
0.306199 0.15612 0.0676376
0.307052 0.155937 0.0681707
0.308202 0.155634 0.0692551
0.309161 0.155407 0.0699836
0.309879 0.155277 0.0702649
0.310821 0.155054 0.0709619
0.311595 0.154901 0.0713472
0.312313 0.154771 0.0716284
0.313032 0.154641 0.0719095
0.31375 0.154512 0.0721908
0.314357 0.154428 0.0722641
0.315019 0.154322 0.0724413
0.31557 0.154263 0.0724105
0.316177 0.15418 0.0724838
0.316727 0.15412 0.0724531
0.317278 0.15406 0.0724224
0.317829 0.154001 0.0723916
0.31838 0.153941 0.0723609
0.318819 0.153928 0.0721222
0.319258 0.153915 0.0718835
0.319697 0.153903 0.0716448
0.320081 0.153913 0.0713021
0.32052 0.153901 0.0710635
0.321015 0.153864 0.0709287
0.32151 0.153828 0.0707941
0.322061 0.153768 0.0707633
0.322612 0.153709 0.0707326
0.323106 0.153673 0.0705979
0.323601 0.153636 0.0704632
0.324208 0.153553 0.0705364
0.324703 0.153517 0.0704016
0.32531 0.153434 0.0704749
0.325861 0.153374 0.0704442
0.326411 0.153315 0.0704135
0.326962 0.153255 0.0703828
0.327457 0.153219 0.0702481
0.327952 0.153183 0.0701133
0.328503 0.153123 0.0700826
0.328998 0.153087 0.0699479
0.329493 0.153051 0.0698132
0.329932 0.153038 0.0695746
0.330427 0.153002 0.0694398
0.330866 0.152989 0.0692012
0.33125 0.153 0.0688585
0.331689 0.152987 0.0686198
0.332128 0.152974 0.0683811
0.332511 0.152984 0.0680385
0.332895 0.152995 0.0676958
0.333278 0.153006 0.0673532
0.333605 0.153039 0.0669065
0.333933 0.153073 0.0664598
0.33426 0.153107 0.0660132
0.334588 0.153141 0.0655666
0.334916 0.153175 0.0651199
0.335243 0.153209 0.0646732
0.335571 0.153243 0.0642266
0.335898 0.153277 0.0637799
0.336337 0.153264 0.0635412
0.336776 0.153251 0.0633025
0.337216 0.153239 0.0630638
0.337711 0.153202 0.0629292
0.338205 0.153166 0.0627945
0.338645 0.153153 0.0625558
0.339084 0.15314 0.0623171
0.339523 0.153128 0.0620784
0.339906 0.153138 0.0617358
0.34029 0.153149 0.061393
0.340673 0.153159 0.0610503
0.341056 0.15317 0.0607078
0.341328 0.153227 0.0601571
0.341711 0.153238 0.0598144
0.342039 0.153272 0.0593678
0.34231 0.153329 0.0588172
0.342582 0.153386 0.0582665
0.34291 0.15342 0.0578199
0.343237 0.153454 0.0573732
0.343621 0.153465 0.0570305
0.344004 0.153475 0.0566879
0.344387 0.153486 0.0563453
0.344771 0.153496 0.0560025
0.345098 0.15353 0.0555559
0.34537 0.153588 0.0550053
0.345586 0.153668 0.0543507
0.345857 0.153726 0.0538
0.346129 0.153783 0.0532494
0.3464 0.15384 0.0526988
0.346784 0.153851 0.0523561
0.347111 0.153885 0.0519094
0.347495 0.153895 0.0515668
0.347878 0.153906 0.0512241
0.348261 0.153916 0.0508815
0.348589 0.15395 0.0504348
0.348972 0.153961 0.0500922
0.349244 0.154018 0.0495415
0.349516 0.154076 0.0489909
0.349732 0.154156 0.0483363
0.349947 0.154237 0.0476817
0.350219 0.154294 0.0471311
0.350362 0.154402 0.0463411
0.350564 0.154486 0.0456614
0.350648 0.154619 0.0447611
0.350673 0.154775 0.0437506
0.350875 0.154859 0.0430709
0.351018 0.154967 0.0422809
0.35128 0.155027 0.0417115
0.351541 0.155087 0.0411421
0.351803 0.155147 0.0405725
0.352123 0.155182 0.0401133
0.352326 0.155266 0.0394337
0.352587 0.155326 0.0388642
0.352849 0.155385 0.0382947
0.35317 0.155421 0.0378355
0.35349 0.155457 0.0373763
0.35387 0.155468 0.0370274
0.35425 0.155479 0.0366784
0.35463 0.155491 0.0363295
0.354951 0.155526 0.0358703
0.355212 0.155586 0.0353008
0.355533 0.155621 0.0348416
0.355735 0.155705 0.0341619
0.355937 0.155789 0.0334822
0.35614 0.155873 0.0328025
0.356283 0.155981 0.0320124
0.356485 0.156065 0.0313328
0.356569 0.156198 0.0304325
0.356771 0.156282 0.0297528
0.357033 0.156341 0.0291833
0.357176 0.156449 0.0283934
0.357319 0.156558 0.0276034
0.357521 0.156642 0.0269236
0.357546 0.156798 0.0259132
0.357571 0.156954 0.0249027
0.357418 0.157184 0.0235615
0.357561 0.157292 0.0227715
0.357526 0.157472 0.0216507
0.357551 0.157629 0.0206402
0.357457 0.157834 0.0194092
0.3576 0.157942 0.0186192
0.357625 0.158098 0.0176087
0.35759 0.158279 0.016488
0.357792 0.158363 0.0158083
0.358054 0.158423 0.0152388
0.358374 0.158458 0.0147796
0.358814 0.158446 0.0145409
0.359312 0.158409 0.0144125
0.359988 0.158299 0.0146148
0.360427 0.158286 0.0143761
0.360985 0.158225 0.0143579
0.361542 0.158164 0.0143398
0.362041 0.158127 0.0142114
0.36248 0.158114 0.0139727
0.362919 0.158101 0.013734
0.363418 0.158064 0.0136056
0.363797 0.158075 0.0132566
0.364237 0.158063 0.0130179
0.364676 0.15805 0.0127793
0.364997 0.158085 0.0123201
0.365436 0.158072 0.0120814
0.365756 0.158108 0.0116221
0.366077 0.158144 0.0111629
0.366398 0.158179 0.0107038
0.366659 0.158239 0.0101342
0.366921 0.158299 0.00956477
0.367182 0.158358 0.00899538
0.367326 0.158466 0.00820537
0.367528 0.15855 0.0075257
0.367612 0.158683 0.0066254
0.367636 0.158839 0.00561495
0.36772 0.158971 0.00471464
0.366679 0.159563 0.00171952
0.367177 0.159526 0.00159109
0.367735 0.159465 0.00157302
0.245949 0.163553 0.0689795
0.246092 0.163661 0.0681895
0.251698 0.162035 0.0744015
0.252611 0.161828 0.0750449
0.253583 0.161597 0.0757985
0.254496 0.16139 0.0764419
0.255468 0.161159 0.0771956
0.256322 0.160977 0.0777287
0.257116 0.160819 0.0781516
0.257911 0.16066 0.0785744
0.258587 0.160551 0.0787768
0.2595 0.160344 0.0794202
0.260057 0.160283 0.079402
0.260674 0.160197 0.0794941
0.26135 0.160087 0.0796964
0.262085 0.159953 0.080009
0.262702 0.159868 0.0801012
0.263319 0.159782 0.0801932
0.263817 0.159745 0.0800648
0.264434 0.15966 0.0801569
0.264992 0.159598 0.0801387
0.265549 0.159537 0.0801206
0.266107 0.159476 0.0801023
0.266665 0.159414 0.0800842
0.267163 0.159377 0.0799558
0.26778 0.159292 0.0800479
0.268278 0.159255 0.0799194
0.268836 0.159194 0.0799012
0.269393 0.159132 0.0798831
0.269892 0.159095 0.0797547
0.270449 0.159034 0.0797365
0.271007 0.158972 0.0797183
0.271446 0.15896 0.0794796
0.272004 0.158898 0.0794615
0.272561 0.158837 0.0794433
0.27306 0.1588 0.0793149
0.273617 0.158739 0.0792967
0.274116 0.158702 0.0791682
0.274555 0.158689 0.0789296
0.274994 0.158676 0.0786909
0.275492 0.158639 0.0785624
0.275991 0.158602 0.078434
0.27643 0.158589 0.0781953
0.276869 0.158576 0.0779566
0.277308 0.158563 0.0777179
0.277748 0.158551 0.0774792
0.278187 0.158538 0.0772405
0.278626 0.158525 0.0770019
0.279065 0.158512 0.0767632
0.279563 0.158475 0.0766348
0.279943 0.158486 0.0762858
0.280382 0.158473 0.0760471
0.280881 0.158436 0.0759187
0.281261 0.158448 0.0755697
0.281641 0.158459 0.0752208
0.282198 0.158398 0.0752027
0.282697 0.158361 0.0750742
0.283254 0.1583 0.075056
0.283753 0.158263 0.0749277
0.28431 0.158201 0.0749095
0.284868 0.15814 0.0748913
0.285426 0.158079 0.0748731
0.285983 0.158017 0.074855
0.286541 0.157956 0.0748368
0.287039 0.157919 0.0747083
0.287597 0.157858 0.0746902
0.288036 0.157845 0.0744515
0.288534 0.157808 0.0743231
0.288973 0.157795 0.0740844
0.289413 0.157782 0.0738457
0.289792 0.157793 0.0734968
0.290232 0.157781 0.073258
0.290612 0.157792 0.0729091
0.290991 0.157803 0.0725602
0.291431 0.157791 0.0723215
0.29187 0.157778 0.0720827
0.292309 0.157765 0.0718441
0.292748 0.157752 0.0716054
0.293188 0.157739 0.0713667
0.293686 0.157702 0.0712383
0.294125 0.157689 0.0709997
0.294564 0.157676 0.070761
0.295003 0.157664 0.0705222
0.295383 0.157675 0.0701733
0.295763 0.157687 0.0698243
0.296202 0.157674 0.0695857
0.296523 0.157709 0.0691265
0.296903 0.157721 0.0687775
0.297224 0.157756 0.0683183
0.297544 0.157792 0.0678591
0.297865 0.157828 0.0673999
0.298186 0.157863 0.0669407
0.298566 0.157875 0.0665917
0.298887 0.15791 0.0661326
0.299266 0.157922 0.0657835
0.299706 0.157909 0.0655448
0.300145 0.157896 0.0653062
0.300643 0.157859 0.0651778
0.301141 0.157822 0.0650494
0.30164 0.157785 0.0649209
0.302316 0.157675 0.0651233
0.303525 0.157347 0.0663179
0.304379 0.157165 0.0668511
0.305351 0.156934 0.0676047
0.306086 0.1568 0.0679173
0.306881 0.156641 0.0683401
0.307971 0.156362 0.0693143
0.308825 0.15618 0.0698475
0.309822 0.155932 0.0706483
0.310708 0.155732 0.0712413
0.311482 0.155578 0.0716263
0.312256 0.155424 0.0720114
0.312918 0.155318 0.0721886
0.313637 0.155188 0.0724697
0.314243 0.155104 0.0725428
0.314906 0.154998 0.0727199
0.315512 0.154915 0.0727931
0.316063 0.154855 0.0727623
0.31667 0.154772 0.0728356
0.31722 0.154712 0.0728047
0.317771 0.154652 0.072774
0.318266 0.154616 0.0726393
0.318761 0.154579 0.0725044
0.3192 0.154567 0.0722658
0.31964 0.154554 0.0720271
0.320079 0.154541 0.0717884
0.320518 0.154528 0.0715498
0.321069 0.154468 0.071519
0.321619 0.154409 0.0714882
0.322059 0.154396 0.0712495
0.322554 0.154359 0.0711148
0.323049 0.154323 0.07098
0.323544 0.154287 0.0708454
0.324038 0.154251 0.0707106
0.324589 0.154191 0.0706798
0.32514 0.154131 0.0706491
0.325691 0.154071 0.0706182
0.326242 0.154012 0.0705874
0.326793 0.153952 0.0705567
0.327343 0.153892 0.0705259
0.327838 0.153856 0.0703912
0.328389 0.153796 0.0703604
0.32894 0.153736 0.0703297
0.329379 0.153723 0.070091
0.329818 0.153711 0.0698523
0.330313 0.153674 0.0697175
0.330808 0.153638 0.0695828
0.331247 0.153625 0.0693441
0.331686 0.153612 0.0691055
0.332126 0.153599 0.0688667
0.332509 0.15361 0.0685241
0.332892 0.153621 0.0681815
0.333276 0.153631 0.0678388
0.333659 0.153642 0.0674962
0.333987 0.153676 0.0670496
0.33437 0.153687 0.0667069
0.334642 0.153744 0.0661564
0.334969 0.153778 0.0657097
0.335241 0.153836 0.0651593
0.335512 0.153893 0.0646087
0.33584 0.153928 0.0641622
0.336223 0.153938 0.0638194
0.336718 0.153902 0.0636847
0.337158 0.153889 0.063446
0.337653 0.153853 0.0633113
0.338148 0.153816 0.0631765
0.338587 0.153804 0.0629378
0.339026 0.153791 0.0626991
0.339465 0.153778 0.0624605
0.339848 0.153789 0.0621178
0.340232 0.153799 0.0617752
0.340671 0.153786 0.0615365
0.340998 0.153821 0.0610899
0.341382 0.153831 0.0607472
0.341709 0.153865 0.0603007
0.342037 0.153899 0.059854
0.342309 0.153957 0.0593035
0.34258 0.154014 0.058753
0.342852 0.154072 0.0582024
0.343235 0.154083 0.0578598
0.343619 0.154093 0.0575171
0.344002 0.154104 0.0571745
0.344385 0.154115 0.0568318
0.344769 0.154125 0.0564892
0.345096 0.154159 0.0560426
0.345368 0.154217 0.055492
0.345584 0.154298 0.0548375
0.3458 0.154379 0.054183
0.346127 0.154413 0.0537364
0.346399 0.154471 0.0531858
0.346782 0.154481 0.0528432
0.347166 0.154492 0.0525006
0.347549 0.154502 0.0521579
0.347932 0.154513 0.0518153
0.348316 0.154524 0.0514726
0.348643 0.154558 0.051026
0.348971 0.154592 0.0505794
0.349298 0.154626 0.0501329
0.34957 0.154684 0.0495823
0.349786 0.154765 0.0489277
0.350058 0.154822 0.0483772
0.350274 0.154903 0.0477227
0.350545 0.154961 0.0471721
0.350688 0.155069 0.0463822
0.350891 0.155153 0.0457024
0.350797 0.155358 0.0444714
0.350999 0.155442 0.0437917
0.351202 0.155527 0.043112
0.351345 0.155635 0.042322
0.351665 0.155671 0.0418628
0.351927 0.15573 0.0412933
0.352248 0.155766 0.0408341
0.352568 0.155802 0.0403749
0.35283 0.155862 0.0398055
0.352973 0.15597 0.0390155
0.353234 0.15603 0.038446
0.353496 0.15609 0.0378766
0.353817 0.156125 0.0374174
0.354137 0.156161 0.0369581
0.354517 0.156172 0.0366092
0.354838 0.156208 0.03615
0.355218 0.156219 0.035801
0.355479 0.156279 0.0352315
0.3558 0.156315 0.0347724
0.356003 0.156399 0.0340926
0.356205 0.156483 0.0334129
0.356407 0.156567 0.0327332
0.356609 0.156651 0.0320535
0.356752 0.15676 0.0312635
0.356777 0.156916 0.030253
0.356979 0.157001 0.0295733
0.357182 0.157085 0.0288935
0.357384 0.157169 0.0282138
0.357527 0.157277 0.0274239
0.357611 0.15741 0.0265237
0.357636 0.157566 0.0255131
0.35766 0.157723 0.0245026
0.357685 0.15788 0.0234922
0.357769 0.158013 0.0225919
0.357793 0.158169 0.0215814
0.357759 0.158351 0.0204607
0.357665 0.158556 0.0192296
0.35769 0.158713 0.0182192
0.357655 0.158894 0.0170984
0.35762 0.159075 0.0159776
0.357349 0.159353 0.0144158
0.357966 0.159267 0.014508
0.358405 0.159254 0.0142692
0.358726 0.15929 0.01381
0.359224 0.159253 0.0136816
0.359841 0.159167 0.0137737
0.360339 0.15913 0.0136452
0.361015 0.15902 0.0138475
0.361455 0.159008 0.0136089
0.361953 0.158971 0.0134805
0.362451 0.158934 0.013352
0.36295 0.158896 0.0132236
0.363389 0.158884 0.012985
0.363828 0.158871 0.0127462
0.364208 0.158882 0.0123973
0.364588 0.158894 0.0120484
0.364968 0.158905 0.0116994
0.365348 0.158916 0.0113505
0.365669 0.158952 0.0108913
0.365989 0.158988 0.0104321
0.36631 0.159023 0.00997289
0.366512 0.159107 0.00929314
0.366774 0.159167 0.00872363
0.366917 0.159276 0.00793367
0.367119 0.15936 0.00725396
0.367262 0.159468 0.00646401
0.367228 0.159649 0.00534325
0.367193 0.15983 0.00422247
0.366566 0.160253 0.00199906
0.367065 0.160217 0.00187071
0.367563 0.16018 0.00174224
0.244983 0.164425 0.068726
0.246429 0.164 0.0703616
0.247401 0.163769 0.0711153
0.248373 0.163537 0.0718689
0.248575 0.163621 0.0711892
0.250909 0.162832 0.0744788
0.252 0.162552 0.075453
0.253209 0.162223 0.0766477
0.253944 0.162089 0.0769603
0.254916 0.161858 0.0777139
0.25577 0.161675 0.0782471
0.256624 0.161492 0.0787801
0.257418 0.161334 0.079203
0.258153 0.1612 0.0795156
0.258889 0.161065 0.0798282
0.259624 0.160931 0.0801409
0.260241 0.160846 0.080233
0.260976 0.160711 0.0805456
0.261652 0.160601 0.0807479
0.26221 0.16054 0.0807298
0.262826 0.160454 0.0808219
0.263502 0.160344 0.0810242
0.26406 0.160283 0.081006
0.264618 0.160222 0.0809878
0.265116 0.160184 0.0808594
0.265674 0.160123 0.0808413
0.26629 0.160038 0.0809333
0.266789 0.16 0.0808049
0.267287 0.159963 0.0806765
0.267904 0.159878 0.0807686
0.268462 0.159816 0.0807504
0.269019 0.159755 0.0807322
0.269517 0.159718 0.0806038
0.270075 0.159656 0.0805856
0.270574 0.159619 0.0804572
0.271131 0.159558 0.080439
0.27163 0.159521 0.0803106
0.272187 0.159459 0.0802924
0.272745 0.159398 0.0802743
0.273243 0.159361 0.0801458
0.273742 0.159324 0.0800174
0.274299 0.159262 0.0799993
0.274797 0.159225 0.0798708
0.275237 0.159212 0.0796321
0.275676 0.1592 0.0793934
0.276174 0.159162 0.079265
0.276554 0.159174 0.0789161
0.276993 0.159161 0.0786774
0.277432 0.159148 0.0784387
0.277872 0.159135 0.0782
0.278311 0.159122 0.0779613
0.27875 0.15911 0.0777226
0.279189 0.159097 0.0774839
0.279687 0.15906 0.0773555
0.280186 0.159023 0.0772272
0.280684 0.158986 0.0770986
0.281183 0.158948 0.0769702
0.281622 0.158936 0.0767315
0.28212 0.158898 0.0766031
0.2825 0.15891 0.0762541
0.282939 0.158897 0.0760155
0.283378 0.158884 0.0757767
0.283877 0.158847 0.0756484
0.284375 0.15881 0.07552
0.284874 0.158773 0.0753916
0.285372 0.158736 0.0752631
0.28587 0.158699 0.0751346
0.286428 0.158637 0.0751165
0.286926 0.1586 0.0749881
0.287425 0.158563 0.0748597
0.287982 0.158502 0.0748414
0.288481 0.158465 0.0747131
0.28892 0.158452 0.0744744
0.289359 0.158439 0.0742357
0.289798 0.158426 0.073997
0.290237 0.158413 0.0737583
0.290617 0.158425 0.0734093
0.290997 0.158436 0.0730604
0.291377 0.158448 0.0727115
0.291816 0.158435 0.0724728
0.292256 0.158422 0.0722341
0.292695 0.158409 0.0719954
0.293134 0.158396 0.0717567
0.293573 0.158383 0.071518
0.294012 0.158371 0.0712793
0.294451 0.158358 0.0710407
0.294891 0.158345 0.070802
0.295271 0.158356 0.070453
0.29571 0.158344 0.0702143
0.29609 0.158355 0.0698653
0.296529 0.158342 0.0696267
0.29685 0.158378 0.0691674
0.29723 0.158389 0.0688185
0.29755 0.158425 0.0683593
0.297812 0.158485 0.0677899
0.298192 0.158496 0.0674409
0.298571 0.158508 0.067092
0.298892 0.158544 0.0666328
0.299272 0.158555 0.0662838
0.299652 0.158567 0.0659349
0.300151 0.158529 0.0658064
0.300649 0.158492 0.0656781
0.301029 0.158504 0.0653291
0.301646 0.158418 0.0654211
0.302144 0.158381 0.0652928
0.303412 0.158028 0.0665977
0.304444 0.157773 0.0674615
0.305179 0.157638 0.0677741
0.305973 0.15748 0.068197
0.306768 0.157321 0.06862
0.307799 0.157066 0.0694838
0.308594 0.156907 0.0699067
0.309821 0.156563 0.0711357
0.310595 0.156409 0.0715206
0.311425 0.156232 0.0720094
0.312198 0.156078 0.0723944
0.312917 0.155947 0.0726753
0.313523 0.155864 0.0727484
0.314186 0.155757 0.0729255
0.314792 0.155673 0.0729986
0.315399 0.15559 0.0730717
0.315949 0.15553 0.0730409
0.3165 0.15547 0.07301
0.317107 0.155387 0.0730832
0.317657 0.155327 0.0730523
0.318208 0.155267 0.0730215
0.318703 0.15523 0.0728868
0.319142 0.155218 0.0726481
0.319637 0.155181 0.0725133
0.320077 0.155168 0.0722746
0.320572 0.155132 0.0721399
0.321122 0.155072 0.072109
0.321673 0.155012 0.0720783
0.322168 0.154976 0.0719435
0.322607 0.154963 0.0717048
0.323046 0.15495 0.0714661
0.323541 0.154914 0.0713313
0.32398 0.154901 0.0710927
0.324475 0.154865 0.0709579
0.32497 0.154828 0.0708232
0.325521 0.154768 0.0707923
0.326072 0.154708 0.0707615
0.326623 0.154648 0.0707306
0.327174 0.154589 0.0706998
0.327724 0.154529 0.0706691
0.328219 0.154492 0.0705343
0.32877 0.154432 0.0705034
0.329265 0.154396 0.0703686
0.32976 0.15436 0.070234
0.330255 0.154323 0.0700992
0.330694 0.15431 0.0698605
0.331189 0.154274 0.0697257
0.331628 0.154261 0.0694871
0.332067 0.154248 0.0692484
0.332451 0.154259 0.0689057
0.33289 0.154246 0.0686671
0.333329 0.154233 0.0684284
0.333657 0.154268 0.0679817
0.333984 0.154302 0.0675352
0.334368 0.154313 0.0671927
0.334695 0.154347 0.0667461
0.335023 0.154381 0.0662995
0.335294 0.154439 0.0657491
0.33551 0.15452 0.0650946
0.335782 0.154578 0.0645442
0.336165 0.154589 0.0642016
0.336605 0.154576 0.0639629
0.3371 0.154539 0.0638281
0.337595 0.154503 0.0636933
0.33809 0.154467 0.0635585
0.338473 0.154477 0.063216
0.338968 0.154441 0.0630812
0.339407 0.154428 0.0628425
0.33979 0.154439 0.0624999
0.34023 0.154426 0.0622612
0.340613 0.154437 0.0619186
0.340941 0.154471 0.061472
0.341324 0.154482 0.0611294
0.341707 0.154492 0.0607868
0.341979 0.15455 0.0602363
0.342307 0.154585 0.0597897
0.342523 0.154666 0.0591354
0.34285 0.1547 0.0586887
0.343233 0.154711 0.0583462
0.343617 0.154722 0.0580036
0.344 0.154732 0.0576609
0.344439 0.15472 0.0574222
0.344767 0.154754 0.0569757
0.34515 0.154764 0.0566331
0.345422 0.154822 0.0560826
0.345638 0.154904 0.0554282
0.34591 0.154961 0.0548777
0.346181 0.155019 0.0543272
0.346453 0.155077 0.0537767
0.346837 0.155088 0.0534342
0.34722 0.155098 0.0530915
0.347659 0.155085 0.0528528
0.347987 0.15512 0.0524062
0.34837 0.15513 0.0520636
0.348698 0.155165 0.0516171
0.349025 0.155199 0.0511705
0.349353 0.155233 0.0507239
0.349625 0.155291 0.0501736
0.349841 0.155372 0.0495191
0.350057 0.155454 0.0488647
0.350328 0.155511 0.0483141
0.3506 0.155569 0.0477637
0.350872 0.155627 0.0472132
0.351015 0.155736 0.0464232
0.351217 0.15582 0.0457435
0.351183 0.156001 0.0446227
0.351267 0.156134 0.0437225
0.351469 0.156218 0.0430427
0.35173 0.156278 0.0424732
0.352051 0.156314 0.042014
0.352372 0.15635 0.0415549
0.352633 0.15641 0.0409854
0.353013 0.156421 0.0406365
0.353334 0.156457 0.0401772
0.353477 0.156565 0.0393873
0.35362 0.156674 0.0385973
0.353941 0.15671 0.0381381
0.354202 0.15677 0.0375686
0.354464 0.15683 0.0369992
0.354785 0.156865 0.0365399
0.355105 0.156901 0.0360807
0.355426 0.156937 0.0356216
0.355747 0.156973 0.0351623
0.356067 0.157008 0.0347031
0.356329 0.157068 0.0341336
0.356531 0.157153 0.033454
0.356733 0.157237 0.0327742
0.356995 0.157297 0.0322048
0.356901 0.157503 0.0309738
0.356926 0.15766 0.0299633
0.357187 0.15772 0.0293937
0.35739 0.157804 0.0287141
0.357533 0.157913 0.027924
0.357735 0.157997 0.0272443
0.35776 0.158154 0.0262338
0.357844 0.158287 0.0253336
0.357809 0.158468 0.0242128
0.357893 0.158601 0.0233126
0.358036 0.158709 0.0225226
0.358001 0.158891 0.0214018
0.357908 0.159097 0.0201708
0.357873 0.159278 0.01905
0.35772 0.159508 0.0177088
0.357804 0.159641 0.0168085
0.357473 0.159944 0.0151365
0.35738 0.160149 0.0139054
0.357523 0.160258 0.0131155
0.358021 0.160221 0.012987
0.358579 0.160159 0.0129689
0.359018 0.160146 0.0127302
0.359635 0.160061 0.0128223
0.360192 0.159999 0.0128041
0.36075 0.159938 0.0127859
0.361367 0.159852 0.012878
0.361865 0.159815 0.0127496
0.362304 0.159802 0.0125109
0.362803 0.159765 0.0123824
0.363301 0.159728 0.012254
0.363681 0.15974 0.0119051
0.364061 0.159751 0.0115561
0.3645 0.159738 0.0113175
0.36488 0.15975 0.0109685
0.36526 0.159761 0.0106196
0.365521 0.159821 0.01005
0.365901 0.159833 0.00970115
0.366104 0.159917 0.00902139
0.366306 0.160001 0.00834173
0.366508 0.160085 0.00766191
0.366711 0.16017 0.00698224
0.366794 0.160302 0.00608205
0.36676 0.160484 0.00496123
0.366548 0.160738 0.00350971
0.366513 0.16092 0.00238896
0.366893 0.160931 0.00203993
0.367332 0.160918 0.00180126
0.244431 0.165128 0.0692442
0.245699 0.164775 0.0705491
0.246731 0.164519 0.0714131
0.247644 0.164312 0.0720565
0.248201 0.16425 0.0720382
0.248581 0.164262 0.0716893
0.251507 0.163227 0.0760815
0.252539 0.162971 0.0769454
0.253511 0.16274 0.0776991
0.254246 0.162605 0.0780117
0.255396 0.1623 0.0790962
0.256013 0.162215 0.0791883
0.256926 0.162007 0.0798316
0.257661 0.161873 0.0801442
0.258337 0.161763 0.0803466
0.259131 0.161604 0.0807695
0.259748 0.161518 0.0808616
0.260424 0.161408 0.081064
0.2611 0.161298 0.0812663
0.261717 0.161212 0.0813584
0.262393 0.161102 0.0815607
0.26301 0.161016 0.0816528
0.263567 0.160955 0.0816346
0.264125 0.160893 0.0816165
0.264683 0.160832 0.0815983
0.26524 0.16077 0.0815802
0.265798 0.160709 0.0815619
0.266355 0.160647 0.0815438
0.266913 0.160586 0.0815257
0.267471 0.160524 0.0815075
0.268028 0.160463 0.0814893
0.268586 0.160401 0.0814711
0.269143 0.16034 0.081453
0.269701 0.160279 0.0814348
0.270199 0.160241 0.0813064
0.270757 0.16018 0.0812882
0.271255 0.160143 0.0811598
0.271813 0.160081 0.0811417
0.272311 0.160044 0.0810132
0.272869 0.159983 0.080995
0.273427 0.159921 0.0809768
0.273925 0.159884 0.0808485
0.274483 0.159823 0.0808303
0.274981 0.159785 0.0807019
0.27542 0.159773 0.0804631
0.275918 0.159735 0.0803348
0.276358 0.159723 0.0800961
0.276738 0.159734 0.0797471
0.277177 0.159721 0.0795084
0.277616 0.159708 0.0792697
0.277996 0.15972 0.0789208
0.278435 0.159707 0.0786821
0.278874 0.159694 0.0784434
0.279313 0.159681 0.0782048
0.279812 0.159644 0.0780763
0.280369 0.159583 0.0780581
0.280868 0.159546 0.0779296
0.281366 0.159508 0.0778013
0.281864 0.159471 0.0776729
0.282363 0.159434 0.0775444
0.282802 0.159421 0.0773057
0.283182 0.159433 0.0769568
0.283562 0.159444 0.0766078
0.284001 0.159431 0.0763691
0.28444 0.159419 0.0761304
0.284879 0.159406 0.0758918
0.285319 0.159393 0.0756531
0.285817 0.159356 0.0755247
0.286315 0.159319 0.0753962
0.286814 0.159281 0.0752677
0.287312 0.159244 0.0751394
0.28787 0.159183 0.0751212
0.288368 0.159146 0.0749928
0.288866 0.159109 0.0748643
0.289306 0.159096 0.0746257
0.289745 0.159083 0.0743869
0.290184 0.15907 0.0741483
0.290623 0.159057 0.0739096
0.291003 0.159069 0.0735606
0.291383 0.15908 0.0732117
0.291763 0.159092 0.0728627
0.292202 0.159079 0.072624
0.292641 0.159066 0.0723853
0.293021 0.159077 0.0720364
0.29346 0.159065 0.0717978
0.2939 0.159052 0.071559
0.294339 0.159039 0.0713204
0.294778 0.159026 0.0710817
0.295217 0.159013 0.070843
0.295656 0.159 0.0706043
0.296036 0.159012 0.0702553
0.296416 0.159024 0.0699064
0.296796 0.159035 0.0695575
0.297176 0.159046 0.0692085
0.297556 0.159058 0.0688595
0.297877 0.159094 0.0684004
0.298138 0.159154 0.0678309
0.298518 0.159165 0.0674819
0.298898 0.159177 0.067133
0.299219 0.159213 0.0666738
0.299658 0.1592 0.066435
0.300097 0.159187 0.0661964
0.300596 0.15915 0.066068
0.300975 0.159161 0.065719
0.301592 0.159076 0.0658112
0.302209 0.15899 0.0659032
0.303418 0.158661 0.0670979
0.304331 0.158453 0.0677413
0.305066 0.158319 0.068054
0.305801 0.158184 0.0683665
0.306714 0.157977 0.0690099
0.307686 0.157745 0.0697635
0.30854 0.157562 0.0702967
0.309764 0.157218 0.0715191
0.310426 0.157111 0.0716961
0.311423 0.156862 0.0724965
0.312141 0.156731 0.0727773
0.312859 0.1566 0.0730582
0.313466 0.156516 0.0731312
0.314072 0.156432 0.0732042
0.314679 0.156349 0.0732773
0.315285 0.156265 0.0733503
0.315836 0.156205 0.0733194
0.316443 0.156121 0.0733924
0.316993 0.156061 0.0733615
0.317544 0.156001 0.0733307
0.318095 0.155941 0.0732998
0.318645 0.155881 0.073269
0.319085 0.155868 0.0730302
0.31958 0.155832 0.0728955
0.320074 0.155796 0.0727607
0.320569 0.155759 0.0726259
0.32112 0.155699 0.0725951
0.321615 0.155663 0.0724603
0.32211 0.155626 0.0723256
0.322605 0.15559 0.0721907
0.323044 0.155577 0.0719521
0.323539 0.15554 0.0718172
0.323978 0.155527 0.0715786
0.324417 0.155515 0.0713399
0.324857 0.155502 0.0711012
0.325352 0.155465 0.0709664
0.325847 0.155429 0.0708316
0.326397 0.155369 0.0708007
0.327004 0.155285 0.0708738
0.327554 0.155225 0.0708429
0.328049 0.155189 0.0707082
0.328544 0.155152 0.0705734
0.329095 0.155092 0.0705425
0.329646 0.155032 0.0705116
0.330085 0.155019 0.0702729
0.33058 0.154983 0.0701381
0.331075 0.154946 0.0700034
0.331514 0.154933 0.0697647
0.331953 0.154921 0.069526
0.332392 0.154908 0.0692874
0.332832 0.154895 0.0690486
0.333271 0.154882 0.06881
0.333654 0.154893 0.0684673
0.333982 0.154927 0.0680208
0.334365 0.154938 0.0676782
0.334748 0.154949 0.0673356
0.33502 0.155007 0.0667853
0.335348 0.155041 0.0663387
0.335564 0.155123 0.0656844
0.33578 0.155205 0.0650301
0.336107 0.155239 0.0645836
0.336547 0.155226 0.064345
0.336986 0.155213 0.0641062
0.337481 0.155177 0.0639715
0.337976 0.155141 0.0638366
0.338415 0.155128 0.063598
0.338854 0.155115 0.0633593
0.339293 0.155102 0.0631206
0.339732 0.155089 0.0628819
0.340116 0.1551 0.0625393
0.340555 0.155087 0.0623006
0.340883 0.155121 0.0618542
0.341322 0.155109 0.0616154
0.341649 0.155143 0.0611689
0.342033 0.155154 0.0608264
0.342249 0.155236 0.0601721
0.342576 0.15527 0.0597255
0.342792 0.155352 0.0590711
0.343176 0.155362 0.0587286
0.343559 0.155373 0.058386
0.343998 0.15536 0.0581473
0.344381 0.155371 0.0578047
0.344765 0.155382 0.0574622
0.345148 0.155393 0.0571196
0.345476 0.155427 0.056673
0.345636 0.155532 0.0559148
0.345964 0.155567 0.0554683
0.346236 0.155625 0.0549179
0.346563 0.155659 0.0544713
0.346947 0.15567 0.0541288
0.34733 0.155681 0.0537861
0.347713 0.155692 0.0534436
0.348097 0.155702 0.053101
0.348424 0.155737 0.0526545
0.348808 0.155748 0.0523119
0.34908 0.155806 0.0517614
0.349407 0.15584 0.051315
0.349679 0.155898 0.0507646
0.349895 0.15598 0.0501103
0.350111 0.156061 0.0494559
0.350383 0.156119 0.0489055
0.350599 0.156201 0.0482513
0.350871 0.156259 0.0477008
0.351139 0.156318 0.047144
0.351341 0.156402 0.0464643
0.351544 0.156487 0.0457846
0.35145 0.156693 0.0445535
0.351593 0.156801 0.0437635
0.351795 0.156886 0.0430838
0.352116 0.156922 0.0426246
0.352437 0.156957 0.0421654
0.352757 0.156993 0.0417062
0.353078 0.157029 0.041247
0.353399 0.157065 0.0407878
0.35372 0.157101 0.0403286
0.353981 0.157161 0.0397591
0.354065 0.157294 0.0388589
0.354326 0.157354 0.0382895
0.354588 0.157414 0.0377199
0.35479 0.157499 0.0370402
0.355052 0.157559 0.0364707
0.355373 0.157595 0.0360115
0.355693 0.15763 0.0355523
0.356014 0.157666 0.0350931
0.356335 0.157702 0.0346339
0.356655 0.157738 0.0341747
0.356799 0.157847 0.0333847
0.357001 0.157931 0.032705
0.357262 0.157991 0.0321355
0.356932 0.158294 0.0304634
0.357193 0.158355 0.0298939
0.357395 0.158439 0.0292142
0.357598 0.158523 0.0285345
0.357682 0.158657 0.0276343
0.357884 0.158741 0.0269546
0.357909 0.158898 0.025944
0.358052 0.159007 0.025154
0.357958 0.159213 0.0239231
0.35816 0.159298 0.0232433
0.358185 0.159455 0.0222327
0.35815 0.159637 0.021112
0.358116 0.159819 0.0199912
0.358022 0.160025 0.0187602
0.357869 0.160255 0.0174189
0.357894 0.160413 0.0164084
0.357326 0.160813 0.0142953
0.357351 0.160971 0.0132847
0.357435 0.161104 0.0123846
0.357696 0.161164 0.0118151
0.35855 0.160981 0.0123483
0.358989 0.160968 0.0121096
0.359487 0.160931 0.0119811
0.360045 0.160869 0.0119629
0.360662 0.160783 0.012055
0.361219 0.160722 0.0120368
0.361718 0.160685 0.0119084
0.362157 0.160672 0.0116697
0.362596 0.160659 0.0114311
0.363154 0.160598 0.0114129
0.363534 0.160609 0.0110639
0.363914 0.160621 0.010715
0.364353 0.160608 0.0104763
0.364733 0.160619 0.0101273
0.365053 0.160655 0.00966814
0.365433 0.160667 0.00931919
0.365695 0.160727 0.00874962
0.365897 0.160811 0.00806994
0.3661 0.160896 0.00739028
0.366243 0.161004 0.00660024
0.366267 0.161162 0.00558974
0.366351 0.161295 0.0046895
0.36608 0.161574 0.00312771
0.3664 0.16161 0.00266848
0.366662 0.16167 0.00209908
0.244615 0.165697 0.0700751
0.245824 0.165367 0.0712698
0.246737 0.165159 0.0719131
0.247472 0.165025 0.0722257
0.247911 0.165012 0.071987
0.250541 0.164098 0.0758281
0.251691 0.163792 0.0769125
0.252722 0.163536 0.0777764
0.253813 0.163255 0.0787506
0.254548 0.16312 0.0790631
0.255579 0.162864 0.079927
0.256137 0.162802 0.079909
0.257109 0.16257 0.0806626
0.257785 0.16246 0.080865
0.25852 0.162325 0.0811776
0.259256 0.162191 0.0814902
0.259872 0.162105 0.0815823
0.260608 0.16197 0.0818949
0.261224 0.161884 0.081987
0.2619 0.161774 0.0821894
0.262517 0.161688 0.0822814
0.263134 0.161602 0.0823735
0.263632 0.161565 0.0822451
0.26419 0.161503 0.082227
0.264748 0.161442 0.0822088
0.265305 0.16138 0.0821907
0.265804 0.161343 0.0820622
0.266361 0.161281 0.082044
0.266919 0.16122 0.0820258
0.267536 0.161134 0.0821179
0.268093 0.161072 0.0820998
0.268651 0.161011 0.0820817
0.269208 0.160949 0.0820635
0.269766 0.160888 0.0820453
0.270323 0.160826 0.0820271
0.270881 0.160764 0.0820089
0.27138 0.160727 0.0818805
0.271937 0.160666 0.0818623
0.272554 0.16058 0.0819545
0.272993 0.160567 0.0817157
0.273551 0.160505 0.0816976
0.274049 0.160468 0.0815692
0.274548 0.160431 0.0814408
0.275046 0.160394 0.0813123
0.275544 0.160357 0.0811839
0.275983 0.160344 0.0809453
0.276482 0.160307 0.0808168
0.276862 0.160318 0.0804679
0.277242 0.16033 0.0801189
0.277681 0.160317 0.0798802
0.27812 0.160304 0.0796415
0.2785 0.160316 0.0792926
0.278939 0.160303 0.0790539
0.279438 0.160265 0.0789254
0.279936 0.160228 0.078797
0.280493 0.160167 0.0787789
0.280992 0.16013 0.0786505
0.28149 0.160092 0.078522
0.281989 0.160055 0.0783936
0.282487 0.160018 0.0782651
0.282926 0.160005 0.0780265
0.283365 0.159992 0.0777878
0.283745 0.160004 0.0774389
0.284125 0.160015 0.0770899
0.284505 0.160027 0.076741
0.284944 0.160014 0.0765023
0.285324 0.160026 0.0761533
0.285763 0.160013 0.0759146
0.286262 0.159976 0.0757863
0.286701 0.159963 0.0755476
0.287199 0.159925 0.075419
0.287757 0.159864 0.0754009
0.288196 0.159851 0.0751622
0.288754 0.15979 0.0751441
0.289252 0.159752 0.0750156
0.289691 0.15974 0.0747769
0.29013 0.159727 0.0745383
0.29057 0.159714 0.0742995
0.291009 0.159701 0.0740609
0.291389 0.159713 0.073712
0.291769 0.159724 0.073363
0.292208 0.159711 0.0731243
0.292588 0.159723 0.0727753
0.292968 0.159734 0.0724264
0.293348 0.159746 0.0720774
0.293787 0.159733 0.0718388
0.294167 0.159745 0.0714899
0.294606 0.159732 0.0712512
0.295045 0.159719 0.0710125
0.295543 0.159682 0.070884
0.295924 0.159693 0.0705351
0.296362 0.15968 0.0702965
0.296743 0.159692 0.0699474
0.297122 0.159703 0.0695985
0.297503 0.159715 0.0692496
0.297823 0.159751 0.0687904
0.298144 0.159787 0.0683311
0.298465 0.159823 0.0678719
0.298845 0.159834 0.0675229
0.299165 0.15987 0.0670637
0.299605 0.159857 0.066825
0.300044 0.159845 0.0665863
0.300483 0.159832 0.0663477
0.300922 0.159819 0.066109
0.30142 0.159782 0.0659806
0.302274 0.159598 0.0665137
0.303424 0.159293 0.0675981
0.304218 0.159134 0.068021
0.305013 0.158975 0.068444
0.305748 0.15884 0.0687566
0.306661 0.158633 0.0693999
0.307515 0.158449 0.0699331
0.308309 0.15829 0.070356
0.309762 0.157849 0.0720064
0.31048 0.157718 0.0722871
0.311421 0.157491 0.0729833
0.312139 0.15736 0.073264
0.312802 0.157253 0.073441
0.313464 0.157145 0.0736178
0.31407 0.157061 0.0736907
0.314565 0.157024 0.0735559
0.315172 0.156941 0.0736289
0.315778 0.156857 0.0737018
0.316329 0.156796 0.073671
0.316935 0.156713 0.0737439
0.317486 0.156652 0.0737129
0.317981 0.156616 0.0735781
0.318532 0.156556 0.0735472
0.319027 0.156519 0.0734124
0.319522 0.156483 0.0732777
0.320016 0.156446 0.0731428
0.320511 0.156409 0.073008
0.321062 0.156349 0.0729772
0.321557 0.156313 0.0728422
0.322052 0.156276 0.0727075
0.322547 0.15624 0.0725727
0.323042 0.156203 0.0724379
0.323481 0.15619 0.0721993
0.323976 0.156154 0.0720645
0.324415 0.156141 0.0718258
0.324854 0.156128 0.0715871
0.325294 0.156115 0.0713484
0.325733 0.156102 0.0711097
0.326228 0.156066 0.0709749
0.326778 0.156006 0.0709439
0.327329 0.155945 0.070913
0.32788 0.155885 0.0708821
0.328375 0.155849 0.0707473
0.328925 0.155789 0.0707164
0.329476 0.155728 0.0706854
0.329915 0.155716 0.0704468
0.330466 0.155655 0.0704158
0.330905 0.155642 0.0701772
0.3314 0.155606 0.0700424
0.331839 0.155593 0.0698037
0.332278 0.15558 0.0695649
0.332718 0.155567 0.0693263
0.333157 0.155555 0.0690876
0.33354 0.155565 0.068745
0.333923 0.155576 0.0684024
0.334307 0.155587 0.0680599
0.33469 0.155598 0.0677173
0.335074 0.155609 0.0673748
0.335346 0.155667 0.0668244
0.335617 0.155725 0.0662741
0.335833 0.155807 0.0656199
0.336049 0.155889 0.0649655
0.336433 0.1559 0.0646231
0.336872 0.155887 0.0643843
0.337311 0.155874 0.0641457
0.337806 0.155838 0.0640108
0.338301 0.155801 0.0638761
0.33874 0.155789 0.0636374
0.339179 0.155776 0.0633987
0.339619 0.155763 0.06316
0.340002 0.155774 0.0628174
0.340441 0.155761 0.0625787
0.340825 0.155772 0.0622362
0.341208 0.155783 0.0618937
0.341591 0.155793 0.061551
0.341919 0.155828 0.0611046
0.342247 0.155863 0.0606581
0.342518 0.155921 0.0601078
0.34279 0.155979 0.0595574
0.343174 0.15599 0.0592148
0.343557 0.156001 0.0588723
0.34394 0.156012 0.0585297
0.34438 0.155999 0.058291
0.344763 0.15601 0.0579485
0.345147 0.156021 0.0576059
0.345474 0.156055 0.0571595
0.345746 0.156113 0.0566091
0.346018 0.156172 0.0560587
0.346346 0.156206 0.0556123
0.346673 0.156241 0.0551659
0.347001 0.156275 0.0547193
0.34744 0.156263 0.0544806
0.347767 0.156297 0.0540342
0.348151 0.156308 0.0536916
0.348478 0.156343 0.0532452
0.348806 0.156377 0.0527987
0.349134 0.156412 0.0523523
0.349405 0.15647 0.051802
0.349622 0.156552 0.0511478
0.349894 0.15661 0.0505973
0.350165 0.156668 0.050047
0.350381 0.15675 0.0493928
0.350653 0.156809 0.0488424
0.350925 0.156867 0.0482921
0.351197 0.156925 0.0477418
0.351465 0.156984 0.047185
0.351668 0.157069 0.0465054
0.35187 0.157153 0.0458257
0.351717 0.157384 0.0444844
0.351919 0.157469 0.0438046
0.35224 0.157505 0.0433454
0.352502 0.157565 0.0427759
0.352882 0.157576 0.042427
0.353202 0.157612 0.0419677
0.353464 0.157673 0.0413983
0.353844 0.157684 0.0410493
0.354105 0.157744 0.0404798
0.354426 0.15778 0.0400207
0.354569 0.157889 0.0392307
0.354771 0.157974 0.038551
0.355092 0.15801 0.0380917
0.355176 0.158143 0.0371915
0.355438 0.158203 0.036622
0.35564 0.158288 0.0359422
0.355961 0.158324 0.0354831
0.356281 0.15836 0.0350238
0.356602 0.158396 0.0345647
0.356923 0.158432 0.0341055
0.357066 0.158541 0.0333155
0.357268 0.158625 0.0326356
0.35753 0.158685 0.0320663
0.357318 0.158941 0.0306147
0.35746 0.159049 0.0298247
0.357663 0.159134 0.0291449
0.357806 0.159243 0.0283549
0.35789 0.159377 0.0274547
0.357974 0.15951 0.0265544
0.358117 0.159619 0.0257645
0.358201 0.159752 0.0248642
0.358225 0.15991 0.0238537
0.358368 0.160019 0.0230637
0.358275 0.160225 0.0218327
0.358299 0.160383 0.0208222
0.358265 0.160565 0.0197014
0.357934 0.160869 0.0180293
