ply
format ascii 1.0
element vertex 1743
property float x
property float y
property float z
end_header
0.266494 0.232891 0.10574
0.267111 0.232798 0.105813
0.26779 0.232676 0.105993
0.268468 0.232553 0.106174
0.269086 0.232462 0.106247
0.269642 0.232399 0.106213
0.270198 0.232336 0.106179
0.270754 0.232273 0.106145
0.271311 0.232211 0.10611
0.271867 0.232148 0.106076
0.272362 0.232115 0.105935
0.272918 0.232052 0.105901
0.273414 0.23202 0.10576
0.273847 0.232017 0.105511
0.274281 0.232014 0.105263
0.274776 0.231981 0.105121
0.27521 0.231977 0.104873
0.275705 0.231945 0.104732
0.276078 0.231971 0.104376
0.276512 0.231968 0.104127
0.276884 0.231995 0.103772
0.277318 0.231992 0.103523
0.277752 0.231989 0.103274
0.278063 0.232045 0.102811
0.278436 0.232071 0.102455
0.278809 0.232099 0.1021
0.279181 0.232126 0.101744
0.279493 0.232182 0.101281
0.279804 0.232238 0.100818
0.280116 0.232295 0.100355
0.280427 0.232351 0.0998921
0.280738 0.232407 0.099429
0.280989 0.232494 0.098859
0.2813 0.23255 0.0983959
0.28155 0.232637 0.0978258
0.281862 0.232693 0.0973628
0.282112 0.232779 0.0967926
0.282485 0.232805 0.0964368
0.282796 0.232862 0.0959738
0.283107 0.232919 0.095511
0.28348 0.232945 0.0951551
0.283791 0.233002 0.0946921
0.284103 0.233058 0.0942291
0.284475 0.233085 0.0938734
0.284726 0.233171 0.0933034
0.284854 0.233317 0.0925186
0.28492 0.233492 0.0916267
0.284497 0.233906 0.0898771
0.284441 0.234142 0.088771
0.284691 0.234227 0.0882005
0.28488 0.234344 0.0875233
0.285069 0.23446 0.0868458
0.285258 0.234575 0.0861683
0.285264 0.23478 0.0851692
0.284902 0.235165 0.0835269
0.284173 0.235728 0.0812413
0.284178 0.235933 0.0802422
0.284245 0.236108 0.0793502
0.283454 0.2367 0.0769572
0.283031 0.237114 0.0752075
0.282608 0.237527 0.0734579
0.281512 0.238269 0.070529
0.281272 0.238593 0.069101
0.2814 0.238739 0.0683163
0.281344 0.238975 0.0672101
0.281411 0.23915 0.0663182
0.281538 0.239296 0.0655336
0.281727 0.239411 0.0648561
0.281978 0.239498 0.064286
0.282105 0.239644 0.0635014
0.282295 0.23976 0.0628239
0.282422 0.239906 0.0620393
0.282611 0.240021 0.0613618
0.282861 0.240108 0.0607917
0.282913 0.240293 0.0598734
0.283217 0.240355 0.0593972
0.283261 0.240545 0.0584658
0.28337 0.240702 0.057648
0.24999 0.237612 0.0964872
0.251648 0.237012 0.0983828
0.252571 0.23677 0.0989919
0.253495 0.236528 0.099601
0.254173 0.236406 0.0997812
0.255097 0.236164 0.10039
0.255898 0.235982 0.100785
0.25676 0.23577 0.101287
0.257684 0.235528 0.101896
0.258485 0.235346 0.102291
0.259469 0.235074 0.103007
0.260209 0.234922 0.103294
0.261071 0.23471 0.103796
0.261811 0.234558 0.104084
0.262551 0.234406 0.104371
0.263229 0.234283 0.104551
0.263908 0.234161 0.104732
0.264526 0.234068 0.104805
0.265266 0.233916 0.105092
0.265822 0.233853 0.105058
0.2665 0.233731 0.105239
0.267118 0.233638 0.105312
0.267735 0.233545 0.105385
0.268353 0.233453 0.105458
0.26897 0.23336 0.105531
0.269588 0.233267 0.105604
0.270144 0.233205 0.10557
0.2707 0.233142 0.105536
0.271195 0.233109 0.105394
0.271751 0.233047 0.10536
0.272308 0.232983 0.105326
0.272803 0.232951 0.105185
0.273298 0.232917 0.105043
0.273793 0.232884 0.104902
0.274288 0.232852 0.104761
0.274783 0.232819 0.104619
0.275217 0.232816 0.104371
0.275589 0.232843 0.104015
0.276023 0.23284 0.103767
0.276457 0.232836 0.103518
0.276891 0.232833 0.103269
0.277263 0.232859 0.102914
0.277697 0.232856 0.102665
0.27807 0.232883 0.102309
0.278443 0.23291 0.101954
0.278815 0.232937 0.101598
0.279188 0.232964 0.101242
0.2795 0.23302 0.100779
0.279872 0.233047 0.100424
0.280183 0.233103 0.0999606
0.280495 0.233161 0.0994978
0.280745 0.233246 0.0989275
0.281057 0.233304 0.0984646
0.281368 0.23336 0.0980017
0.28168 0.233416 0.0975387
0.28193 0.233503 0.0969685
0.282302 0.23353 0.0966129
0.282614 0.233586 0.0961499
0.282925 0.233642 0.0956868
0.283298 0.233669 0.0953312
0.283671 0.233697 0.0949755
0.283982 0.233753 0.0945125
0.284293 0.233809 0.0940495
0.284544 0.233896 0.0934794
0.284794 0.233982 0.0929092
0.285044 0.234069 0.092339
0.284989 0.234304 0.0912329
0.284749 0.234629 0.0898051
0.284571 0.234925 0.0884847
0.28476 0.235041 0.0878072
0.284949 0.235157 0.08713
0.285016 0.235333 0.0862383
0.285082 0.23551 0.0853465
0.284843 0.235835 0.0839187
0.284665 0.23613 0.082598
0.284548 0.236395 0.0813848
0.284615 0.236571 0.080493
0.284069 0.237045 0.0785292
0.283707 0.23743 0.0768869
0.282917 0.238024 0.0744944
0.281576 0.238886 0.071137
0.281643 0.239062 0.0702453
0.281465 0.239357 0.0689247
0.281592 0.239503 0.06814
0.281659 0.239679 0.0672483
0.281787 0.239825 0.0664637
0.281976 0.239942 0.0657864
0.282104 0.240088 0.0650019
0.282293 0.240204 0.0643246
0.282543 0.240291 0.0637544
0.282732 0.240407 0.063077
0.282921 0.240523 0.0623997
0.28311 0.240639 0.0617222
0.283299 0.240756 0.061045
0.283424 0.240904 0.0602537
0.283598 0.241031 0.0595501
0.283836 0.241124 0.0589602
0.28414 0.241186 0.058484
0.284054 0.241441 0.0573249
0.284163 0.2416 0.0565075
0.250181 0.238371 0.0963097
0.251717 0.23783 0.0979906
0.252579 0.237618 0.0984925
0.253564 0.237345 0.0992085
0.254365 0.237163 0.099603
0.255166 0.23698 0.0999977
0.256089 0.236738 0.100607
0.25689 0.236555 0.101001
0.257813 0.236313 0.10161
0.258431 0.23622 0.101683
0.259415 0.235948 0.102399
0.260278 0.235736 0.102901
0.260956 0.235613 0.103081
0.261757 0.23543 0.103476
0.262497 0.235278 0.103763
0.263175 0.235155 0.103943
0.263854 0.235032 0.104124
0.264472 0.234939 0.104197
0.26515 0.234816 0.104377
0.265829 0.234693 0.104557
0.266446 0.234601 0.10463
0.267063 0.234508 0.104703
0.267681 0.234416 0.104776
0.268298 0.234323 0.104849
0.268855 0.234259 0.104815
0.269533 0.234137 0.104995
0.27009 0.234074 0.104961
0.270584 0.234041 0.10482
0.271141 0.233978 0.104786
0.271697 0.233916 0.104752
0.272192 0.233882 0.10461
0.272748 0.233819 0.104576
0.273243 0.233787 0.104435
0.273677 0.233784 0.104186
0.274172 0.23375 0.104045
0.274606 0.233747 0.103796
0.275101 0.233714 0.103655
0.275474 0.233741 0.103299
0.275908 0.233738 0.10305
0.276341 0.233735 0.102802
0.276836 0.233702 0.102661
0.277209 0.233729 0.102305
0.277643 0.233726 0.102056
0.278077 0.233722 0.101808
0.278449 0.23375 0.101452
0.278822 0.233776 0.101096
0.279134 0.233833 0.100634
0.279506 0.23386 0.100278
0.279879 0.233886 0.0999219
0.28019 0.233944 0.0994591
0.280441 0.23403 0.098889
0.280813 0.234057 0.0985334
0.281125 0.234113 0.0980703
0.281436 0.23417 0.0976074
0.281747 0.234227 0.0971446
0.28212 0.234253 0.0967887
0.282432 0.23431 0.096326
0.282743 0.234367 0.0958629
0.283116 0.234394 0.0955073
0.283488 0.234421 0.0951517
0.2838 0.234477 0.0946887
0.284111 0.234534 0.0942258
0.284423 0.234591 0.0937629
0.284673 0.234677 0.0931927
0.284923 0.234764 0.0926225
0.285113 0.23488 0.0919453
0.284996 0.235147 0.0907323
0.28494 0.235382 0.0896261
0.284945 0.235589 0.0886272
0.28489 0.235825 0.0875213
0.284957 0.236001 0.0866296
0.284901 0.236238 0.0855236
0.284845 0.236474 0.0844177
0.284973 0.23662 0.0836331
0.284856 0.236887 0.0824199
0.284984 0.237032 0.0816354
0.284561 0.237448 0.0798863
0.283894 0.237983 0.0777084
0.283287 0.238489 0.0756377
0.282803 0.238935 0.0737814
0.281707 0.239679 0.0708532
0.281713 0.239886 0.0698544
0.281718 0.240091 0.0688554
0.281724 0.240297 0.0678566
0.281913 0.240414 0.0671792
0.282163 0.2405 0.0666092
0.282291 0.240647 0.0658248
0.28248 0.240764 0.0651475
0.282669 0.24088 0.0644703
0.282858 0.240997 0.063793
0.28317 0.241053 0.06333
0.283298 0.2412 0.0625456
0.283609 0.241257 0.0620826
0.283737 0.241403 0.0612983
0.283987 0.24149 0.0607282
0.284108 0.241641 0.0599304
0.284347 0.241736 0.0593406
0.284456 0.241894 0.058523
0.284695 0.241989 0.0579333
0.284869 0.242115 0.0572295
0.284913 0.242306 0.0562983
0.285152 0.2424 0.0557083
0.250373 0.239131 0.0961323
0.251786 0.238649 0.0975986
0.252648 0.238435 0.0981001
0.25351 0.238223 0.0986019
0.254434 0.23798 0.0992108
0.255235 0.237797 0.0996051
0.256219 0.237524 0.100321
0.256837 0.23743 0.100394
0.257821 0.237158 0.10111
0.2585 0.237035 0.10129
0.259423 0.236792 0.101899
0.260101 0.236669 0.102079
0.261025 0.236427 0.102688
0.261642 0.236333 0.102761
0.262382 0.23618 0.103048
0.26306 0.236057 0.103228
0.263678 0.235964 0.103301
0.264356 0.235842 0.103482
0.265096 0.235688 0.103769
0.265714 0.235596 0.103842
0.266392 0.235472 0.104022
0.26701 0.235379 0.104095
0.267504 0.235346 0.103953
0.268122 0.235253 0.104027
0.268739 0.235161 0.1041
0.269357 0.235067 0.104172
0.269974 0.234974 0.104245
0.270469 0.234941 0.104104
0.271025 0.234878 0.10407
0.271582 0.234815 0.104036
0.272076 0.234782 0.103894
0.272572 0.234749 0.103753
0.273005 0.234746 0.103504
0.273501 0.234713 0.103363
0.273995 0.23468 0.103222
0.27449 0.234647 0.10308
0.274863 0.234674 0.102725
0.275419 0.23461 0.10269
0.275792 0.234637 0.102335
0.276287 0.234604 0.102193
0.27666 0.234631 0.101838
0.277155 0.234598 0.101696
0.277589 0.234595 0.101448
0.277961 0.234622 0.101092
0.278395 0.234619 0.100843
0.278829 0.234616 0.100595
0.27914 0.234673 0.100132
0.279513 0.234699 0.0997762
0.279824 0.234756 0.0993134
0.280197 0.234783 0.0989578
0.280509 0.23484 0.0984948
0.28082 0.234897 0.098032
0.281193 0.234924 0.0976764
0.281504 0.23498 0.0972134
0.281877 0.235008 0.0968577
0.282189 0.235065 0.0963949
0.282561 0.235091 0.0960391
0.282873 0.235148 0.0955763
0.283245 0.235175 0.0952206
0.283557 0.235232 0.0947576
0.283929 0.235259 0.094402
0.284241 0.235316 0.0939392
0.284491 0.235402 0.093369
0.284803 0.23546 0.0929062
0.285053 0.235546 0.0923361
0.285181 0.235693 0.0915517
0.285186 0.235899 0.090553
0.285131 0.236137 0.0894473
0.285198 0.236313 0.0885555
0.285142 0.23655 0.0874498
0.285086 0.236787 0.0863438
0.285092 0.236993 0.085345
0.285098 0.2372 0.0843464
0.285226 0.237347 0.0835621
0.28517 0.237583 0.0824562
0.284931 0.237909 0.0810286
0.284631 0.238267 0.0794941
0.283474 0.239042 0.0764591
0.282929 0.239519 0.074496
0.281711 0.240325 0.0713538
0.281777 0.240502 0.0704624
0.281783 0.240709 0.0694636
0.281666 0.240975 0.0682505
0.281978 0.241033 0.0677878
0.282167 0.241149 0.0671105
0.282478 0.241206 0.0666474
0.282606 0.241352 0.0658631
0.282795 0.241469 0.0651859
0.283046 0.241557 0.0646159
0.283235 0.241673 0.0639387
0.283485 0.24176 0.0633686
0.283674 0.241876 0.0626914
0.283925 0.241964 0.0621215
0.284175 0.24205 0.0615513
0.284364 0.242167 0.0608742
0.284553 0.242284 0.0601969
0.284792 0.242378 0.0596071
0.284966 0.242505 0.0589035
0.285076 0.242664 0.0580861
0.285314 0.242759 0.0574963
0.285424 0.242918 0.056679
0.285728 0.24298 0.0562029
0.285902 0.243107 0.0554993
0.285946 0.243298 0.0545681
0.28586 0.243555 0.0534095
0.25026 0.240042 0.0954194
0.251427 0.239677 0.0964564
0.252657 0.239284 0.0976009
0.253457 0.239101 0.0979953
0.254319 0.238887 0.0984969
0.25512 0.238704 0.0988912
0.256166 0.238401 0.0997143
0.256783 0.238307 0.0997872
0.257768 0.238034 0.100503
0.258507 0.237881 0.10079
0.259308 0.237697 0.101185
0.260048 0.237544 0.101472
0.26091 0.237331 0.101973
0.261527 0.237237 0.102046
0.262267 0.237084 0.102334
0.262884 0.23699 0.102406
0.263624 0.236838 0.102694
0.264241 0.236745 0.102767
0.264981 0.236591 0.103054
0.265598 0.236498 0.103127
0.266277 0.236374 0.103307
0.266833 0.236312 0.103273
0.267451 0.236218 0.103345
0.268068 0.236126 0.103418
0.268624 0.236062 0.103384
0.26918 0.235999 0.10335
0.269859 0.235876 0.10353
0.270354 0.235842 0.103389
0.27091 0.235779 0.103354
0.271405 0.235746 0.103213
0.2719 0.235713 0.103072
0.272334 0.23571 0.102823
0.27289 0.235647 0.102789
0.273385 0.235613 0.102647
0.273819 0.23561 0.102399
0.274314 0.235577 0.102257
0.274748 0.235574 0.102009
0.275243 0.235541 0.101868
0.275677 0.235538 0.101619
0.276172 0.235504 0.101478
0.276605 0.235501 0.101229
0.277039 0.235498 0.100981
0.277473 0.235495 0.100732
0.277907 0.235492 0.100484
0.278341 0.235489 0.100235
0.278713 0.235516 0.0998792
0.279086 0.235543 0.0995235
0.279459 0.23557 0.0991679
0.279832 0.235597 0.0988123
0.280204 0.235624 0.0984566
0.280516 0.235681 0.0979937
0.280888 0.235708 0.097638
0.2812 0.235765 0.0971752
0.281572 0.235792 0.0968196
0.281945 0.235819 0.096464
0.282318 0.235845 0.096108
0.282629 0.235903 0.0956452
0.283002 0.23593 0.0952896
0.283314 0.235987 0.0948268
0.283625 0.236043 0.0943638
0.283998 0.23607 0.0940082
0.284309 0.236128 0.0935453
0.284621 0.236185 0.0930826
0.284871 0.236271 0.0925125
0.28506 0.236389 0.0918355
0.285249 0.236506 0.0911582
0.285255 0.236713 0.0901596
0.285261 0.23692 0.0891611
0.28545 0.237037 0.0884838
0.285272 0.237335 0.0871639
0.285278 0.237542 0.0861653
0.285345 0.237719 0.0852738
0.285411 0.237896 0.0843823
0.285356 0.238133 0.0832766
0.285178 0.23843 0.0819564
0.284878 0.238788 0.0804223
0.283354 0.239746 0.0767448
0.282748 0.240253 0.0746745
0.28153 0.241061 0.0715329
0.28172 0.241179 0.070856
0.281725 0.241386 0.0698573
0.281792 0.241563 0.0689658
0.28192 0.24171 0.0681815
0.282171 0.241798 0.0676115
0.282482 0.241854 0.0671487
0.282671 0.241971 0.0664716
0.28286 0.242088 0.0657943
0.283111 0.242175 0.0652245
0.2833 0.242292 0.0645472
0.28355 0.24238 0.0639773
0.283739 0.242496 0.0633001
0.28399 0.242584 0.0627302
0.28424 0.24267 0.06216
0.284552 0.242728 0.0616973
0.284741 0.242844 0.0610201
0.28493 0.242962 0.060343
0.285173 0.243053 0.0597598
0.285412 0.243148 0.05917
0.285521 0.243308 0.0583528
0.28576 0.243403 0.057763
0.285934 0.24353 0.0570595
0.286108 0.243657 0.0563559
0.286412 0.243719 0.05588
0.286521 0.243878 0.0550626
0.286696 0.244006 0.0543593
0.286934 0.244101 0.0537695
0.287044 0.24426 0.0529521
0.251436 0.240528 0.0959578
0.252176 0.240374 0.0962448
0.253221 0.24007 0.0970676
0.254205 0.239796 0.0977834
0.255006 0.239612 0.0981775
0.255929 0.239368 0.0987862
0.256546 0.239275 0.098859
0.25747 0.239031 0.0994676
0.258515 0.238727 0.100291
0.259194 0.238603 0.10047
0.259933 0.238449 0.100757
0.260612 0.238327 0.100938
0.261474 0.238112 0.101439
0.262091 0.238019 0.101512
0.262769 0.237896 0.101692
0.263448 0.237772 0.101872
0.264065 0.237678 0.101945
0.264805 0.237525 0.102232
0.265422 0.237432 0.102305
0.266101 0.237308 0.102485
0.266779 0.237185 0.102665
0.267274 0.237152 0.102523
0.267892 0.237058 0.102596
0.268448 0.236995 0.102562
0.269065 0.236901 0.102635
0.269682 0.236807 0.102708
0.270178 0.236775 0.102566
0.270672 0.236742 0.102425
0.271229 0.236678 0.102391
0.271724 0.236645 0.102249
0.272219 0.236612 0.102108
0.272714 0.236578 0.101966
0.273147 0.236575 0.101718
0.273704 0.236512 0.101684
0.274137 0.236509 0.101435
0.274571 0.236506 0.101186
0.275005 0.236502 0.100938
0.275561 0.236439 0.100904
0.275995 0.236436 0.100655
0.276429 0.236433 0.100407
0.276863 0.23643 0.100158
0.277358 0.236396 0.100017
0.277792 0.236393 0.0997681
0.278164 0.23642 0.0994124
0.278659 0.236387 0.099271
0.279032 0.236414 0.0989154
0.279405 0.236441 0.0985597
0.279777 0.236468 0.098204
0.28015 0.236495 0.0978484
0.280462 0.236553 0.0973856
0.280834 0.23658 0.0970299
0.281207 0.236607 0.0966743
0.28158 0.236634 0.0963186
0.281952 0.236661 0.095963
0.282325 0.236688 0.0956074
0.282698 0.236714 0.0952514
0.283009 0.236772 0.0947887
0.283382 0.236799 0.094433
0.283755 0.236826 0.0940773
0.284066 0.236883 0.0936146
0.284317 0.23697 0.0930447
0.284628 0.237028 0.0925819
0.284878 0.237114 0.0920119
0.285068 0.237232 0.0913348
0.285318 0.237319 0.090765
0.285324 0.237527 0.0897664
0.285452 0.237674 0.0889822
0.285457 0.237882 0.0879837
0.285402 0.23812 0.0868781
0.285347 0.238357 0.0857725
0.285475 0.238505 0.0849883
0.285358 0.238773 0.0837755
0.285364 0.23898 0.082777
0.285247 0.239249 0.0815644
0.28299 0.24057 0.0766018
0.282507 0.241018 0.0747463
0.281534 0.241707 0.0720335
0.281478 0.241946 0.0709281
0.281606 0.242093 0.0701437
0.281796 0.24221 0.0694667
0.281862 0.242388 0.0685755
0.282113 0.242475 0.0680054
0.282424 0.242532 0.0675426
0.282736 0.242589 0.0670798
0.282925 0.242707 0.0664029
0.283175 0.242794 0.0658327
0.283426 0.242881 0.0652628
0.283554 0.243029 0.0644787
0.283865 0.243086 0.0640159
0.284116 0.243172 0.0634458
0.284305 0.24329 0.0627688
0.284617 0.243347 0.062306
0.284806 0.243465 0.061629
0.285056 0.243552 0.0610589
0.285306 0.243639 0.060489
0.285553 0.243728 0.0599124
0.285792 0.243824 0.0593229
0.286031 0.243919 0.0587331
0.286205 0.244046 0.0580296
0.286315 0.244206 0.0572124
0.286554 0.244301 0.0566228
0.286858 0.244363 0.0561467
0.287032 0.244491 0.0554433
0.287271 0.244586 0.0548535
0.287445 0.244713 0.0541502
0.287749 0.244776 0.0536742
0.287729 0.245 0.0526295
0.287968 0.245095 0.0520397
0.288142 0.245223 0.0513364
0.252001 0.241315 0.0954247
0.25274 0.241161 0.0957118
0.253847 0.240826 0.0966415
0.254709 0.240613 0.097143
0.255693 0.240338 0.0978586
0.256432 0.240184 0.0981456
0.257355 0.239939 0.098754
0.258034 0.239815 0.0989339
0.259018 0.239541 0.0996494
0.259758 0.239387 0.0999364
0.260436 0.239263 0.100116
0.261237 0.239079 0.10051
0.261977 0.238925 0.100798
0.262594 0.238831 0.10087
0.263272 0.238707 0.10105
0.263889 0.238614 0.101123
0.264629 0.238459 0.10141
0.265307 0.238336 0.10159
0.265986 0.238212 0.10177
0.266542 0.238148 0.101736
0.267098 0.238085 0.101701
0.267654 0.238022 0.101667
0.268333 0.237898 0.101847
0.26895 0.237804 0.10192
0.269445 0.237771 0.101778
0.270001 0.237707 0.101744
0.270496 0.237674 0.101603
0.271052 0.237611 0.101568
0.271547 0.237577 0.101427
0.272042 0.237544 0.101286
0.272537 0.237511 0.101144
0.273032 0.237477 0.101003
0.273466 0.237474 0.100754
0.2739 0.237471 0.100506
0.274395 0.237438 0.100364
0.27489 0.237405 0.100223
0.275385 0.237371 0.100081
0.275758 0.237399 0.0997257
0.276314 0.237335 0.0996914
0.276748 0.237332 0.0994429
0.277182 0.237329 0.0991944
0.277615 0.237326 0.0989459
0.278049 0.237323 0.0986973
0.278483 0.23732 0.0984488
0.278917 0.237317 0.0982002
0.27929 0.237344 0.0978445
0.279662 0.237371 0.0974889
0.280035 0.237398 0.0971332
0.280408 0.237425 0.0967776
0.280841 0.237422 0.0965291
0.281214 0.237449 0.0961733
0.281587 0.237476 0.0958177
0.28196 0.237503 0.0954621
0.282271 0.23756 0.0949993
0.282644 0.237587 0.0946436
0.283017 0.237614 0.094288
0.283389 0.237642 0.0939323
0.28364 0.237729 0.0933625
0.284012 0.237756 0.0930069
0.284263 0.237843 0.0924369
0.284575 0.237901 0.0919742
0.284886 0.237958 0.0915114
0.285075 0.238076 0.0908344
0.285264 0.238193 0.0901574
0.285392 0.238341 0.0893733
0.285459 0.238519 0.0884821
0.285465 0.238727 0.0874837
0.285471 0.238936 0.0864853
0.285416 0.239174 0.08538
0.285422 0.239382 0.0843816
0.285427 0.23959 0.0833832
0.285189 0.239919 0.0819564
0.284705 0.240369 0.0801011
0.281959 0.241934 0.0742823
0.281231 0.242505 0.0719986
0.281237 0.242713 0.0710003
0.281487 0.2428 0.0704303
0.281615 0.242948 0.0696462
0.281744 0.243096 0.0688621
0.282055 0.243153 0.0683993
0.282305 0.24324 0.0678295
0.282617 0.243298 0.0673667
0.282929 0.243355 0.0669039
0.283179 0.243442 0.066334
0.283429 0.24353 0.0657642
0.28368 0.243617 0.0651942
0.283869 0.243735 0.0645172
0.28412 0.243822 0.0639474
0.28437 0.24391 0.0633775
0.284681 0.243967 0.0629147
0.284932 0.244055 0.0623449
0.285182 0.244141 0.0617747
0.285432 0.244229 0.0612049
0.285683 0.244316 0.060635
0.285933 0.244404 0.060065
0.286108 0.244531 0.0593617
0.286347 0.244627 0.0587722
0.286586 0.244722 0.0581824
0.28676 0.24485 0.0574791
0.286999 0.244945 0.0568896
0.287238 0.24504 0.0562997
0.287477 0.245136 0.0557103
0.287717 0.24523 0.0551205
0.287891 0.245358 0.0544172
0.288195 0.245421 0.0539412
0.288304 0.245581 0.053124
0.288543 0.245676 0.0525345
0.288782 0.245771 0.0519447
0.289021 0.245866 0.0513552
0.289131 0.246027 0.050538
0.25226 0.242254 0.0943564
0.254044 0.241794 0.0954658
0.255457 0.241308 0.0969312
0.256257 0.241123 0.0973251
0.256997 0.240969 0.0976121
0.257736 0.240815 0.0978991
0.258782 0.240509 0.0987215
0.259399 0.240415 0.0987943
0.260199 0.24023 0.0991883
0.260878 0.240106 0.0993681
0.261679 0.239922 0.0997623
0.262235 0.239859 0.099728
0.263035 0.239674 0.100122
0.263714 0.23955 0.100302
0.26427 0.239486 0.100268
0.264948 0.239362 0.100448
0.265688 0.239208 0.100734
0.266305 0.239114 0.100807
0.266922 0.23902 0.10088
0.267478 0.238957 0.100846
0.268034 0.238893 0.100811
0.268713 0.238769 0.100991
0.269269 0.238705 0.100957
0.269825 0.238642 0.100922
0.270259 0.238638 0.100674
0.270754 0.238605 0.100532
0.271371 0.238512 0.100605
0.271928 0.238448 0.100571
0.272361 0.238445 0.100322
0.272856 0.238412 0.100181
0.27329 0.238409 0.0999324
0.273663 0.238436 0.0995768
0.274158 0.238402 0.0994353
0.274653 0.238369 0.099294
0.275087 0.238366 0.0990454
0.275643 0.238303 0.099011
0.276077 0.2383 0.0987625
0.276572 0.238266 0.0986211
0.276944 0.238293 0.0982654
0.277439 0.23826 0.098124
0.277812 0.238287 0.0977683
0.278307 0.238254 0.097627
0.278741 0.238251 0.0973784
0.279114 0.238278 0.0970227
0.279547 0.238275 0.0967741
0.279981 0.238272 0.0965256
0.280354 0.238299 0.09617
0.280727 0.238326 0.0958144
0.281099 0.238353 0.0954587
0.281472 0.23838 0.0951031
0.281906 0.238377 0.0948546
0.282279 0.238404 0.0944989
0.28259 0.238461 0.0940362
0.282963 0.238488 0.0936804
0.283274 0.238546 0.0932177
0.283586 0.238603 0.092755
0.283897 0.23866 0.0922922
0.284209 0.238718 0.0918297
0.284582 0.238746 0.091474
0.28471 0.238893 0.0906899
0.285021 0.238951 0.0902271
0.285089 0.239129 0.0893359
0.285278 0.239247 0.0886591
0.285284 0.239456 0.0876608
0.285351 0.239633 0.0867696
0.285357 0.239843 0.0857715
0.285363 0.240051 0.0847731
0.285124 0.240381 0.0833465
0.284824 0.240741 0.0818129
0.280434 0.243335 0.0721051
0.280745 0.243392 0.0716423
0.280934 0.24351 0.0709653
0.281185 0.243598 0.0703956
0.281436 0.243686 0.0698258
0.281686 0.243773 0.0692559
0.281936 0.243861 0.068686
0.282248 0.243918 0.0682232
0.282559 0.243975 0.0677605
0.282871 0.244033 0.0672979
0.283122 0.244121 0.066728
0.283433 0.244178 0.0662653
0.283683 0.244265 0.0656954
0.283995 0.244323 0.0652326
0.284184 0.24444 0.0645557
0.284435 0.244529 0.063986
0.284685 0.244616 0.0634161
0.284997 0.244674 0.0629533
0.285247 0.244761 0.0623835
0.285559 0.244818 0.0619207
0.285687 0.244966 0.0611366
0.285998 0.245024 0.0606741
0.286249 0.245112 0.0601041
0.286423 0.24524 0.0594008
0.286727 0.245302 0.0589249
0.286901 0.24543 0.0582215
0.287141 0.245526 0.057632
0.287445 0.245588 0.057156
0.287619 0.245717 0.0564529
0.287923 0.245779 0.0559769
0.288097 0.245907 0.0552735
0.288401 0.24597 0.0547976
0.288575 0.246097 0.0540943
0.28888 0.246161 0.0536185
0.289054 0.246289 0.0529152
0.289293 0.246384 0.0523257
0.289532 0.246479 0.0517359
0.289771 0.246575 0.0511463
0.289946 0.246702 0.050443
0.28986 0.246962 0.049285
0.255043 0.242579 0.0946846
0.257439 0.241815 0.0968646
0.258117 0.241691 0.0970443
0.258918 0.241505 0.0974382
0.259657 0.241352 0.0977253
0.260274 0.241257 0.0977978
0.260892 0.241163 0.0978706
0.261937 0.240857 0.098693
0.262738 0.240672 0.0990869
0.263416 0.240547 0.0992666
0.264094 0.240424 0.0994465
0.264651 0.24036 0.0994122
0.265451 0.240175 0.0998061
0.266068 0.24008 0.0998787
0.266686 0.239987 0.0999515
0.267242 0.239923 0.0999172
0.267675 0.23992 0.0996687
0.268293 0.239826 0.0997413
0.269032 0.239672 0.100028
0.269466 0.239668 0.0997797
0.270144 0.239544 0.0999594
0.270517 0.239571 0.0996038
0.271012 0.239538 0.0994623
0.271629 0.239444 0.0995352
0.272124 0.239411 0.0993937
0.272497 0.239438 0.0990381
0.272931 0.239435 0.0987896
0.273548 0.23934 0.0988622
0.273982 0.239337 0.0986136
0.274416 0.239334 0.098365
0.274911 0.239301 0.0982236
0.275283 0.239328 0.097868
0.275717 0.239325 0.0976194
0.276212 0.239291 0.097478
0.276585 0.239319 0.0971223
0.27708 0.239285 0.0969809
0.277575 0.239252 0.0968395
0.277887 0.239309 0.0963767
0.278381 0.239276 0.0962353
0.278877 0.239242 0.0960939
0.27931 0.239239 0.0958454
0.279744 0.239236 0.0955968
0.280117 0.239263 0.0952412
0.28049 0.239291 0.0948856
0.280923 0.239287 0.094637
0.281357 0.239284 0.0943884
0.28173 0.239311 0.0940328
0.282103 0.239339 0.0936773
0.282476 0.239367 0.0933217
0.282726 0.239454 0.0927518
0.283099 0.239481 0.0923962
0.28341 0.239538 0.0919334
0.283783 0.239566 0.091578
0.284033 0.239654 0.0910081
0.284345 0.239711 0.0905454
0.284534 0.23983 0.0898686
0.284724 0.239947 0.0891916
0.284913 0.240066 0.0885149
0.285041 0.240215 0.087731
0.285047 0.240423 0.0867327
0.28487 0.240723 0.0854134
0.284937 0.240902 0.0845225
0.284576 0.241293 0.0828816
0.284276 0.241654 0.0813482
0.28007 0.244163 0.0719632
0.280504 0.24416 0.0717147
0.280632 0.244308 0.0709306
0.280944 0.244366 0.070468
0.281194 0.244454 0.0698982
0.281445 0.244541 0.0693283
0.281818 0.244569 0.0689729
0.282129 0.244626 0.0685101
0.28238 0.244714 0.0679402
0.282752 0.244741 0.0675846
0.283064 0.244799 0.067122
0.283314 0.244887 0.0665521
0.283626 0.244944 0.0660894
0.283938 0.245002 0.0656269
0.284188 0.245089 0.065057
0.284499 0.245147 0.0645942
0.28475 0.245235 0.0640246
0.285 0.245323 0.0634546
0.285312 0.24538 0.062992
0.285563 0.245468 0.0624223
0.285813 0.245556 0.0618524
0.286063 0.245643 0.0612825
0.286314 0.245732 0.0607129
0.286564 0.245819 0.060143
0.286804 0.245915 0.0595535
0.287108 0.245977 0.0590775
0.287282 0.246106 0.0583744
0.287521 0.246202 0.0577848
0.287825 0.246264 0.0573089
0.288064 0.24636 0.0567193
0.288304 0.246455 0.0561298
0.288543 0.246551 0.0555403
0.288782 0.246647 0.0549507
0.289021 0.246742 0.0543612
0.289325 0.246804 0.0538852
0.289564 0.2469 0.0532957
0.289804 0.246996 0.0527061
0.290043 0.247091 0.0521166
0.290282 0.247187 0.051527
0.290521 0.247283 0.0509376
0.29076 0.247378 0.050348
0.291 0.247474 0.0497584
0.290979 0.247701 0.0487143
0.256903 0.243148 0.094404
0.257398 0.243114 0.0942626
0.258443 0.242808 0.0950848
0.259794 0.242349 0.0964421
0.260289 0.242316 0.0963008
0.261028 0.242161 0.0965876
0.262196 0.241793 0.0976239
0.262752 0.241729 0.0975894
0.26343 0.241604 0.0977691
0.264169 0.241449 0.0980559
0.264787 0.241356 0.0981287
0.265648 0.241139 0.0986294
0.26596 0.241197 0.098167
0.266699 0.241043 0.0984537
0.267317 0.240948 0.0985263
0.267811 0.240915 0.0983849
0.268368 0.240851 0.0983506
0.269046 0.240727 0.0985303
0.26948 0.240723 0.0982817
0.270097 0.240629 0.0983542
0.270592 0.240596 0.0982128
0.271209 0.240501 0.0982854
0.271704 0.240468 0.098144
0.272199 0.240434 0.0980026
0.272633 0.240431 0.097754
0.273067 0.240428 0.0975055
0.273562 0.240395 0.097364
0.273935 0.240422 0.0970084
0.274491 0.240359 0.0969741
0.274924 0.240355 0.0967256
0.275297 0.240382 0.0963699
0.275853 0.240318 0.0963354
0.276226 0.240346 0.09598
0.276721 0.240312 0.0958383
0.277155 0.240309 0.0955898
0.277589 0.240306 0.0953412
0.278084 0.240272 0.0951998
0.278517 0.240269 0.0949512
0.27889 0.240296 0.0945956
0.279385 0.240263 0.0944542
0.279758 0.24029 0.0940986
0.280253 0.240257 0.0939571
0.280625 0.240284 0.0936015
0.281059 0.240281 0.093353
0.281371 0.240339 0.0928903
0.281805 0.240336 0.0926418
0.282055 0.240423 0.092072
0.282489 0.24042 0.0918234
0.282862 0.240449 0.091468
0.283235 0.240476 0.0911123
0.283485 0.240563 0.0905425
0.283674 0.240682 0.0898658
0.283864 0.2408 0.089189
0.284237 0.240827 0.0888334
0.28412 0.241098 0.0876212
0.28431 0.241216 0.0869445
0.284255 0.241456 0.0858393
0.284261 0.241666 0.0848414
0.284022 0.241997 0.0834151
0.279456 0.244903 0.0723911
0.279768 0.244961 0.0719285
0.280202 0.244958 0.07168
0.280391 0.245077 0.0710032
0.280703 0.245134 0.0705405
0.280953 0.245222 0.0699708
0.281265 0.24528 0.069508
0.281637 0.245307 0.0691524
0.281949 0.245365 0.0686898
0.282261 0.245422 0.0682271
0.282572 0.245479 0.0677643
0.282945 0.245508 0.0674089
0.283257 0.245565 0.0669461
0.283507 0.245653 0.0663765
0.283819 0.245711 0.0659138
0.28413 0.245768 0.065451
0.284442 0.245826 0.0649885
0.284692 0.245913 0.0644186
0.285004 0.245972 0.063956
0.285255 0.246059 0.0633862
0.285566 0.246117 0.0629236
0.285878 0.246175 0.0624609
0.286128 0.246263 0.0618912
0.28644 0.24632 0.0614285
0.28669 0.246409 0.0608588
0.286941 0.246496 0.0602889
0.287184 0.24659 0.0597061
0.287423 0.246685 0.0591166
0.287662 0.246782 0.0585272
0.287967 0.246844 0.0580513
0.288141 0.246973 0.0573481
0.288445 0.247036 0.0568722
0.288749 0.247099 0.0563965
0.288988 0.247195 0.0558069
0.289227 0.24729 0.0552174
0.289467 0.247387 0.0546281
0.289706 0.247482 0.0540385
0.29001 0.247545 0.0535626
0.290249 0.24764 0.052973
0.290489 0.247737 0.0523837
0.290793 0.2478 0.0519078
0.291032 0.247895 0.0513182
0.291271 0.247992 0.0507289
0.291575 0.248054 0.0502529
0.291685 0.248216 0.0494362
0.291989 0.248279 0.0489603
0.292228 0.248375 0.0483709
0.292273 0.248569 0.0474404
0.258085 0.243841 0.0939438
0.25858 0.243808 0.0938024
0.26012 0.243467 0.0944829
0.260309 0.243585 0.0938061
0.262026 0.242944 0.0958058
0.262949 0.242696 0.0964134
0.263444 0.242663 0.096272
0.264428 0.242386 0.0969869
0.264923 0.242352 0.0968454
0.265785 0.242137 0.0973463
0.266218 0.242134 0.0970978
0.266713 0.242099 0.0969562
0.267208 0.242066 0.0968147
0.267887 0.241941 0.0969944
0.268626 0.241786 0.0972813
0.268999 0.241813 0.0969256
0.269494 0.24178 0.0967842
0.269866 0.241807 0.0964285
0.270667 0.241621 0.0968221
0.271284 0.241527 0.0968947
0.271657 0.241555 0.0965393
0.27203 0.241582 0.0961837
0.272647 0.241487 0.0962563
0.273203 0.241424 0.0962219
0.273637 0.241421 0.0959734
0.274071 0.241418 0.0957248
0.274688 0.241323 0.0957975
0.274877 0.241441 0.0951207
0.27525 0.241468 0.0947651
0.275684 0.241465 0.0945165
0.276056 0.241493 0.0941608
0.276857 0.241307 0.0945548
0.277046 0.241426 0.093878
0.277297 0.241514 0.0933083
0.277914 0.24142 0.0933809
0.278348 0.241417 0.0931324
0.278476 0.241565 0.0923485
0.279032 0.241502 0.0923142
0.279649 0.241407 0.0923868
0.279778 0.241556 0.0916029
0.280334 0.241493 0.0915686
0.280645 0.24155 0.0911058
0.281079 0.241547 0.0908573
0.281513 0.241544 0.0906087
0.281764 0.241632 0.0900391
0.281892 0.241781 0.0892552
0.282326 0.241778 0.0890067
0.282087 0.24211 0.0875806
0.282766 0.241985 0.0877603
0.282466 0.242348 0.0862273
0.283022 0.242283 0.0861928
0.282973 0.242734 0.08409
0.278164 0.245769 0.0726394
0.278842 0.245644 0.0728191
0.279154 0.245702 0.0723566
0.279527 0.245729 0.0720009
0.279838 0.245786 0.0715382
0.28015 0.245844 0.0710756
0.280401 0.245933 0.070506
0.280712 0.24599 0.0700432
0.281085 0.246018 0.0696879
0.281396 0.246076 0.0692251
0.281769 0.246103 0.0688693
0.28202 0.246191 0.0682997
0.282454 0.246188 0.0680512
0.282765 0.246246 0.0675887
0.283077 0.246303 0.0671259
0.283389 0.246362 0.0666634
0.283639 0.24645 0.0660937
0.284012 0.246477 0.0657381
0.284262 0.246566 0.0651684
0.284513 0.246654 0.0645988
0.284824 0.246711 0.064136
0.285136 0.246769 0.0636735
0.285509 0.246797 0.0633179
0.28582 0.246854 0.0628551
0.286132 0.246912 0.0623926
0.286444 0.24697 0.0619301
0.286755 0.247028 0.0614673
0.287006 0.247116 0.0608976
0.287317 0.247173 0.0604349
0.287629 0.247231 0.0599724
0.287868 0.247327 0.0593828
0.288107 0.247424 0.0587935
0.288347 0.247519 0.058204
0.288586 0.247616 0.0576146
0.288826 0.247712 0.0570251
0.289129 0.247775 0.0565494
0.289369 0.247871 0.05596
0.289673 0.247934 0.0554841
0.289847 0.248063 0.054781
0.290151 0.248126 0.0543052
0.290391 0.248223 0.0537159
0.29063 0.248318 0.0531264
0.290934 0.248382 0.0526506
0.291238 0.248444 0.0521746
0.291542 0.248507 0.051699
0.291781 0.248603 0.0511094
0.292021 0.2487 0.0505201
0.29226 0.248795 0.0499305
0.292499 0.248892 0.0493412
0.292868 0.248922 0.0489791
0.292978 0.249084 0.0481624
0.293152 0.249213 0.0474592
0.293327 0.249342 0.0467561
0.29376 0.249339 0.0465075
0.263337 0.243784 0.0945612
0.264259 0.243537 0.0951691
0.26451 0.243626 0.0945994
0.26531 0.24344 0.0949931
0.265622 0.243497 0.0945304
0.266789 0.243128 0.0955662
0.267223 0.243125 0.0953177
0.267962 0.242969 0.0956042
0.268335 0.242997 0.0952488
0.26883 0.242963 0.0951072
0.269508 0.242838 0.0952869
0.269881 0.242865 0.0949312
0.270498 0.24277 0.0950038
0.271054 0.242707 0.0949694
0.271671 0.242612 0.095042
0.272044 0.242639 0.0946864
0.272478 0.242636 0.0944379
0.27285 0.242663 0.0940822
0.273345 0.24263 0.0939408
0.273779 0.242627 0.0936922
0.274457 0.242502 0.0938719
0.27483 0.242529 0.0935163
0.275081 0.242618 0.0929466
0.275637 0.242553 0.0929121
0.275948 0.242611 0.0924496
0.276443 0.242578 0.0923081
0.277 0.242514 0.0922735
0.277067 0.242694 0.0913828
0.277745 0.242569 0.0915625
0.277995 0.242657 0.0909928
0.278246 0.242746 0.0904232
0.278191 0.242986 0.0893183
0.279114 0.24274 0.0899261
0.278692 0.243163 0.088179
0.279431 0.243008 0.0884658
0.279743 0.243065 0.088003
0.28 0.243365 0.0864357
0.27675 0.246695 0.0726738
0.277367 0.246601 0.0727463
0.277923 0.246537 0.072712
0.278479 0.246473 0.0726775
0.278852 0.2465 0.0723219
0.279286 0.246497 0.0720734
0.279536 0.246585 0.0715037
0.279848 0.246644 0.0710412
0.28016 0.246702 0.0705786
0.280471 0.246759 0.0701158
0.280844 0.246787 0.0697604
0.281155 0.246844 0.0692977
0.281528 0.246872 0.0689423
0.28184 0.24693 0.0684795
0.282213 0.246958 0.0681241
0.282647 0.246955 0.0678756
0.282897 0.247043 0.067306
0.28327 0.24707 0.0669503
0.28352 0.247159 0.0663806
0.283893 0.247187 0.0660252
0.284082 0.247305 0.0653485
0.284272 0.247424 0.0646717
0.284523 0.247512 0.0641021
0.284834 0.24757 0.0636395
0.285268 0.247567 0.063391
0.285641 0.247594 0.0630354
0.286014 0.247623 0.0626799
0.286325 0.24768 0.0622172
0.286698 0.247708 0.0618617
0.28701 0.247765 0.061399
0.287382 0.247793 0.0610436
0.287694 0.24785 0.0605808
0.288006 0.247909 0.0601183
0.288249 0.248002 0.0595355
0.288488 0.248099 0.0589462
0.288727 0.248195 0.0583569
0.289031 0.248259 0.0578811
0.289271 0.248354 0.0572915
0.28951 0.248451 0.0567023
0.289814 0.248514 0.0562265
0.290054 0.248611 0.0556372
0.290293 0.248706 0.0550476
0.290597 0.24877 0.0545719
0.290771 0.2489 0.053869
0.29114 0.24893 0.0535068
0.29138 0.249025 0.0529174
0.291684 0.249089 0.0524416
0.291923 0.249185 0.0518523
0.292227 0.249249 0.0513765
0.292466 0.249344 0.050787
0.29277 0.249408 0.0503113
0.293075 0.249471 0.0498355
0.293314 0.249568 0.0492462
0.293553 0.249664 0.0486569
0.293793 0.24976 0.0480673
0.294032 0.249857 0.047478
0.294401 0.249887 0.0471158
0.294576 0.250016 0.046413
0.29475 0.250145 0.0457098
0.294989 0.250242 0.0451205
0.264769 0.244565 0.0935311
0.264958 0.244684 0.0928546
0.267671 0.244182 0.0935726
0.268288 0.244088 0.0936452
0.268783 0.244053 0.0935035
0.269217 0.24405 0.093255
0.269651 0.244047 0.0930065
0.269901 0.244137 0.092437
0.27058 0.244011 0.0926166
0.271197 0.243916 0.092689
0.271875 0.243791 0.0928685
0.272309 0.243787 0.09262
0.272681 0.243815 0.0922643
0.272443 0.244148 0.0908387
0.273305 0.243931 0.0913392
0.274289 0.243653 0.0920537
0.2746 0.243711 0.0915912
0.275034 0.243708 0.0913427
0.275285 0.243796 0.090773
0.275352 0.243977 0.0898826
0.275602 0.244065 0.0893129
0.276342 0.243909 0.0895995
0.275737 0.244426 0.0875316
0.27666 0.244179 0.0881393
0.277093 0.244176 0.0878908
0.277588 0.244141 0.0877491
0.274603 0.247991 0.0714245
0.275586 0.247713 0.0721391
0.276326 0.247557 0.0724256
0.27676 0.247554 0.072177
0.277438 0.247428 0.0723564
0.27781 0.247456 0.0720011
0.278305 0.247422 0.0718594
0.278739 0.247419 0.0716109
0.279112 0.247447 0.0712555
0.279485 0.247474 0.0708999
0.279857 0.247501 0.0705441
0.28023 0.247529 0.0701887
0.280603 0.247556 0.0698332
0.280976 0.247584 0.0694776
0.281348 0.247611 0.069122
0.28166 0.247669 0.0686595
0.282033 0.247696 0.0683039
0.282406 0.247725 0.0679485
0.282717 0.247782 0.0674857
0.28309 0.24781 0.0671303
0.283402 0.247868 0.0666678
0.283713 0.247926 0.0662053
0.283903 0.248045 0.0655285
0.284093 0.248164 0.064852
0.284221 0.248314 0.0640683
0.284471 0.248403 0.0634987
0.284844 0.248431 0.0631433
0.285217 0.248458 0.0627876
0.285651 0.248455 0.0625392
0.286085 0.248452 0.0622906
0.286518 0.248448 0.062042
0.286891 0.248475 0.0616864
0.287264 0.248503 0.061331
0.287637 0.248531 0.0609753
0.288009 0.248559 0.0606199
0.288321 0.248616 0.0601571
0.288629 0.248677 0.0596881
0.288869 0.248774 0.0590988
0.289173 0.248837 0.0586231
0.289412 0.248934 0.0580338
0.289651 0.24903 0.0574445
0.289891 0.249127 0.0568551
0.29026 0.249157 0.056493
0.290499 0.249254 0.0559037
0.290738 0.24935 0.0553144
0.290978 0.249447 0.054725
0.291282 0.24951 0.0542493
0.291586 0.249574 0.0537736
0.291825 0.24967 0.0531842
0.29213 0.249734 0.0527085
0.292434 0.249797 0.0522328
0.292673 0.249893 0.0516434
0.292977 0.249957 0.0511677
0.293281 0.25002 0.050692
0.29365 0.25005 0.0503299
0.293825 0.25018 0.0496269
0.294064 0.250277 0.0490376
0.294368 0.25034 0.0485619
0.294608 0.250437 0.0479726
0.294912 0.2505 0.0474968
0.295151 0.250597 0.0469075
0.29539 0.250694 0.0463181
0.295759 0.250724 0.045956
0.295934 0.250853 0.0452531
0.296238 0.250917 0.0447774
0.296088 0.251213 0.0435065
0.296392 0.251275 0.0430306
0.254905 0.251927 0.0686771
0.255728 0.251724 0.0691101
0.256616 0.251488 0.0696565
0.257438 0.251284 0.0700894
0.257807 0.251315 0.0697274
0.258177 0.251345 0.0693653
0.258675 0.251309 0.0692304
0.25885 0.251439 0.0685274
0.259089 0.251536 0.0679381
0.259199 0.2517 0.0671218
0.259114 0.251962 0.0659646
0.259094 0.252193 0.064921
0.259204 0.252356 0.0641045
0.259119 0.25262 0.0629474
0.273317 0.249071 0.070676
0.274362 0.248761 0.0714974
0.275162 0.248574 0.0718909
0.275657 0.248541 0.0717494
0.276274 0.248445 0.0718217
0.27683 0.248381 0.0717872
0.277325 0.248347 0.0716457
0.277698 0.248374 0.0712901
0.278254 0.24831 0.0712556
0.278688 0.248307 0.0710071
0.279122 0.248304 0.0707585
0.279555 0.248301 0.07051
0.279928 0.248329 0.0701545
0.280362 0.248326 0.069906
0.280735 0.248353 0.0695504
0.281108 0.248381 0.069195
0.28148 0.248408 0.0688393
0.281853 0.248436 0.0684839
0.282165 0.248494 0.0680213
0.282538 0.248521 0.0676657
0.282911 0.248549 0.0673103
0.283283 0.248576 0.0669546
0.283595 0.248635 0.0664922
0.283846 0.248724 0.0659227
0.284096 0.248813 0.0653531
0.284225 0.248962 0.0645695
0.284353 0.249113 0.0637861
0.284604 0.249201 0.0632164
0.284854 0.249291 0.0626471
0.285227 0.249318 0.0622914
0.2856 0.249346 0.061936
0.286095 0.249312 0.0617943
0.286528 0.249308 0.0615458
0.287023 0.249275 0.0614043
0.287457 0.249272 0.0611558
0.28783 0.249299 0.0608002
0.288264 0.249296 0.0605516
0.288576 0.249354 0.0600891
0.28888 0.249418 0.0596133
0.289184 0.249482 0.0591379
0.289553 0.249512 0.0587757
0.289792 0.249609 0.0581864
0.290096 0.249672 0.0577107
0.290401 0.249735 0.0572349
0.29064 0.249832 0.0566457
0.290944 0.249896 0.0561701
0.291248 0.24996 0.0556944
0.291488 0.250056 0.055105
0.291792 0.25012 0.0546293
0.292031 0.250216 0.05404
0.292271 0.250314 0.0534509
0.29264 0.250344 0.0530888
0.292879 0.250441 0.0524995
0.293183 0.250504 0.0520237
0.293488 0.250567 0.051548
0.293792 0.250631 0.0510723
0.294096 0.250695 0.0505967
0.2944 0.250759 0.050121
0.294639 0.250855 0.0495317
0.294879 0.250951 0.0489423
0.295248 0.250982 0.0485802
0.295487 0.251079 0.0479911
0.295727 0.251176 0.0474018
0.296031 0.251239 0.0469261
0.29627 0.251336 0.0463367
0.296509 0.251433 0.0457477
0.296878 0.251464 0.0453855
0.296923 0.25166 0.0444554
0.297292 0.25169 0.0440932
0.297467 0.251821 0.0433906
0.297512 0.252017 0.0424604
0.24663 0.255303 0.0617344
0.249203 0.254198 0.0652333
0.250026 0.253995 0.0656661
0.251367 0.253524 0.0670075
0.25193 0.253455 0.0669861
0.252883 0.253184 0.067646
0.253705 0.25298 0.0680788
0.254723 0.252677 0.0688524
0.255481 0.252507 0.0691716
0.256239 0.252337 0.0694908
0.256932 0.2522 0.0696965
0.25743 0.252164 0.0695615
0.257929 0.252127 0.0694266
0.258233 0.25219 0.0689509
0.258602 0.252221 0.0685887
0.258971 0.252252 0.0682268
0.259016 0.252449 0.0672969
0.259126 0.252612 0.0664804
0.25943 0.252676 0.0660049
0.259345 0.25294 0.0648478
0.259196 0.253238 0.0635773
0.259371 0.253368 0.0628744
0.259091 0.253732 0.0613768
0.272215 0.25006 0.0702489
0.272771 0.249995 0.0702143
0.273511 0.249839 0.0705008
0.274372 0.249621 0.0710011
0.274927 0.249557 0.0709666
0.275484 0.249491 0.0709318
0.276162 0.249366 0.0711112
0.276657 0.249332 0.0709698
0.277213 0.249268 0.0709353
0.277769 0.249204 0.0709006
0.278203 0.249201 0.0706522
0.278636 0.249197 0.0704036
0.279131 0.249163 0.070262
0.279565 0.24916 0.0700135
0.279999 0.249157 0.069765
0.280433 0.249154 0.0695164
0.280867 0.249151 0.0692679
0.28124 0.249179 0.0689124
0.281612 0.249206 0.0685568
0.281924 0.249264 0.0680943
0.282358 0.249261 0.0678457
0.28267 0.249319 0.0673831
0.283103 0.249316 0.0671346
0.283415 0.249374 0.0666722
0.283727 0.249433 0.0662096
0.284039 0.249492 0.0657474
0.284289 0.24958 0.0651777
0.284479 0.2497 0.0645012
0.284668 0.24982 0.0638249
0.284797 0.24997 0.0630413
0.285048 0.250059 0.0624719
0.285291 0.250154 0.0618893
0.28566 0.250184 0.0615271
0.285964 0.250247 0.0610514
0.286398 0.250244 0.0608029
0.286896 0.250208 0.0606679
0.28746 0.250138 0.0606466
0.287894 0.250135 0.0603981
0.288328 0.250132 0.0601495
0.288697 0.250162 0.0597874
0.289066 0.250192 0.0594253
0.289435 0.250223 0.0590631
0.289804 0.250254 0.0587012
0.290173 0.250284 0.0583391
0.290412 0.250381 0.0577498
0.290781 0.25041 0.0573876
0.291085 0.250475 0.0569121
0.291389 0.250538 0.0564364
0.291694 0.250602 0.0559607
0.291933 0.250699 0.0553715
0.292237 0.250762 0.0548958
0.292542 0.250827 0.0544203
0.292846 0.25089 0.0539445
0.293085 0.250987 0.0533553
0.293389 0.251051 0.0528797
0.293694 0.251114 0.052404
0.293998 0.251178 0.0519283
0.294302 0.251242 0.0514528
0.294606 0.251305 0.050977
0.294975 0.251336 0.0506149
0.295215 0.251433 0.0500258
0.295454 0.25153 0.0494365
0.295758 0.251594 0.048961
0.296062 0.251658 0.0484852
0.296302 0.251754 0.0478959
0.296606 0.251819 0.0474204
0.296781 0.251948 0.0467175
0.297085 0.252013 0.046242
0.297389 0.252076 0.0457662
0.297564 0.252207 0.0450635
0.297868 0.25227 0.0445878
0.298043 0.252401 0.0438851
0.298217 0.252532 0.0431824
0.298521 0.252595 0.0427066
0.298761 0.252692 0.0421173
0.298676 0.252956 0.0409605
0.24593 0.256327 0.0610028
0.24766 0.255655 0.063025
0.24939 0.254982 0.0650473
0.250407 0.254678 0.0658207
0.251424 0.254374 0.0665941
0.252247 0.25417 0.0670267
0.25307 0.253966 0.0674595
0.253763 0.253829 0.0676652
0.254715 0.253558 0.0683247
0.255279 0.253488 0.0683034
0.256036 0.253317 0.0686226
0.256665 0.253214 0.0687147
0.257228 0.253144 0.0686931
0.257532 0.253208 0.0682176
0.258096 0.253137 0.068196
0.258206 0.253302 0.0673799
0.258445 0.253399 0.0667906
0.258684 0.253497 0.0662015
0.258989 0.253561 0.065726
0.258904 0.253825 0.0645692
0.258884 0.254057 0.0635259
0.258929 0.254254 0.0625959
0.258909 0.254486 0.0615527
0.259019 0.25465 0.0607364
0.272287 0.25089 0.0698599
0.272843 0.250826 0.0698254
0.273582 0.250669 0.0701117
0.27426 0.250543 0.0702909
0.274877 0.250447 0.0703632
0.275433 0.250383 0.0703287
0.27605 0.250287 0.070401
0.276606 0.250222 0.0703665
0.277162 0.250158 0.0703319
0.277656 0.250124 0.0701903
0.278151 0.25009 0.0700486
0.278646 0.250057 0.0699071
0.279141 0.250022 0.0697655
0.279575 0.250019 0.069517
0.280009 0.250016 0.0692684
0.280504 0.249983 0.069127
0.280876 0.25001 0.0687714
0.28131 0.250007 0.0685228
0.281683 0.250035 0.0681674
0.282056 0.250062 0.0678118
0.28249 0.250059 0.0675632
0.282863 0.250087 0.0672078
0.283236 0.250115 0.0668524
0.283547 0.250173 0.0663899
0.283859 0.250231 0.0659273
0.284232 0.250259 0.0655719
0.284482 0.250349 0.0650025
0.284733 0.250438 0.0644331
0.284923 0.250558 0.0637566
0.285051 0.250708 0.0629732
0.285237 0.250831 0.0622903
0.285412 0.250962 0.0615875
0.285716 0.251026 0.061112
0.285955 0.251124 0.060523
0.286324 0.251154 0.0601608
0.286629 0.251217 0.0596851
0.287063 0.251214 0.0594365
0.287496 0.251211 0.0591879
0.287995 0.251174 0.059053
0.288688 0.251038 0.0592587
0.289122 0.251034 0.0590102
0.289556 0.251032 0.0587616
0.28999 0.251029 0.0585131
0.290359 0.251058 0.0581509
0.290663 0.251123 0.0576754
0.291032 0.251153 0.0573133
0.291401 0.251183 0.0569512
0.291705 0.251247 0.0564756
0.292009 0.251311 0.0559999
0.292379 0.251342 0.055638
0.292683 0.251405 0.0551623
0.292987 0.25147 0.0546868
0.293291 0.251533 0.054211
0.293595 0.251597 0.0537355
0.2939 0.251661 0.0532598
0.294204 0.251725 0.0527843
0.294573 0.251755 0.0524222
0.294812 0.251853 0.0518331
0.295117 0.251916 0.0513573
0.295421 0.25198 0.0508818
0.295725 0.252044 0.0504061
0.295964 0.252141 0.049817
0.296269 0.252205 0.0493413
0.296573 0.252269 0.0488657
0.296812 0.252366 0.0482766
0.297117 0.25243 0.0478009
0.297421 0.252494 0.0473254
0.29766 0.252591 0.0467361
0.297965 0.252655 0.0462606
0.298204 0.252753 0.0456714
0.298379 0.252884 0.0449687
0.298618 0.25298 0.0443793
0.298857 0.253078 0.0437903
0.299097 0.253176 0.0432012
0.299336 0.253273 0.0426121
0.299446 0.253437 0.0417958
0.299815 0.253467 0.0414337
0.299795 0.253698 0.0403904
0.299905 0.253862 0.0395741
0.247026 0.256657 0.0624086
0.248432 0.256151 0.063863
0.249449 0.255846 0.0646362
0.25053 0.255507 0.0655228
0.251418 0.255269 0.066069
0.252176 0.255098 0.0663881
0.253063 0.25486 0.0669343
0.253627 0.25479 0.0669127
0.254579 0.254519 0.0675726
0.255143 0.254448 0.067551
0.255836 0.254312 0.0677567
0.256204 0.254341 0.0673946
0.256833 0.254238 0.0674866
0.257267 0.254235 0.067238
0.257376 0.2544 0.0664219
0.25781 0.254396 0.0661733
0.25805 0.254494 0.0655843
0.258289 0.254591 0.0649951
0.258334 0.25479 0.0640654
0.258509 0.254921 0.0633627
0.258424 0.255186 0.0622061
0.258534 0.25535 0.0613897
0.258774 0.255448 0.0608006
0.272713 0.251775 0.069085
0.273593 0.251542 0.069618
0.27421 0.251446 0.0696904
0.274827 0.251351 0.0697627
0.275444 0.251256 0.069835
0.276061 0.25116 0.0699074
0.276617 0.251095 0.0698728
0.277173 0.25103 0.069838
0.277668 0.250997 0.0696966
0.278163 0.250963 0.0695549
0.278658 0.250928 0.0694132
0.279152 0.250894 0.0692716
0.279586 0.250891 0.0690231
0.280081 0.250858 0.0688816
0.280515 0.250855 0.068633
0.280949 0.250852 0.0683845
0.281383 0.250849 0.068136
0.281817 0.250845 0.0678875
0.28219 0.250872 0.0675318
0.282623 0.250869 0.0672833
0.282996 0.250897 0.0669279
0.283369 0.250925 0.0665725
0.283681 0.250984 0.0661099
0.284053 0.251012 0.0657545
0.284365 0.25107 0.065292
0.284677 0.251129 0.0648297
0.284928 0.251218 0.0642603
0.285179 0.251308 0.0636909
0.285368 0.251428 0.0630146
0.285489 0.251585 0.062218
0.285664 0.251716 0.0615155
0.285838 0.251847 0.0608128
0.286078 0.251944 0.0602237
0.286317 0.252042 0.0596346
0.286687 0.252072 0.0592724
0.287055 0.252103 0.0589106
0.28736 0.252166 0.0584348
0.287729 0.252198 0.0580729
0.288098 0.252228 0.0577107
0.288661 0.252157 0.0576892
0.289419 0.251987 0.0580084
0.289982 0.251917 0.0579869
0.290352 0.251946 0.0576247
0.290786 0.251943 0.0573762
0.291155 0.251975 0.0570143
0.291588 0.251971 0.0567658
0.291957 0.252002 0.0564036
0.292262 0.252066 0.0559281
0.292631 0.252096 0.0555659
0.292935 0.25216 0.0550904
0.293304 0.252191 0.0547283
0.293608 0.252255 0.0542528
0.293912 0.252318 0.053777
0.294281 0.252349 0.0534151
0.294586 0.252413 0.0529394
0.29489 0.252477 0.0524639
0.295194 0.252541 0.0519883
0.295563 0.252572 0.0516262
0.295803 0.252669 0.0510371
0.296107 0.252734 0.0505615
0.296411 0.252797 0.0500859
0.29678 0.252828 0.0497239
0.29702 0.252926 0.0491348
0.297259 0.253023 0.0485457
0.297563 0.253086 0.0480699
0.297868 0.253151 0.0475944
0.298107 0.253248 0.0470053
0.298411 0.253313 0.0465298
0.298716 0.253376 0.046054
0.29889 0.253508 0.0453515
0.299194 0.253571 0.0448758
0.299434 0.253669 0.0442866
0.299609 0.253801 0.0435841
0.299913 0.253864 0.0431084
0.300088 0.253996 0.0424059
0.300327 0.254093 0.0418168
0.300437 0.254257 0.0410005
0.300676 0.254355 0.0404113
0.300721 0.254553 0.0394816
0.301026 0.254618 0.0390061
0.301006 0.254849 0.0379628
0.243366 0.259009 0.0575001
0.247603 0.257253 0.0629057
0.248555 0.256982 0.0635653
0.249637 0.256642 0.0644519
0.250525 0.256404 0.064998
0.251477 0.256132 0.0656577
0.25217 0.255994 0.0658631
0.252863 0.255857 0.0660688
0.253491 0.255752 0.0661607
0.254119 0.255648 0.0662528
0.254942 0.255444 0.0666854
0.255505 0.255374 0.0666638
0.256069 0.255303 0.0666423
0.256438 0.255333 0.0662801
0.256807 0.255364 0.0659182
0.257176 0.255394 0.0655561
0.25748 0.255459 0.0650805
0.257655 0.25559 0.064378
0.257829 0.255721 0.0636753
0.257939 0.255886 0.0628592
0.258114 0.256018 0.0621567
0.258094 0.25625 0.0611135
