ply
format ascii 1.0
element vertex 1245
property float x
property float y
property float z
property uchar diffuse_red
property uchar diffuse_green
property uchar diffuse_blue
end_header
0.272601 0.067582 0.0210875 72 7 2
0.272265 0.0674904 0.021087 70 8 3
0.27217 0.0678068 0.0213072 72 8 2
0.271843 0.0676941 0.0213368 70 8 3
0.272063 0.0681771 0.021525 71 8 3
0.271733 0.0680713 0.0215853 71 8 2
0.271952 0.0685417 0.0216754 72 7 2
0.271635 0.0684115 0.0217738 71 7 2
0.271851 0.0688936 0.0218197 71 6 1
0.271524 0.0687529 0.0219432 68 7 2
0.271731 0.0692545 0.0219562 69 5 0
0.271409 0.0690962 0.0221282 68 5 1
0.271617 0.0695849 0.0220952 69 4 0
0.271299 0.0694401 0.0223028 68 5 0
0.27208 0.0693339 0.0218072 70 6 0
0.272175 0.0690364 0.0217182 72 5 1
0.272285 0.0686657 0.0216044 72 6 1
0.272522 0.0690981 0.0216259 71 5 1
0.272621 0.0687783 0.021537 70 5 0
0.272936 0.0689217 0.0214825 69 4 0
0.273039 0.0685806 0.0214021 69 6 1
0.273287 0.068983 0.0214093 68 4 1
0.273389 0.0686187 0.021338 69 5 1
0.273725 0.0687601 0.0213022 67 4 1
0.27383 0.0683602 0.0212202 69 5 1
0.274153 0.0684792 0.0212185 69 5 1
0.273589 0.0679374 0.021144 70 7 1
0.273276 0.0677603 0.021097 71 7 2
0.273364 0.0674284 0.0209052 71 6 2
0.272396 0.0683036 0.0214623 73 7 2
0.272722 0.0684163 0.0214276 68 6 1
0.272824 0.0680551 0.021284 70 7 2
0.273166 0.0681521 0.0212727 70 6 1
0.272929 0.0676775 0.0210924 72 7 2
0.272494 0.0679528 0.021298 71 7 2
0.273496 0.0682616 0.0212574 70 6 1
0.274081 0.0688313 0.0212643 67 4 0
0.260378 0.0611899 0.0270605 115 112 106
0.260444 0.0609845 0.0274053 127 123 113
0.260111 0.060899 0.0274417 131 126 115
0.260175 0.060698 0.0278289 137 133 118
0.259764 0.060655 0.0278132 141 133 114
0.259839 0.0605039 0.0282159 145 136 117
0.259507 0.0605649 0.0281709 141 132 110
0.259564 0.060457 0.0285819 146 136 111
0.260799 0.0610541 0.0274594 121 117 109
0.260726 0.0612608 0.0271075 112 108 101
0.261048 0.0613964 0.0271322 108 101 98
0.260982 0.0616183 0.0268087 93 84 84
0.261353 0.061572 0.0271807 98 87 85
0.261285 0.0617972 0.0268512 87 70 72
0.261637 0.061784 0.0272681 88 71 71
0.261563 0.0620215 0.0269652 84 65 67
0.261818 0.0623298 0.0271295 78 46 52
0.261492 0.0622468 0.0267268 82 51 51
0.261745 0.0626241 0.0268526 78 38 37
0.261407 0.0625529 0.026492 77 46 47
0.261662 0.0629407 0.0265955 74 35 33
0.261329 0.0628908 0.0262749 74 38 36
0.261583 0.0632697 0.0263387 73 33 28
0.261285 0.0630356 0.0262034 76 39 35
0.26121 0.062019 0.0265907 85 64 66
0.260619 0.0615717 0.0266454 102 97 93
0.261911 0.0620086 0.0274981 81 52 57
0.261704 0.0615812 0.0276045 88 73 74
0.261423 0.0613665 0.0275242 100 92 89
0.261119 0.0611916 0.0274746 111 106 101
0.332642 0.0714655 0.0174252 81 68 10
0.332996 0.0715249 0.0174528 67 57 8
0.332953 0.0716642 0.017773 87 64 9
0.333326 0.071616 0.0175502 47 45 6
0.333294 0.0717485 0.0177784 60 51 7
0.333657 0.0718124 0.0177057 40 42 5
0.33356 0.0721328 0.0182784 54 50 7
0.333919 0.0721388 0.0182391 37 41 4
0.33383 0.072507 0.0185805 41 43 6
0.332612 0.0715929 0.0178085 90 68 9
0.332267 0.0715253 0.017902 102 80 11
0.332597 0.0716416 0.0179394 98 75 10
0.332241 0.071646 0.0181797 103 80 11
0.332552 0.0718298 0.0182877 99 75 10
0.332507 0.0720263 0.0186216 100 73 10
0.275914 0.0853463 -0.00401452 63 11 6
0.276319 0.0852388 -0.00362416 59 9 6
0.276249 0.0854657 -0.00401609 64 11 7
0.276649 0.0853819 -0.00363756 61 9 6
0.276583 0.0855735 -0.00402728 62 11 7
0.276913 0.0856927 -0.0040171 62 12 7
0.276893 0.0857365 -0.00414798 62 11 8
0.277239 0.0858156 -0.00416365 58 11 7
0.27721 0.0858891 -0.00442924 60 11 7
0.27755 0.0859603 -0.004418 53 10 6
0.276861 0.0858252 -0.0045389 61 11 7
0.276535 0.085701 -0.00442396 63 11 7
0.276703 0.0851098 -0.0032131 54 9 4
0.27702 0.0853222 -0.00321098 49 10 4
0.276981 0.0855139 -0.00360443 54 10 6
0.27732 0.0855494 -0.00321128 24 7 2
0.277304 0.0856536 -0.00358694 42 9 4
0.277625 0.0857899 -0.00362168 29 7 2
0.27728 0.0857031 -0.00378052 46 9 5
0.277591 0.0858682 -0.0040222 45 9 5
0.277033 0.0851959 -0.00288768 39 10 3
0.277336 0.0855091 -0.00304705 18 8 1
0.277658 0.0857333 -0.00313691 13 7 1
0.277807 0.0858815 -0.00378401 35 8 3
0.278319 0.0860962 -0.0033555 19 5 0
0.278176 0.0860117 -0.00388795 28 6 2
0.279175 0.0876972 -0.00289305 0 7 0
0.279443 0.088189 -0.00289704 0 8 0
0.279678 0.0886867 -0.00288586 0 9 0
0.279979 0.0891251 -0.00283066 0 12 1
0.28028 0.0895704 -0.00276947 0 13 2
0.280556 0.09003 -0.00273038 0 15 2
0.280831 0.0904811 -0.00267672 0 17 3
0.277901 0.0860182 -0.00417212 43 10 5
0.277889 0.0860446 -0.00442756 52 10 6
0.337676 0.0736625 0.014957 58 53 5
0.337906 0.0739014 0.0147528 63 54 3
0.337765 0.0739066 0.0152678 48 47 5
0.337971 0.0741421 0.0150354 66 58 6
0.33802 0.0743616 0.0153102 68 62 8
0.338157 0.0746125 0.0150221 82 69 10
0.337884 0.0741061 0.0155831 53 50 6
0.3379 0.0740587 0.0161628 59 55 8
0.338214 0.0744011 0.0173983 60 61 13
0.338327 0.0746536 0.0176777 63 62 15
0.338482 0.0749343 0.0179034 67 63 15
0.338111 0.0741482 0.0144752 68 54 2
0.338302 0.0743844 0.0142227 64 50 3
0.338246 0.0746275 0.0144659 79 57 5
0.338136 0.0743705 0.0147602 78 62 5
0.338246 0.0748787 0.014711 97 74 10
0.338315 0.0751396 0.0144077 94 69 7
0.305166 0.0796154 0.00530147 71 9 5
0.30473 0.0798757 0.00511418 66 9 5
0.305971 0.0793765 0.00554611 72 10 6
0.305608 0.0793696 0.00548473 74 10 6
0.305831 0.0798322 0.00533896 71 10 6
0.305503 0.07973 0.00533143 73 9 5
0.305383 0.0801006 0.00518699 71 10 6
0.305056 0.0799919 0.00517467 72 9 5
0.304933 0.0803718 0.00506765 69 9 7
0.304612 0.0802588 0.00503979 65 10 6
0.304487 0.0806681 0.0049901 64 9 6
0.306046 0.0802977 0.00519393 73 10 6
0.306269 0.0807761 0.00506724 73 11 7
0.297696 0.0689423 0.0192968 180 180 151
0.297697 0.0690062 0.0196846 184 186 155
0.297682 0.0690894 0.0200675 193 196 161
0.297667 0.0691321 0.0202264 192 193 160
0.297633 0.0692585 0.0205959 199 200 165
0.297578 0.0694419 0.0210482 203 204 168
0.297521 0.0696198 0.021398 206 207 171
0.297642 0.0698352 0.0216305 203 203 168
0.297857 0.0697146 0.0213676 202 203 167
0.298046 0.0699091 0.0215881 204 205 169
0.298457 0.0699818 0.0215461 200 203 168
0.28471 0.0682372 0.0195317 59 75 61
0.28489 0.06861 0.0196165 68 88 78
0.284931 0.0689451 0.0197223 71 93 88
0.285266 0.0690487 0.0196985 70 97 92
0.284819 0.06934 0.0199121 76 95 86
0.285161 0.0694431 0.0199076 83 114 106
0.284718 0.0696944 0.0200698 75 89 81
0.285064 0.0697784 0.020086 75 101 98
0.284962 0.0701464 0.0202139 81 112 106
0.285329 0.0701643 0.020289 99 128 117
0.285265 0.07039 0.0203635 103 129 119
0.285677 0.0702405 0.0204838 115 133 118
0.285609 0.0704704 0.0205591 116 135 117
0.286061 0.0701785 0.020646 131 138 120
0.286024 0.0705022 0.0207946 124 133 116
0.286418 0.0704361 0.0209347 138 137 118
0.286395 0.0707686 0.0210788 137 138 118
0.286782 0.0707218 0.0211829 140 139 117
0.28675 0.0710728 0.0213022 143 140 118
0.286916 0.0710573 0.0213364 145 141 119
0.286718 0.0714589 0.0213796 142 136 115
0.287017 0.0714534 0.0214274 146 136 112
0.286679 0.0718456 0.0214494 143 136 114
0.287115 0.0718752 0.0214959 140 129 107
0.287049 0.0722702 0.0215615 142 131 105
0.287464 0.0714771 0.0214791 149 133 106
0.287789 0.0710638 0.0214612 154 143 116
0.288182 0.0707004 0.0214255 159 147 119
0.288551 0.0703242 0.0213822 159 148 121
0.288909 0.0699434 0.0213529 158 147 120
0.2892 0.0694654 0.0214093 154 145 120
0.289513 0.0693176 0.0216319 153 144 121
0.289795 0.0691469 0.0218835 153 148 125
0.290071 0.0689764 0.0221345 156 152 129
0.287338 0.0710559 0.0213917 150 142 117
0.287727 0.0706808 0.0213747 157 148 120
0.288121 0.0703212 0.021334 159 149 123
0.288519 0.0699756 0.0212598 159 149 121
0.288857 0.0695687 0.0212425 158 149 121
0.288782 0.069162 0.0211467 160 150 123
0.289122 0.0690622 0.0213171 156 148 123
0.289447 0.0689277 0.0215312 155 148 124
0.287289 0.0706889 0.0212962 151 147 120
0.287703 0.0703378 0.0212552 152 142 117
0.288092 0.0699838 0.0211818 154 146 120
0.288464 0.0696116 0.021135 157 149 121
0.287265 0.0703533 0.0211603 148 144 119
0.287689 0.0700119 0.0210985 150 144 118
0.288059 0.0696381 0.0210372 156 148 122
0.288413 0.0692357 0.0210013 156 148 122
0.288013 0.0692807 0.0208975 153 148 121
0.287627 0.0693271 0.0207892 147 143 118
0.287574 0.0689681 0.0206645 147 141 117
0.287344 0.0690106 0.0205893 143 138 115
0.28737 0.0686618 0.0204553 141 139 114
0.286974 0.0688069 0.0202418 138 136 112
0.286604 0.0689502 0.020022 128 131 109
0.28619 0.0690863 0.0198063 107 125 104
0.287663 0.0696753 0.0209355 147 143 118
0.287249 0.0697062 0.0208364 142 139 115
0.287224 0.0693684 0.020685 145 141 117
0.286905 0.0694198 0.0205901 139 135 112
0.286935 0.0690985 0.0204263 142 136 112
0.286561 0.0692121 0.0202491 135 138 114
0.286156 0.0693214 0.0200645 125 140 118
0.28574 0.0693903 0.0199247 100 131 115
0.28726 0.0700339 0.0210105 142 137 116
0.286857 0.0700674 0.0209034 139 137 116
0.286844 0.0697516 0.0207333 139 134 113
0.28645 0.07011 0.0207807 138 138 118
0.286486 0.0698058 0.0206161 130 131 111
0.286091 0.0698799 0.020472 123 129 110
0.286118 0.0695881 0.0202872 120 132 112
0.285702 0.0696766 0.0201246 106 130 115
0.285516 0.0695265 0.0199617 86 122 111
0.286521 0.0694953 0.0204447 132 133 112
0.284603 0.0687457 0.0197756 59 73 63
0.284618 0.0687892 0.0197901 61 75 65
0.284499 0.0692203 0.0199781 66 80 73
0.284393 0.0695779 0.020128 76 85 75
0.284293 0.0699345 0.0202613 80 98 89
0.284613 0.0700593 0.0201851 74 94 87
0.284572 0.0702074 0.0202358 76 97 91
0.284876 0.0704411 0.020307 85 116 108
0.285148 0.0707635 0.0204867 107 132 119
0.285499 0.0708755 0.0206738 115 128 111
0.285948 0.0706215 0.0208152 126 135 118
0.285855 0.0709237 0.0208929 126 131 113
0.285994 0.0708454 0.020936 127 132 114
0.285959 0.0711907 0.0210626 124 129 114
0.286365 0.0711139 0.0212075 136 135 116
0.286318 0.0714858 0.0212948 136 133 114
0.332628 0.0784077 0.0085908 12 29 7
0.33303 0.0784832 0.00855625 8 27 5
0.333447 0.078549 0.00854356 3 24 5
0.333003 0.0788301 0.00868937 6 25 5
0.333399 0.07889 0.00868533 1 23 4
0.332973 0.0791732 0.00882935 1 23 4
0.333367 0.0792189 0.00883722 0 23 4
0.33295 0.0795031 0.00899858 0 21 4
0.333338 0.0795231 0.00901382 0 22 5
0.333217 0.0798201 0.00919363 0 20 4
0.333663 0.0798281 0.00923265 0 19 4
0.33359 0.0800546 0.00949362 0 18 3
0.334026 0.0800668 0.009535 0 17 5
0.333933 0.0802813 0.00979762 0 16 3
0.334287 0.0802234 0.00991464 0 16 3
0.334188 0.080412 0.0102113 0 16 2
0.334553 0.0803291 0.0103488 0 16 2
0.33445 0.0805072 0.010661 0 16 3
0.334804 0.0804095 0.0108209 0 17 3
0.334698 0.0805858 0.0111419 0 18 4
0.335064 0.0804931 0.0112908 0 18 5
0.335167 0.0804573 0.0113437 0 19 5
0.335147 0.0803094 0.0109901 0 18 5
0.335242 0.0801317 0.0106704 0 17 3
0.334902 0.0802198 0.0105055 0 17 3
0.334679 0.0801497 0.0100396 0 17 2
0.334395 0.0800174 0.00963654 0 17 3
0.334161 0.0798282 0.00929344 0 19 5
0.334137 0.0795717 0.00905896 0 20 5
0.333693 0.0795545 0.00902044 0 20 4
0.333702 0.079239 0.00885114 0 21 4
0.3338 0.0789325 0.00868456 0 21 4
0.333838 0.0785881 0.00855015 0 21 3
0.33447 0.079802 0.00936257 0 19 4
0.334771 0.0799718 0.00973343 0 17 4
0.335019 0.0800599 0.01018 0 16 2
0.334347 0.0806667 0.0109712 0 17 4
0.333188 0.0800743 0.00942833 0 20 4
0.332918 0.0798064 0.009183 0 20 4
0.332532 0.0797772 0.00917683 3 23 5
0.332552 0.0794455 0.00899304 4 25 5
0.332156 0.0797212 0.00912186 6 27 9
0.33213 0.0794046 0.00899393 9 28 9
0.331716 0.0797458 0.0091462 13 31 11
0.331692 0.0793586 0.00899399 18 35 14
0.331234 0.0796738 0.00910534 20 36 16
0.331223 0.0799967 0.00924474 20 36 15
0.331618 0.0800803 0.00932556 11 30 10
0.332066 0.0800161 0.00930773 6 26 9
0.332148 0.0790537 0.00886375 15 32 10
0.33259 0.0787648 0.0087066 11 29 8
0.332566 0.0791155 0.00884495 5 25 5
0.332763 0.0800698 0.00938894 0 19 4
0.332458 0.0800475 0.00937281 2 20 6
0.338794 0.0753514 0.0131157 19 32 6
0.338816 0.0756372 0.0127818 12 31 7
0.338703 0.0756324 0.0133133 23 34 6
0.338731 0.0759292 0.0129651 15 31 6
0.338581 0.0759116 0.0134984 39 41 6
0.338589 0.0761909 0.0131707 26 36 7
0.338429 0.0761958 0.0136852 48 43 8
0.338412 0.0764487 0.0133747 33 38 7
0.338223 0.076704 0.0135963 46 43 7
0.338355 0.0766975 0.0130693 20 32 6
0.338189 0.0769543 0.0132884 29 36 6
0.338039 0.0769489 0.0138188 48 40 6
0.338058 0.0767099 0.0141143 71 51 7
0.338225 0.0764453 0.0139022 72 51 9
0.338208 0.0762023 0.0141977 107 70 11
0.337892 0.0770406 0.0142336 71 47 5
0.337995 0.0767899 0.0145621 95 64 8
0.338138 0.0764423 0.0144525 108 70 10
0.338542 0.0764439 0.0128586 17 32 5
0.338696 0.0761931 0.0126391 9 28 6
0.338802 0.0759291 0.0124231 6 28 7
0.257828 0.061467 0.0271491 114 106 77
0.25769 0.0613541 0.0275899 89 87 61
0.308443 0.0785156 0.00709858 68 11 6
0.30879 0.0785832 0.00708824 68 10 6
0.308481 0.0784128 0.00748854 69 11 6
0.308825 0.0784996 0.00747926 67 11 6
0.30885 0.0784501 0.00789249 67 10 5
0.309186 0.0785408 0.00776769 66 9 4
0.309195 0.0785255 0.00817294 65 9 4
0.309539 0.0786026 0.00815995 65 9 4
0.309201 0.0785165 0.00857317 67 9 4
0.309544 0.0786152 0.0085729 66 9 4
0.308869 0.0784132 0.00857679 67 9 5
0.308859 0.0784386 0.00817953 67 10 5
0.308526 0.0783271 0.00817733 69 9 5
0.308509 0.0783492 0.00790079 69 11 6
0.30821 0.0781801 0.0081833 70 11 5
0.308186 0.0782239 0.00789411 70 11 6
0.307889 0.0780383 0.00817383 73 11 6
0.307857 0.0780839 0.00788501 72 12 6
0.308148 0.0783115 0.00749274 70 11 6
0.308539 0.0782961 0.00858372 68 9 5
0.309167 0.0785717 0.00745442 67 10 5
0.309531 0.0786031 0.00775118 65 9 4
0.309886 0.0786615 0.00814456 66 9 4
0.309886 0.0787026 0.00855437 65 9 3
0.309884 0.0787272 0.00877778 66 7 3
0.260642 0.0604579 0.0287249 140 133 117
0.260334 0.0603241 0.0291265 139 131 112
0.260017 0.0603279 0.0295311 108 109 90
0.292974 0.0676905 0.0209972 174 178 149
0.293267 0.067864 0.0209732 171 174 146
0.293274 0.0678675 0.0211253 174 176 148
0.293567 0.0680807 0.0207772 170 173 144
0.29357 0.0681432 0.0215997 182 181 149
0.293871 0.0683474 0.0212124 175 176 145
0.293879 0.0683623 0.021451 176 175 145
0.294168 0.0686436 0.0209256 170 170 139
0.294446 0.0689228 0.0212745 171 173 143
0.293267 0.0679663 0.0217076 180 181 149
0.292971 0.0677196 0.0212897 172 177 149
0.292954 0.0678388 0.0217694 178 182 150
0.290642 0.0685847 0.0225035 158 157 133
0.289737 0.0687779 0.0217687 155 151 128
0.293853 0.0683682 0.0204965 179 181 148
0.293858 0.0683627 0.0208136 175 175 144
0.294137 0.0686387 0.0204328 187 186 148
0.294443 0.0689382 0.0208428 173 174 142
0.260954 0.0605614 0.0287384 137 131 115
0.261272 0.0607004 0.0287066 130 124 111
0.261309 0.0605981 0.0291242 131 126 111
0.261621 0.0607715 0.0290945 130 121 107
0.261655 0.0606791 0.0295153 129 120 105
0.261939 0.0608934 0.0294783 120 111 99
0.261975 0.0608251 0.0298805 124 113 98
0.262255 0.0610857 0.0298431 111 102 89
0.262274 0.0610479 0.0301524 113 103 90
0.262539 0.0613498 0.0300643 97 88 77
0.262569 0.0613084 0.0304921 110 100 87
0.262818 0.0616229 0.0304032 96 87 74
0.262852 0.0615686 0.03086 102 91 76
0.263074 0.0619175 0.0307655 91 80 68
0.263105 0.0618843 0.0312273 102 89 72
0.263273 0.0622988 0.031081 99 81 67
0.263311 0.0623212 0.0315043 109 88 69
0.26342 0.0629576 0.0311449 115 80 55
0.263455 0.0629197 0.0316999 126 95 65
0.263518 0.0636031 0.0318946 146 112 77
0.263495 0.0638471 0.0321715 148 114 78
0.263676 0.0646265 0.031902 136 88 52
0.263433 0.0640258 0.0324334 145 116 80
0.263379 0.0643529 0.0326299 143 120 86
0.263259 0.0638866 0.0329373 145 127 97
0.263181 0.064095 0.0330656 144 129 100
0.262961 0.0637755 0.0333625 149 140 114
0.26293 0.0638835 0.0333921 149 140 115
0.262646 0.0636442 0.0337271 153 153 129
0.262541 0.064015 0.0338378 153 151 127
0.262274 0.0637212 0.0341513 146 151 130
0.262141 0.0641867 0.0342562 150 154 133
0.261854 0.0639894 0.0345486 141 152 131
0.261743 0.0643648 0.0346181 143 151 130
0.261463 0.0641802 0.0348622 136 144 126
0.261428 0.0642846 0.0348764 130 141 123
0.261126 0.0641747 0.035075 130 142 124
0.261325 0.064656 0.0349315 138 143 123
0.261016 0.0645481 0.0351237 119 132 115
0.261218 0.0650314 0.0349844 133 137 117
0.260904 0.0649216 0.0351624 126 133 114
0.260805 0.0652951 0.0351766 131 134 115
0.260483 0.0651991 0.0353124 114 125 107
0.260387 0.0655189 0.0352702 124 129 110
0.260057 0.0654331 0.035357 117 126 111
0.25994 0.0658143 0.0352669 120 126 112
0.259605 0.0657198 0.0353385 113 124 111
0.259493 0.0660939 0.0352132 115 123 109
0.259721 0.0653482 0.0354242 105 119 107
0.260156 0.0651105 0.035405 113 123 108
0.260586 0.0648253 0.0353055 126 133 115
0.260701 0.0644359 0.0352717 118 132 114
0.259821 0.0650129 0.0354624 95 111 100
0.260265 0.0647176 0.035417 105 120 105
0.260384 0.0643407 0.0353818 90 113 100
0.260437 0.0641448 0.0353587 108 127 114
0.26081 0.0640584 0.0352282 111 129 114
0.261168 0.0640249 0.0350533 122 136 121
0.261571 0.0637973 0.0347959 130 142 126
0.261956 0.0636069 0.0344765 143 151 132
0.262069 0.0632455 0.0343704 140 147 129
0.262366 0.0634376 0.0340655 144 148 127
0.262132 0.0630556 0.0342799 136 142 123
0.262443 0.0631794 0.0339483 143 146 124
0.262178 0.0629015 0.0342009 130 138 121
0.262541 0.0628471 0.0337411 139 141 119
0.26226 0.0625892 0.0340112 134 140 122
0.262353 0.0622778 0.0337709 131 137 118
0.261996 0.0623486 0.0342008 120 131 116
0.262082 0.0620411 0.0339633 118 130 115
0.26173 0.0620905 0.0342972 115 129 114
0.261796 0.0617614 0.0340025 103 122 110
0.261441 0.0619007 0.0343515 108 125 113
0.261478 0.0615885 0.0340877 102 122 111
0.261126 0.0617283 0.0343163 75 103 95
0.261174 0.0614327 0.0341126 84 111 103
0.260862 0.0614397 0.0340871 60 88 83
0.260941 0.0611973 0.033811 71 104 100
0.260601 0.0611571 0.0337402 60 90 88
0.26097 0.060991 0.0334959 71 100 94
0.26067 0.0609644 0.0334091 61 87 81
0.261008 0.0608199 0.0331111 63 91 85
0.260694 0.0608045 0.0330604 59 87 81
0.260728 0.0606792 0.0327095 55 79 72
0.260465 0.0607162 0.0326616 50 73 64
0.260458 0.0605652 0.0322628 56 74 59
0.260383 0.0606298 0.0323661 50 71 58
0.260117 0.0606369 0.0320282 49 66 50
0.26014 0.0607728 0.0325611 46 70 56
0.259842 0.0608154 0.0321928 44 65 49
0.259863 0.0609289 0.0327486 38 64 52
0.259837 0.0606588 0.031685 49 62 43
0.260083 0.0604789 0.0314942 68 80 59
0.260142 0.0605707 0.031823 53 67 48
0.26014 0.060448 0.031455 68 83 65
0.260433 0.0604155 0.0318913 74 89 76
0.260418 0.0603551 0.0315213 90 98 81
0.260749 0.0603282 0.031536 97 105 92
0.260749 0.0602797 0.0311428 114 117 101
0.261084 0.0603418 0.0311425 122 122 107
0.261081 0.0603193 0.0307496 125 124 108
0.261407 0.0604489 0.0311318 122 122 107
0.261403 0.0604322 0.0307294 128 124 108
0.261705 0.0606182 0.0311135 126 123 108
0.261707 0.0605905 0.0307143 128 123 107
0.261997 0.0608209 0.0310873 125 121 105
0.262006 0.0607938 0.030686 123 117 102
0.262303 0.0610353 0.0309995 119 112 97
0.26229 0.061035 0.0305699 118 110 95
0.262587 0.0612914 0.0309317 109 100 85
0.261996 0.0607835 0.0302931 125 117 101
0.261677 0.0606081 0.0299288 132 122 105
0.261341 0.0605008 0.029563 134 126 109
0.260994 0.0604632 0.029149 139 132 115
0.260683 0.0603624 0.0291387 140 133 115
0.26171 0.0605648 0.030316 133 125 107
0.261372 0.0604635 0.0299355 132 125 110
0.26103 0.0603839 0.0295791 135 127 111
0.260707 0.0603349 0.0295593 134 127 108
0.260364 0.0603008 0.0295469 129 124 106
0.261394 0.0604345 0.0303263 133 126 109
0.261068 0.0603302 0.0303233 131 127 111
0.261047 0.0603584 0.0299368 136 127 109
0.260724 0.060289 0.0299524 132 126 108
0.260744 0.0602656 0.0307518 121 121 103
0.260723 0.0602726 0.0303303 123 122 105
0.260407 0.0602507 0.0307425 108 112 93
0.260402 0.0602755 0.0303431 115 115 99
0.260118 0.0603343 0.0307246 76 88 74
0.260083 0.0603299 0.0303291 96 102 87
0.25986 0.0604477 0.0303108 61 74 57
0.260055 0.0603581 0.0299357 99 104 88
0.259814 0.0604209 0.0300476 78 89 74
0.260387 0.0602922 0.0299523 119 119 100
0.260419 0.0602915 0.0311366 89 98 82
0.260136 0.0603662 0.0310959 76 86 67
0.2601 0.0603505 0.0309768 77 86 66
0.259845 0.0604329 0.0306276 58 74 56
0.259831 0.0605187 0.0311602 59 70 52
0.259601 0.0605424 0.0302963 52 68 51
0.260743 0.0605302 0.0323024 73 93 84
0.260745 0.060396 0.0319284 94 106 94
0.261051 0.0605595 0.0323112 87 105 97
0.261072 0.0604532 0.0319376 100 111 99
0.26138 0.0606388 0.0323027 101 111 101
0.261383 0.060576 0.0319168 117 123 108
0.261688 0.0607097 0.0319447 117 121 109
0.261707 0.060648 0.0315118 122 122 108
0.261996 0.0608886 0.0318943 117 120 106
0.262001 0.0608413 0.0314897 121 120 104
0.262289 0.0611087 0.0318417 117 119 105
0.262293 0.0610604 0.0314267 120 117 100
0.262575 0.0613167 0.0315267 114 108 93
0.262567 0.0612985 0.0313424 114 109 93
0.262853 0.0615743 0.0313618 108 100 85
0.263116 0.0619157 0.0316871 112 99 80
0.262851 0.061629 0.0318365 115 108 90
0.263105 0.0620016 0.0320834 121 113 92
0.262829 0.061722 0.0322509 121 117 97
0.26306 0.0621285 0.0324699 126 119 98
0.262795 0.0618421 0.0326455 126 126 108
0.263015 0.0623219 0.0327963 131 127 105
0.262754 0.0620139 0.0329741 132 132 112
0.262964 0.0625185 0.0330099 136 132 109
0.262693 0.0622353 0.0332592 136 139 119
0.26263 0.06253 0.0335082 137 139 119
0.262417 0.0619903 0.0334973 128 133 116
0.262899 0.0628129 0.0332442 143 141 117
0.262809 0.0631466 0.0334701 147 143 117
0.263158 0.0631113 0.0329609 143 131 105
0.263066 0.0634654 0.0331977 146 138 112
0.26335 0.0634224 0.0326737 144 125 96
0.263296 0.0637106 0.0328736 143 126 97
0.262773 0.0632779 0.0335482 148 144 121
0.262704 0.0634909 0.0336743 149 146 124
0.263402 0.0631382 0.0324218 143 119 89
0.263447 0.0629299 0.0321668 141 116 86
0.263451 0.0628791 0.0320481 136 114 84
0.263303 0.062459 0.0322561 131 117 91
0.263327 0.0623493 0.0319071 120 105 81
0.263243 0.0626604 0.0325944 138 127 101
0.263216 0.0627978 0.0327549 138 128 102
0.262563 0.0613807 0.0319819 118 114 96
0.262281 0.0611411 0.0321077 117 120 106
0.261979 0.0609551 0.0322977 120 124 110
0.26167 0.0607897 0.0323285 116 124 110
0.261353 0.0607488 0.0326759 97 115 106
0.261037 0.0606859 0.0326783 89 112 102
0.261331 0.0608858 0.0331136 75 103 98
0.261281 0.0610552 0.0334599 91 115 107
0.261602 0.0611753 0.0334634 93 117 107
0.26126 0.0612479 0.0337884 87 112 104
0.261575 0.0613795 0.033783 103 124 113
0.261657 0.0608914 0.0327169 109 123 112
0.261644 0.0610016 0.0330923 104 121 110
0.261942 0.0611598 0.0330505 112 124 112
0.261906 0.0612999 0.0333601 115 127 113
0.262208 0.0615029 0.0332856 119 127 114
0.261873 0.0615004 0.0336943 108 127 114
0.262153 0.0617287 0.033615 120 129 115
0.262473 0.0617436 0.0331474 127 131 116
0.262235 0.061352 0.0329118 122 128 113
0.262518 0.0615768 0.0327891 126 128 111
0.262261 0.061229 0.0325124 120 126 110
0.262544 0.0614745 0.0323871 121 124 107
0.261964 0.0610539 0.0326766 108 121 109
0.2614 0.0605043 0.0315288 120 122 108
0.261076 0.0604046 0.0315414 114 119 105
0.260387 0.0608102 0.032887 49 74 66
0.260122 0.0609589 0.0330635 37 68 60
0.260401 0.0609985 0.0333598 47 77 74
0.260148 0.0611595 0.0335621 37 65 55
0.260399 0.0613032 0.033915 48 76 69
0.260646 0.0614311 0.0341107 57 85 80
0.260365 0.0616062 0.0342443 52 81 75
0.260775 0.0617196 0.0343779 60 91 89
0.260514 0.0618546 0.0344944 56 86 81
0.260736 0.0620536 0.0346275 66 96 91
0.260401 0.062098 0.0346809 48 77 72
0.260648 0.0623881 0.0348422 61 91 87
0.260269 0.0623274 0.034845 47 76 72
0.260373 0.062618 0.0349868 55 86 85
0.259969 0.0624414 0.0349176 42 70 65
0.260077 0.0627781 0.0351064 50 80 77
0.260023 0.0621279 0.0347081 38 66 61
0.261065 0.0620114 0.0345276 84 110 100
0.260995 0.0622606 0.0347053 83 111 102
0.260981 0.0625338 0.0348656 82 112 101
0.260793 0.062775 0.0349929 78 109 100
0.261156 0.0627983 0.0349043 101 124 112
0.261115 0.0630651 0.0349918 100 123 110
0.261489 0.0628881 0.0347671 115 131 118
0.261394 0.063274 0.0349034 121 138 122
0.261771 0.0630785 0.0346152 138 145 128
0.261684 0.0634263 0.0347159 122 140 123
0.261284 0.0636474 0.034987 120 136 121
0.260978 0.0634929 0.0351382 101 124 111
0.260934 0.0631431 0.0350783 93 119 107
0.260827 0.0629707 0.0350607 80 109 100
0.260533 0.0629452 0.0351143 70 103 95
0.260211 0.0631417 0.0352359 60 92 89
0.260386 0.0634693 0.0353004 79 110 102
0.260463 0.0636582 0.0353261 89 115 105
0.260567 0.0637609 0.0352982 88 115 105
0.260753 0.0635564 0.0352285 95 118 107
0.26067 0.0632777 0.0351953 85 111 101
0.260884 0.0638756 0.0351987 111 129 115
0.261365 0.0622083 0.0345576 96 119 106
0.261273 0.0623918 0.0346902 93 119 106
0.261283 0.0626428 0.034808 104 124 110
0.261624 0.0625012 0.0345561 120 132 117
0.261823 0.0629468 0.0345484 130 141 124
0.26192 0.0626843 0.0343931 129 139 121
0.26064 0.0608614 0.03319 60 87 81
0.259848 0.061166 0.0332183 34 61 47
0.259853 0.0613835 0.0336966 34 63 50
0.263938 0.0652688 0.0317924 113 60 35
0.2636 0.0649124 0.0321588 132 85 50
0.263602 0.0650992 0.0322167 136 95 61
0.263321 0.064716 0.0327633 144 122 89
0.263523 0.0653373 0.0324121 133 91 58
0.263233 0.065089 0.0328686 146 122 89
0.263439 0.0656922 0.0325684 132 87 52
0.263137 0.065454 0.0329692 146 115 76
0.263057 0.0658109 0.0330216 155 120 83
0.262753 0.0656798 0.0334031 160 135 102
0.262921 0.066176 0.0330866 159 124 86
0.262618 0.0660534 0.0334754 163 138 107
0.262481 0.0664159 0.0335288 165 133 97
0.262327 0.0659218 0.0338332 162 145 113
0.262205 0.0662816 0.0338795 161 138 106
0.262014 0.0657793 0.0342094 158 148 119
0.261875 0.0662221 0.0342443 158 143 110
0.261604 0.0660306 0.0345498 149 139 112
0.26157 0.0661784 0.0345313 146 136 110
0.261264 0.0661223 0.0347747 133 128 105
0.261157 0.0664922 0.0346602 128 119 99
0.260834 0.0664201 0.0348176 129 124 104
0.260714 0.0668072 0.0346328 129 124 103
0.260478 0.0664013 0.0349006 127 127 110
0.260371 0.0667566 0.0347456 129 126 109
0.260031 0.0666981 0.0348456 127 129 112
0.260266 0.0670961 0.0345733 128 125 108
0.25992 0.0670473 0.0346719 129 129 113
0.259818 0.067373 0.0344767 131 129 114
0.259474 0.0673219 0.0345783 134 134 120
0.259392 0.0675825 0.034394 137 137 121
0.259043 0.0675439 0.0344805 134 136 120
0.259302 0.0678772 0.034154 137 137 123
0.258952 0.0678368 0.0342395 134 137 122
0.258861 0.0681226 0.0339662 139 140 126
0.258516 0.0680682 0.0340256 139 142 128
0.258818 0.0682468 0.0338288 139 140 126
0.258472 0.0682056 0.0338806 140 143 129
0.258739 0.0685003 0.0335277 141 142 127
0.258393 0.0684596 0.0335771 146 148 133
0.258661 0.0687398 0.0332185 147 146 130
0.258465 0.0687179 0.0332374 149 151 133
0.25867 0.0689924 0.0328131 147 148 132
0.258302 0.0689297 0.0329292 147 151 135
0.258484 0.0691714 0.0325074 147 148 132
0.258164 0.0690772 0.0327042 148 150 134
0.257965 0.069223 0.0323851 146 150 134
0.257639 0.0691097 0.0325837 140 150 135
0.257721 0.0693345 0.0320694 150 153 137
0.257393 0.0692238 0.0322628 144 151 137
0.257455 0.069404 0.0317568 140 149 135
0.257142 0.0692943 0.0319513 129 146 134
0.257192 0.0694341 0.0314335 133 145 132
0.256879 0.0693196 0.0316477 125 142 131
0.257097 0.0694238 0.0313142 133 144 130
0.256599 0.0692888 0.0313262 116 135 125
0.258289 0.0693198 0.0321901 147 148 132
0.25881 0.0692744 0.0322974 150 145 129
0.258877 0.0691686 0.0324915 150 146 129
0.258822 0.0693159 0.0322145 152 143 124
0.259224 0.0691967 0.0324339 146 137 121
0.259161 0.0693549 0.0320854 148 138 121
0.259578 0.0691993 0.032359 144 132 114
0.259514 0.0693522 0.0320042 145 131 111
0.259925 0.0691778 0.0322774 139 120 100
0.259862 0.0693078 0.0319065 144 119 93
0.260263 0.0691055 0.032173 138 115 89
0.260204 0.0692263 0.031803 146 117 89
0.260611 0.0690639 0.0318718 136 95 64
0.260597 0.0691184 0.0316439 137 97 65
0.26102 0.0691032 0.0314931 130 76 50
0.260584 0.0692222 0.0312206 133 87 59
0.260994 0.0692821 0.0310973 120 64 41
0.261411 0.0691754 0.0314174 109 51 32
0.261761 0.0692505 0.0313871 101 43 26
0.261786 0.0691377 0.0315385 101 43 27
0.262134 0.0692169 0.0315029 90 31 16
0.262208 0.068949 0.0317847 90 31 16
0.26256 0.0689981 0.0317127 85 27 13
0.262608 0.068832 0.0318444 87 28 13
0.262947 0.0688977 0.0317514 81 21 8
0.263052 0.0685594 0.0319337 81 23 10
0.263387 0.0686174 0.0318123 71 11 1
0.263442 0.0684156 0.031902 75 14 3
0.263778 0.0684916 0.0317252 73 13 3
0.263882 0.0681216 0.0318264 76 16 5
0.264204 0.0681848 0.031601 70 6 1
0.263992 0.06776 0.0318819 79 20 7
0.26432 0.0678231 0.0316503 70 9 1
0.264381 0.0675927 0.0316633 72 12 3
0.264087 0.0685491 0.0315101 69 7 1
0.261464 0.06897 0.0317564 114 59 37
0.261862 0.0688849 0.0318518 104 46 29
0.26226 0.0687763 0.0319387 96 40 24
0.262706 0.068506 0.0320382 92 32 16
0.262807 0.0681612 0.0321923 94 35 19
0.263143 0.0682253 0.0320863 85 27 14
0.262905 0.0678103 0.0323277 107 47 27
0.263248 0.0678634 0.0321984 84 24 7
0.262986 0.0675249 0.0324285 109 49 28
0.263325 0.0676025 0.0322647 93 32 14
0.263437 0.0672441 0.0323359 98 39 20
0.263662 0.0676855 0.0320952 80 23 8
0.263772 0.067309 0.0321371 85 28 12
0.264074 0.0674848 0.0319191 79 19 7
0.26416 0.0670916 0.0319087 78 20 7
0.264473 0.0672178 0.0316506 73 15 6
0.264284 0.0667272 0.0318287 81 24 10
0.264617 0.0668452 0.0315476 76 19 8
0.264366 0.0663401 0.031715 84 28 14
0.264671 0.0665409 0.0314939 74 18 6
0.263555 0.068053 0.0320138 76 18 5
0.264119 0.0659725 0.0318732 94 39 20
0.264167 0.0657615 0.0317517 93 38 20
0.26385 0.0655568 0.0320341 112 60 34
0.263796 0.0657825 0.0321689 112 60 34
0.263741 0.0659444 0.0322488 115 61 35
0.263709 0.0661321 0.0323055 113 60 36
0.264026 0.0662319 0.0320094 96 41 22
0.263957 0.0666057 0.0320898 97 42 23
0.263994 0.0661198 0.0320286 107 51 28
0.26018 0.0692708 0.0315993 143 110 78
0.259822 0.0693711 0.0316721 145 120 92
0.259479 0.0694288 0.0317456 148 129 105
0.259125 0.0694539 0.0317972 152 138 116
0.258944 0.0689742 0.03283 148 144 128
0.259297 0.0689997 0.0327712 142 135 119
0.259365 0.0687915 0.0330965 140 135 120
0.259641 0.0690194 0.032703 140 129 114
0.259739 0.0687473 0.0331297 138 129 114
0.260084 0.0687534 0.0330279 130 116 101
0.260162 0.0685203 0.0333303 129 115 99
0.260504 0.0685009 0.0332007 123 104 87
0.26054 0.0684065 0.0333081 125 108 93
0.260833 0.0684579 0.0330502 122 99 80
0.260959 0.0681286 0.0334431 119 99 82
0.261243 0.0680841 0.0332073 120 96 75
0.26135 0.0677984 0.0334895 119 98 78
0.261651 0.0677359 0.0332038 134 104 76
0.261771 0.0674712 0.0334869 138 113 85
0.26212 0.0674146 0.0330712 147 108 75
0.262223 0.0670353 0.0334043 155 120 86
0.262646 0.0670737 0.0328942 150 93 56
0.262732 0.0667248 0.0330464 154 98 59
0.263163 0.0667838 0.0326391 125 67 37
0.26279 0.0665634 0.0330676 158 114 71
0.263254 0.0663703 0.0326626 136 82 48
0.263354 0.0660134 0.0326396 140 95 59
0.263624 0.0664765 0.0323591 108 52 30
0.263516 0.066844 0.0323976 98 41 22
0.263079 0.0671482 0.0325479 124 65 39
0.262584 0.0674073 0.0326838 133 74 46
0.262078 0.06772 0.0328027 140 99 69
0.261574 0.0680314 0.0328802 129 94 67
0.261144 0.0683829 0.0328432 124 94 67
0.260754 0.068682 0.0327349 128 97 73
0.260422 0.0687339 0.0328867 128 108 89
0.260342 0.0689374 0.0325604 132 110 89
0.259994 0.0690129 0.0326268 130 115 97
0.260667 0.0688751 0.032397 136 104 73
0.260617 0.0690117 0.0320448 137 101 71
0.261054 0.0688232 0.0321367 131 88 59
0.261043 0.0689486 0.0318795 129 82 54
0.261479 0.0688285 0.0319453 113 61 38
0.261095 0.0686101 0.0325269 128 96 69
0.261497 0.0685705 0.0322775 121 75 50
0.261928 0.0685921 0.0321215 105 50 32
0.261546 0.0683481 0.0325291 122 81 57
0.261966 0.068381 0.032281 113 62 40
0.262353 0.0684461 0.0321512 97 37 18
0.26202 0.068043 0.0325267 125 80 55
0.262442 0.0681005 0.0323156 107 49 27
0.262525 0.0677599 0.0325048 118 61 34
0.263846 0.0669657 0.0321496 88 34 18
0.262374 0.0666859 0.0335155 162 131 96
0.262085 0.0666534 0.0338749 156 135 103
0.261781 0.0665714 0.0342145 154 134 103
0.261467 0.0665498 0.0344616 144 129 104
0.261051 0.0668509 0.0345024 128 119 100
0.260608 0.0671493 0.0344688 127 120 102
0.260158 0.0674284 0.0343707 131 126 111
0.259719 0.06769 0.0342446 134 131 116
0.261945 0.0670094 0.0337855 152 127 98
0.261888 0.0671887 0.0336989 146 122 94
0.26158 0.0672234 0.0339547 128 112 89
0.261465 0.06753 0.0337408 123 103 82
0.261164 0.0675347 0.0339337 123 109 90
0.261057 0.0678261 0.0336955 121 104 88
0.260738 0.0678163 0.0338717 121 110 95
0.260638 0.0681205 0.0336036 122 107 93
0.260303 0.0680869 0.0337574 122 114 100
0.260254 0.068246 0.0336081 127 115 98
0.259902 0.0682325 0.0337193 134 126 112
0.259818 0.0685058 0.0334331 137 129 113
0.259473 0.0684697 0.0335282 139 133 118
0.259391 0.0687201 0.0332126 140 134 119
0.259093 0.068536 0.0334735 144 142 127
0.259017 0.0687709 0.033164 147 142 126
0.259171 0.0682798 0.0337666 143 141 125
0.259554 0.0681969 0.0338002 136 132 117
0.25965 0.0679163 0.0340667 134 130 114
0.259997 0.0679434 0.0339722 131 126 110
0.260059 0.0677434 0.0341332 131 125 110
0.2604 0.0677902 0.0340154 121 113 99
0.260502 0.0674747 0.0342504 121 114 98
0.260841 0.0675185 0.0341182 120 110 94
0.260943 0.0671885 0.0343308 123 117 98
0.261276 0.0672175 0.0341599 125 113 94
0.261379 0.0668808 0.0343365 139 123 100
0.261678 0.0669562 0.0340837 141 121 96
0.263093 0.0644548 0.0331637 150 135 106
0.262997 0.064844 0.0332337 152 137 107
0.262726 0.0646249 0.0335791 155 146 120
0.262612 0.0650046 0.0336477 157 147 119
0.262322 0.0647844 0.0340003 152 150 127
0.262243 0.0650438 0.0340507 156 154 129
0.261938 0.0649041 0.0344137 151 152 129
0.26213 0.0654157 0.0341313 161 154 124
0.261818 0.0652763 0.0344801 150 149 125
0.261717 0.0656521 0.0345428 151 145 119
0.261311 0.065905 0.0347981 135 132 110
0.260939 0.0660532 0.0349363 133 129 109
0.260587 0.0660512 0.0350406 124 126 109
0.260137 0.0663458 0.0350083 124 126 110
0.259796 0.0662875 0.0350981 122 126 112
0.259682 0.0666469 0.0349472 128 130 114
0.259456 0.0662138 0.035175 116 123 109
0.259344 0.0665752 0.035025 123 128 113
0.25901 0.0664918 0.0350786 124 133 119
0.258906 0.0668237 0.0349299 125 134 120
0.258568 0.0667463 0.0349753 125 136 122
0.258806 0.0671617 0.0347549 132 139 124
0.258462 0.0670792 0.0347968 131 138 123
0.258363 0.067408 0.0345942 127 136 123
0.258073 0.0671856 0.0347133 129 139 124
0.257969 0.0675088 0.0344847 125 137 123
0.257638 0.0674023 0.0344908 116 129 117
0.257542 0.0676988 0.0342332 121 133 119
0.257215 0.0675789 0.0342425 115 126 112
0.257164 0.0676174 0.0341886 116 127 112
0.256784 0.0674129 0.0342411 105 112 96
0.256618 0.0676489 0.0339636 111 121 105
0.256168 0.0673238 0.0340196 88 97 78
0.255949 0.0674813 0.0337605 78 92 77
0.255272 0.0672266 0.0336114 37 56 42
0.254698 0.0669104 0.0338205 15 35 21
0.254326 0.0668115 0.0339744 10 30 15
0.254029 0.0668204 0.0341151 5 25 12
0.253738 0.0668098 0.0343821 2 24 8
0.253715 0.0669252 0.0339113 3 24 10
0.253508 0.0669507 0.034068 1 21 8
0.253273 0.0670332 0.0337447 1 20 7
0.252973 0.0670795 0.0333297 1 18 5
0.252491 0.0671654 0.0332421 0 15 3
0.252769 0.0670755 0.0329848 1 17 3
0.252476 0.0670802 0.0328253 1 17 4
0.25271 0.066987 0.0325453 3 20 6
0.252202 0.0670188 0.03247 0 15 3
0.252416 0.0668925 0.0321529 2 17 4
0.251945 0.0668637 0.0320386 0 14 2
0.252202 0.0667593 0.0318163 0 16 2
0.251882 0.0666349 0.031579 0 15 1
0.252261 0.0666101 0.0314768 1 18 2
0.252476 0.0665008 0.0311938 8 23 6
0.252753 0.066441 0.0309682 10 26 7
0.252999 0.066367 0.0307347 18 30 11
0.25199 0.0672854 0.0332595 0 14 2
0.251659 0.0673827 0.0334226 0 16 3
0.251219 0.0674811 0.0333856 0 13 2
0.250959 0.0675436 0.0336233 0 15 3
0.250698 0.0676217 0.0337374 0 14 2
0.250431 0.0677172 0.0338613 0 15 2
0.250152 0.0677811 0.033607 0 12 2
0.249937 0.0678961 0.0339006 0 11 0
0.249716 0.0678901 0.0335726 0 7 0
0.249385 0.0679943 0.0336366 0 7 0
0.249066 0.0681129 0.0337203 0 7 0
0.262447 0.0655479 0.0337656 157 148 121
0.262565 0.0651658 0.0336772 157 148 122
0.262884 0.065227 0.0333096 151 134 103
0.262829 0.0642461 0.033494 151 146 119
0.262441 0.0643993 0.0339259 150 152 128
0.262039 0.0645707 0.0343345 151 153 130
0.261627 0.0647739 0.0347004 146 147 126
0.261524 0.0651408 0.0347649 144 144 121
0.261117 0.0654088 0.0350034 134 135 113
0.260696 0.0656787 0.0351386 136 136 115
0.260278 0.0658954 0.0351767 119 125 108
0.259826 0.06619 0.0351344 122 127 112
0.258229 0.0666668 0.035 127 138 123
0.257787 0.0668996 0.0348224 128 138 122
0.257406 0.066946 0.0347277 127 130 114
0.256966 0.067156 0.0344905 107 110 90
0.257299 0.067279 0.0344907 114 123 109
0.257736 0.0670823 0.03473 126 136 122
0.258126 0.0670008 0.0348204 118 133 121
0.261418 0.0655333 0.0348018 144 143 120
0.261008 0.0658091 0.0349815 132 128 109
0.263233 0.0624682 0.0306623 92 71 57
0.263163 0.0626413 0.030134 82 52 42
0.263004 0.0620273 0.0302613 84 70 63
0.26292 0.0622733 0.0297335 75 49 49
0.262746 0.0617639 0.0297926 81 63 63
0.262674 0.0619281 0.0293741 77 57 60
0.262467 0.0615156 0.0294025 90 78 73
0.262402 0.0616389 0.029007 87 77 74
0.26217 0.0612988 0.0290211 106 96 86
0.26212 0.0614255 0.0286336 89 74 73
0.261858 0.061132 0.0286225 101 95 89
0.262337 0.061791 0.0286534 82 68 71
0.262605 0.0620855 0.0290413 78 56 60
0.262842 0.0624524 0.0293333 76 44 47
0.263086 0.0627976 0.0296675 76 37 33
0.262764 0.0616814 0.0300063 83 70 65
0.262517 0.0613915 0.0297948 95 85 76
0.262216 0.0611781 0.0294354 107 99 89
0.261912 0.0609934 0.0290609 119 109 97
0.261576 0.0608848 0.0286719 117 111 102
0.299466 0.0690606 0.0193562 166 166 144
0.299803 0.0691621 0.0195334 164 164 141
0.300111 0.0693774 0.0198857 168 165 138
0.291043 0.085377 -0.00267076 0 9 0
0.290889 0.0856428 -0.00256111 0 8 0
0.290857 0.085702 -0.00215041 0 9 0
0.290839 0.0857751 -0.00167608 0 7 0
0.290923 0.0857541 -0.00113116 0 7 0
0.290998 0.0855111 -0.000805739 0 7 0
0.291058 0.0852611 -0.000473697 0 6 0
0.291114 0.0850516 -0.000228878 0 6 0
0.291164 0.0853616 -5.08707e-05 0 6 0
0.291232 0.0850964 0.000278657 0 6 0
0.291302 0.0854117 0.000453949 0 6 0
0.291386 0.0851461 0.000778091 0 6 0
0.291488 0.0854777 0.000936795 0 7 0
0.291578 0.0852315 0.00121382 0 5 0
0.291673 0.0855296 0.00140175 0 6 1
0.291783 0.0850535 0.00151778 0 5 0
0.291882 0.0854019 0.0017438 0 6 1
0.292008 0.0850986 0.00201212 0 9 2
0.292076 0.0854146 0.00220132 0 10 3
0.292196 0.0851877 0.00248926 0 11 3
0.292252 0.0854963 0.00268101 0 14 4
0.292355 0.0852771 0.00298283 1 12 3
0.292392 0.0855692 0.00317894 1 11 3
0.291669 0.0846623 0.00136276 1 4 0
0.291499 0.0849065 0.00108085 0 5 0
0.291408 0.0845737 0.000916136 1 5 0
0.291323 0.0848364 0.000594097 0 5 0
0.291288 0.0845071 0.000417649 0 6 0
0.291203 0.0847978 8.81944e-05 0 5 0
0.291519 0.084319 0.00118904 2 6 0
0.291481 0.0840278 0.00101334 2 7 0
0.291377 0.0842598 0.000750937 1 5 0
0.290806 0.0858816 -0.00232369 0 8 0
0.29076 0.0862326 -0.00224843 0 7 0
0.290793 0.0860131 -0.00195824 0 8 0
0.29081 0.0864144 -0.00190161 0 7 0
0.290829 0.0860892 -0.00151001 0 6 0
0.290902 0.0865413 -0.00149964 0 7 0
0.29093 0.086285 -0.00118748 0 8 0
0.291023 0.0868114 -0.00126 0 9 0
0.29105 0.0865555 -0.000949987 0 9 0
0.291096 0.0870878 -0.00102448 0 9 0
0.291126 0.0868384 -0.000731221 0 10 0
0.291184 0.0871079 -0.000495757 0 10 0
0.291262 0.0868454 -0.000177681 0 9 1
0.291304 0.0871481 1.80071e-05 0 11 1
0.291386 0.0868953 0.000336674 0 11 1
0.291433 0.0872013 0.000528138 0 11 1
0.291555 0.0869551 0.000838513 0 11 2
0.291602 0.0872579 0.00102757 0 11 3
0.291733 0.0870167 0.00132847 0 12 3
0.291776 0.0873194 0.0015291 0 13 4
0.291923 0.0870777 0.00182655 0 14 4
0.291951 0.0873814 0.00202003 0 16 5
0.292059 0.0871312 0.00233495 0 16 5
0.292094 0.0874402 0.00252345 0 16 5
0.292216 0.0871912 0.00284086 0 15 4
0.292251 0.0874867 0.00303733 0 16 5
0.292356 0.0872296 0.00335803 0 15 4
0.292402 0.0875327 0.00355163 0 14 4
0.292477 0.0872821 0.00386535 0 11 2
0.292532 0.0875874 0.00405488 0 13 2
0.292603 0.08734 0.00437588 0 10 2
0.292657 0.0876481 0.00456154 0 11 2
0.292545 0.0870305 0.00418683 0 11 2
0.29243 0.0869825 0.00367202 0 13 4
0.292317 0.0869375 0.00315508 0 15 4
0.29216 0.0868867 0.00264699 0 15 4
0.292011 0.0868304 0.00214492 0 14 4
0.291856 0.0867725 0.00164123 0 11 3
0.291671 0.086708 0.00114141 0 10 2
0.291501 0.0866505 0.000641508 0 10 1
0.291347 0.0865975 0.00013968 0 10 1
0.291208 0.0865432 -0.000362882 0 8 0
0.291115 0.0863089 -0.000640404 0 9 0
0.291004 0.086025 -0.000877849 0 8 0
0.291057 0.0857836 -0.000575896 0 7 0
0.291099 0.0856292 -0.00038503 0 6 0
0.291183 0.0859478 -0.000211759 0 8 0
0.291249 0.0856823 0.000118135 0 7 0
0.291338 0.0860077 0.000284314 0 8 0
0.291414 0.0857507 0.000608312 0 7 1
0.291528 0.0860863 0.000773824 0 8 1
0.291587 0.0858178 0.00109895 0 7 1
0.291693 0.0861414 0.00127344 0 8 1
0.29179 0.0858622 0.00160136 0 8 1
0.291884 0.0862085 0.00176829 0 10 2
0.292016 0.0859712 0.00208063 0 11 3
0.292071 0.0862747 0.00226759 0 13 3
0.292182 0.0860224 0.00257722 1 14 4
0.292214 0.0863196 0.00278119 0 14 4
0.292316 0.086094 0.00306978 1 13 4
0.29235 0.0863859 0.00327429 1 14 4
0.292421 0.0861122 0.00356037 0 11 3
0.292457 0.0863978 0.00380498 0 11 2
0.2925 0.0867298 0.00398838 0 10 2
0.292385 0.0866859 0.00347659 0 13 4
0.292261 0.0866256 0.00297267 0 15 4
0.292111 0.0865772 0.00246506 0 15 5
0.291959 0.0865199 0.00195572 0 11 3
0.291785 0.0864636 0.00145564 0 9 2
0.291595 0.0863966 0.000960589 0 8 1
0.29143 0.0863373 0.000455065 0 10 1
0.291284 0.0862885 -4.85978e-05 0 9 0
0.291131 0.0862257 -0.000537248 0 9 0
0.292402 0.0858494 0.0033429 1 12 4
0.292287 0.0858023 0.00286866 0 14 4
0.292132 0.0857212 0.00238755 0 13 3
0.291971 0.0856721 0.00194008 0 8 2
0.290797 0.086519 -0.00203479 0 7 0
0.290892 0.0867376 -0.00173963 0 9 0
0.290984 0.0870671 -0.0015769 0 9 0
0.291071 0.0873516 -0.00134492 0 10 0
0.291162 0.0873737 -0.000805341 0 10 0
0.291234 0.087406 -0.000296929 0 11 0
0.291342 0.0874489 0.000217593 0 12 1
0.291479 0.0875102 0.000715689 0 13 2
0.291627 0.087544 0.00123603 0 13 3
0.291831 0.087617 0.00172049 0 15 4
0.29199 0.0876765 0.00222046 0 17 5
0.292119 0.087735 0.00272537 0 17 5
0.292285 0.0877831 0.0032376 0 15 4
0.292446 0.0878391 0.00373914 0 14 4
0.292577 0.0878911 0.00424768 0 13 2
0.292693 0.0879534 0.00476001 0 12 1
0.291119 0.0876845 -0.00118418 0 11 1
0.291203 0.0877239 -0.000669527 0 11 0
0.291273 0.0877131 -0.000112349 0 11 0
0.291372 0.0877463 0.0004096 0 12 2
0.291502 0.087797 0.000924975 0 13 2
0.291681 0.0878528 0.00142583 0 14 3
0.291874 0.0879245 0.00191314 0 17 4
0.292018 0.0879682 0.00242673 0 17 5
0.292148 0.0880332 0.00292466 0 17 5
0.292329 0.0880805 0.00342871 0 16 5
0.292485 0.0881289 0.00394835 0 14 3
0.29262 0.0881946 0.00444891 0 14 3
0.292718 0.0882414 0.00495929 0 12 2
0.291177 0.0879847 -0.000999404 0 12 0
0.291236 0.0880122 -0.000467045 0 12 1
0.291299 0.0880203 7.64653e-05 0 12 1
0.291409 0.0880543 0.000597889 0 13 2
0.291545 0.0880852 0.00112142 0 14 3
0.29171 0.0881613 0.00160975 0 16 5
0.291886 0.0882127 0.00211974 0 17 5
0.292026 0.088262 0.00262577 0 17 5
0.292194 0.0883192 0.00312601 0 17 5
0.292356 0.0883684 0.00363646 0 16 5
0.292517 0.0884221 0.00415444 0 15 3
0.29263 0.0884754 0.00465699 0 14 2
0.292721 0.0885206 0.00516749 0 11 1
0.291207 0.0882863 -0.000797907 0 12 1
0.291256 0.0883056 -0.0002669 0 12 1
0.291329 0.0883132 0.000272884 0 14 2
0.291455 0.0883572 0.00079009 0 15 3
0.291569 0.0883948 0.00131025 0 15 3
0.291739 0.0884506 0.00181911 0 16 5
0.291903 0.0884889 0.00233097 0 17 5
0.292067 0.0885531 0.002825 0 18 5
0.29223 0.0886142 0.00332976 0 16 5
0.292388 0.0886626 0.00383961 0 16 5
0.29254 0.0887117 0.00435314 0 15 3
0.292624 0.0887436 0.00487927 0 14 2
0.292683 0.0887937 0.00537672 0 14 2
0.291222 0.0885814 -0.000605261 0 13 0
0.291263 0.0885838 -5.8691e-05 0 14 2
0.291355 0.0886094 0.000472908 0 16 3
0.29149 0.0886556 0.000986092 0 16 4
0.291603 0.0886904 0.00150988 0 17 5
0.291772 0.0887558 0.00199926 0 18 5
0.291915 0.0887804 0.00253492 0 18 6
0.29208 0.08885 0.00303356 0 19 6
0.292107 0.0891313 0.00324177 0 20 7
0.292249 0.088903 0.00353942 0 17 6
0.29229 0.0892005 0.00373187 0 18 7
0.292419 0.0889448 0.0040469 0 16 5
0.29242 0.0892226 0.00427015 0 17 5
0.292556 0.0889934 0.00457032 0 15 3
0.292604 0.0890243 0.00508932 0 16 3
0.292544 0.0892807 0.0047803 0 16 4
0.292417 0.0894792 0.00450972 0 18 5
0.292322 0.0897149 0.00421469 0 20 6
0.291216 0.0888618 -0.000390805 0 16 2
0.291261 0.0888689 0.000158022 0 16 2
0.291366 0.0889242 0.000654235 0 15 3
0.291496 0.0889293 0.00120834 0 16 4
0.291617 0.0889765 0.00171945 0 16 5
0.291762 0.0890362 0.0022186 0 18 5
0.291929 0.0890758 0.00273211 0 19 6
0.291975 0.089365 0.00293583 0 21 7
0.292117 0.0894189 0.00344585 0 20 7
0.292294 0.0894809 0.00394681 0 19 7
0.291208 0.0891361 -0.000170005 0 16 3
0.291272 0.0891517 0.000363392 0 17 4
0.291388 0.0892136 0.000854738 0 17 4
0.291419 0.0894831 0.00108727 0 18 4
0.291509 0.0892141 0.00141456 0 18 5
0.291507 0.0894988 0.00162849 0 19 5
0.291618 0.0892656 0.00192762 0 18 6
0.291619 0.089549 0.00213176 0 19 6
0.291791 0.0893114 0.0024434 0 19 6
0.291796 0.0895956 0.0026466 0 20 7
0.279083 0.0677697 0.020304 71 5 1
0.279414 0.067873 0.0202105 71 5 1
0.279305 0.0682526 0.0202994 69 4 1
0.279638 0.0683622 0.0202009 68 5 1
0.27953 0.0687355 0.0202631 66 5 0
0.279865 0.0688475 0.020175 66 5 0
0.27942 0.0691232 0.0202928 64 5 1
0.279752 0.0692338 0.0202097 64 6 2
0.279311 0.0695086 0.0203074 61 6 2
0.279637 0.0696111 0.0202265 62 5 1
0.279196 0.0698964 0.0203102 59 5 1
0.279529 0.0700042 0.0202274 59 5 1
0.2795 0.0700932 0.0202292 59 5 1
0.279838 0.0701869 0.0201537 57 6 1
0.279163 0.0700101 0.0203088 58 5 0
0.278855 0.0697941 0.0203936 60 5 1
0.278974 0.0694027 0.0203941 63 6 2
0.279087 0.0690193 0.0203822 65 5 1
0.279199 0.068635 0.020348 66 4 0
0.278978 0.0681424 0.0203939 68 4 0
0.278864 0.0685276 0.0204384 66 4 0
0.278423 0.0688055 0.0205603 64 4 1
0.278371 0.0689747 0.0205624 63 4 1
0.277978 0.0690802 0.020653 63 3 0
0.278256 0.0693644 0.0205627 62 5 1
0.27792 0.069277 0.0206464 63 3 0
0.278149 0.06975 0.0205604 61 4 2
0.277807 0.0696648 0.0206409 60 3 0
0.277532 0.0693612 0.0207324 60 3 0
0.278482 0.0698349 0.0204747 61 5 2
0.278818 0.0699246 0.0203928 60 5 1
0.278601 0.0694554 0.0204829 62 5 2
0.278714 0.0690541 0.0204746 64 4 1
0.27876 0.0689067 0.02047 64 4 1
0.279746 0.0679862 0.0201088 70 6 1
0.27997 0.0684675 0.0201114 69 6 1
0.280302 0.0685764 0.0200104 67 5 0
0.280196 0.0689507 0.0200815 65 6 0
0.280523 0.0690599 0.0199783 63 7 1
0.280084 0.0693353 0.020117 61 7 1
0.280417 0.0694423 0.0200337 60 8 2
0.279973 0.0697249 0.0201409 59 6 1
0.280301 0.0698291 0.0200594 56 6 1
0.280175 0.0702729 0.0200702 56 6 1
0.280623 0.0699739 0.0199701 53 7 1
0.280516 0.0703559 0.0199893 51 8 1
0.28085 0.0704482 0.019937 43 10 2
0.280963 0.0700601 0.0199048 48 10 2
0.281078 0.069652 0.0198574 51 10 2
0.280747 0.0695512 0.0199359 57 7 1
0.280856 0.0691647 0.0198829 61 7 1
0.308929 0.0803888 0.00501278 66 7 5
0.308818 0.0807833 0.00486213 69 7 5
0.308764 0.0809547 0.00482284 71 8 5
0.30865 0.0813487 0.00473239 71 9 6
0.308534 0.0817429 0.0046784 69 10 7
0.308414 0.0821571 0.00465902 65 9 6
0.308294 0.0825741 0.00464771 63 8 5
0.309162 0.0808235 0.00480816 69 7 4
0.309446 0.0811025 0.004675 71 8 5
0.309103 0.0810273 0.0047439 67 8 5
0.309334 0.081482 0.00458076 69 9 6
0.308991 0.0814226 0.00466523 70 9 6
0.309213 0.081894 0.00451601 69 10 7
0.308874 0.0818257 0.00460587 66 9 7
0.309103 0.0822946 0.00449709 65 9 6
0.308754 0.082235 0.00458642 63 9 6
0.30898 0.0827109 0.00450476 66 9 6
0.30894 0.0828449 0.0045076 65 8 6
0.308644 0.082648 0.00457925 65 8 5
0.3085 0.0831336 0.00458691 66 8 4
0.308048 0.0834384 0.00465263 68 8 4
0.307609 0.0837141 0.00471936 68 8 5
0.307164 0.0839705 0.0048179 68 8 4
0.306715 0.0842514 0.00492389 71 7 3
0.306289 0.0845005 0.00506992 71 7 4
0.305949 0.0843929 0.00511538 71 7 3
0.305844 0.0847582 0.00525519 72 8 3
0.30551 0.0846489 0.00528991 71 7 3
0.305417 0.0849978 0.00547541 70 6 3
0.30535 0.0852322 0.00564127 70 8 3
0.305678 0.085341 0.00561355 70 7 3
0.305257 0.0855478 0.00587431 70 8 3
0.305579 0.0856714 0.00583642 69 8 3
0.305177 0.085846 0.00612112 68 8 3
0.305502 0.0859647 0.00609004 69 8 3
0.305427 0.0862498 0.00634628 67 7 3
0.305099 0.0861417 0.00636963 66 7 3
0.305004 0.0864793 0.00674308 63 6 2
0.304946 0.0867107 0.00707488 62 6 2
0.304894 0.0869267 0.00742923 61 6 2
0.304602 0.0866224 0.00708298 62 6 2
0.304557 0.0868364 0.00742851 62 6 2
