ply
format ascii 1.0
element vertex 1736
property float x
property float y
property float z
end_header
0.240013 0.194888 0.0966648
0.240563 0.194624 0.0970359
0.241208 0.194101 0.0980869
0.241768 0.193799 0.0985389
0.242296 0.193583 0.0987696
0.242793 0.193452 0.0987787
0.243306 0.193277 0.0988981
0.243819 0.193104 0.099018
0.244316 0.192973 0.099027
0.244813 0.192842 0.0990359
0.245294 0.192754 0.0989341
0.245791 0.192622 0.0989427
0.246273 0.192534 0.0988409
0.246739 0.192489 0.0986285
0.247236 0.192357 0.0986371
0.247686 0.192355 0.0983139
0.248168 0.192267 0.098212
0.248634 0.192221 0.0979993
0.2491 0.192176 0.0977866
0.249519 0.192259 0.0972417
0.249938 0.192341 0.0966964
0.250373 0.192382 0.0962623
0.250759 0.192552 0.0954882
0.251155 0.192682 0.0947948
0.251535 0.192857 0.0939834
0.251898 0.193075 0.0930534
0.252124 0.193645 0.0911777
0.252368 0.194171 0.0894199
0.252578 0.194784 0.0874258
0.252923 0.195046 0.0863775
0.25332 0.195178 0.0856845
0.25375 0.195221 0.0852276
0.254164 0.195307 0.0846526
0.254595 0.195351 0.0841962
0.255008 0.195438 0.0836211
0.255473 0.195394 0.0834009
0.25592 0.195393 0.0830624
0.256385 0.195349 0.0828423
0.256849 0.195305 0.0826225
0.257331 0.195217 0.0825206
0.257812 0.195128 0.0824187
0.258277 0.195084 0.0821985
0.258758 0.194996 0.0820966
0.259223 0.194951 0.0818765
0.259704 0.194863 0.0817746
0.260169 0.194819 0.0815544
0.26065 0.19473 0.0814525
0.261115 0.194686 0.0812325
0.261579 0.194641 0.0810123
0.262061 0.194553 0.0809104
0.262542 0.194465 0.0808086
0.263024 0.194377 0.0807067
0.263505 0.194288 0.0806048
0.263987 0.1942 0.080503
0.264451 0.194156 0.0802828
0.264933 0.194067 0.0801809
0.265414 0.193979 0.080079
0.265879 0.193935 0.0798589
0.26636 0.193846 0.079757
0.266842 0.193758 0.0796551
0.267323 0.19367 0.0795533
0.267804 0.193582 0.0794514
0.268286 0.193493 0.0793495
0.268785 0.193361 0.079366
0.269249 0.193317 0.0791458
0.269731 0.193229 0.0790439
0.270212 0.19314 0.0789421
0.270693 0.193052 0.0788402
0.271175 0.192964 0.0787383
0.271656 0.192876 0.0786365
0.272138 0.192787 0.0785346
0.272637 0.192655 0.078551
0.273101 0.192611 0.0783309
0.273582 0.192523 0.078229
0.274064 0.192434 0.0781272
0.274545 0.192346 0.0780253
0.275027 0.192258 0.0779234
0.275491 0.192214 0.0777032
0.275973 0.192125 0.0776013
0.276437 0.192081 0.0773812
0.276919 0.191993 0.0772793
0.277383 0.191948 0.0770591
0.277848 0.191905 0.0768393
0.278296 0.191904 0.0765009
0.278777 0.191816 0.076399
0.279242 0.191771 0.0761789
0.27974 0.191639 0.0761953
0.280222 0.191551 0.0760935
0.280703 0.191463 0.0759916
0.281185 0.191374 0.0758897
0.281683 0.191242 0.0759061
0.282165 0.191154 0.0758042
0.28268 0.190977 0.0759386
0.283161 0.190889 0.0758367
0.28366 0.190757 0.0758532
0.284141 0.190669 0.0757513
0.28464 0.190537 0.0757678
0.285138 0.190405 0.0757842
0.285637 0.190273 0.0758007
0.286118 0.190185 0.0756988
0.286617 0.190053 0.0757153
0.287098 0.189964 0.0756134
0.287597 0.189832 0.0756299
0.288078 0.189744 0.075528
0.288577 0.189612 0.0755443
0.289075 0.18948 0.0755608
0.289574 0.189348 0.0755773
0.290089 0.189172 0.0757116
0.290605 0.188996 0.0758464
0.29112 0.18882 0.0759812
0.29167 0.188557 0.0763525
0.292185 0.18838 0.0764869
0.2927 0.188204 0.0766217
0.293216 0.188029 0.0767563
0.293731 0.187853 0.0768911
0.29423 0.187721 0.0769076
0.294728 0.187589 0.076924
0.29521 0.187501 0.0768221
0.295725 0.187325 0.0769569
0.296224 0.187192 0.076973
0.296722 0.18706 0.0769894
0.297221 0.186928 0.0770058
0.297719 0.186796 0.0770223
0.298201 0.186708 0.0769204
0.298682 0.186619 0.0768185
0.299198 0.186444 0.0769533
0.299696 0.186312 0.0769698
0.300195 0.18618 0.0769862
0.30071 0.186004 0.0771208
0.301209 0.185872 0.0771373
0.301707 0.185739 0.0771535
0.302206 0.185607 0.0771699
0.302704 0.185475 0.0771863
0.303203 0.185343 0.0772028
0.303701 0.185211 0.0772192
0.3042 0.185079 0.0772357
0.304698 0.184947 0.0772522
0.30518 0.184859 0.0771503
0.305678 0.184727 0.0771666
0.306177 0.184595 0.0771832
0.306658 0.184506 0.0770813
0.307157 0.184374 0.0770977
0.307621 0.18433 0.0768776
0.308103 0.184242 0.0767757
0.308584 0.184153 0.0766739
0.309066 0.184065 0.076572
0.309547 0.183977 0.0764701
0.310046 0.183845 0.0764865
0.310544 0.183713 0.0765029
0.311042 0.18358 0.076519
0.311524 0.183492 0.0764171
0.312022 0.18336 0.0764336
0.312521 0.183228 0.07645
0.313002 0.18314 0.0763482
0.313484 0.183051 0.0762463
0.313982 0.182919 0.0762628
0.314464 0.182831 0.0761609
0.314928 0.182787 0.0759407
0.31541 0.182698 0.0758389
0.315874 0.182654 0.0756187
0.316356 0.182566 0.0755168
0.31682 0.182521 0.0752966
0.317285 0.182478 0.0750768
0.317749 0.182433 0.0748566
0.318231 0.182345 0.0747548
0.318695 0.1823 0.0745347
0.31916 0.182256 0.0743144
0.319624 0.182211 0.0740943
0.320089 0.182167 0.0738741
0.32057 0.182079 0.0737723
0.321018 0.182078 0.0734337
0.321482 0.182034 0.0732136
0.32193 0.182033 0.0728751
0.322394 0.181989 0.0726553
0.322842 0.181988 0.0723168
0.323307 0.181944 0.0720967
0.323754 0.181943 0.0717582
0.324219 0.181899 0.0715379
0.324666 0.181898 0.0711995
0.32513 0.181854 0.0709794
0.325595 0.181809 0.0707592
0.32606 0.181766 0.0705394
0.326524 0.181721 0.0703192
0.327006 0.181633 0.0702173
0.32747 0.181588 0.0699971
0.327952 0.1815 0.0698953
0.328433 0.181412 0.0697934
0.328915 0.181324 0.0696916
0.329362 0.181323 0.069353
0.329827 0.181278 0.0691329
0.330308 0.18119 0.069031
0.330772 0.181146 0.0688108
0.33122 0.181145 0.0684724
0.331685 0.1811 0.0682522
0.332132 0.181101 0.0679141
0.332597 0.181056 0.0676939
0.333078 0.180968 0.067592
0.333543 0.180923 0.0673719
0.334007 0.180879 0.0671517
0.334472 0.180834 0.0669315
0.334919 0.180834 0.0665931
0.33535 0.180877 0.0661362
0.335797 0.180877 0.0657981
0.336245 0.180876 0.0654596
0.336709 0.180832 0.0652395
0.337174 0.180787 0.0650194
0.337638 0.180743 0.0647991
0.338086 0.180742 0.0644607
0.338533 0.180741 0.0641222
0.338981 0.180741 0.063784
0.339445 0.180697 0.0635639
0.339893 0.180696 0.0632254
0.34034 0.180696 0.0628869
0.340805 0.180651 0.0626667
0.341235 0.180694 0.06221
0.341683 0.180694 0.0618719
0.342096 0.180781 0.0612968
0.342527 0.180824 0.0608399
0.342941 0.180912 0.0602653
0.343354 0.180998 0.0596902
0.34375 0.181129 0.0589968
0.34413 0.181304 0.0581854
0.344493 0.181523 0.0572558
0.344889 0.181654 0.0565623
0.345269 0.181829 0.055751
0.345631 0.182047 0.054821
0.346011 0.182222 0.0540096
0.346391 0.182397 0.0531979
0.346668 0.182835 0.0516771
0.346555 0.184281 0.0474356
0.228003 0.199836 0.093281
0.228569 0.199528 0.0937703
0.22922 0.199 0.0948508
0.229837 0.198561 0.095695
0.230387 0.198297 0.096066
0.230953 0.197989 0.0965553
0.231503 0.197726 0.0969266
0.232052 0.197462 0.0972976
0.232584 0.197242 0.0975506
0.2331 0.197066 0.097685
0.233632 0.196846 0.097938
0.234164 0.196626 0.0981907
0.23468 0.19645 0.0983255
0.235195 0.196273 0.0984598
0.235694 0.196141 0.0984763
0.236175 0.196053 0.0983744
0.236657 0.195965 0.0982725
0.237121 0.19592 0.0980524
0.237586 0.195877 0.0978325
0.23805 0.195832 0.0976124
0.238515 0.195788 0.0973923
0.238979 0.195743 0.0971721
0.239478 0.195611 0.0971885
0.240044 0.195303 0.0976778
0.240671 0.194825 0.0986027
0.241231 0.194523 0.0990547
0.241759 0.194305 0.0992851
0.242287 0.194089 0.0995158
0.2428 0.193915 0.0996353
0.243297 0.193784 0.0996443
0.24381 0.193609 0.0997638
0.244322 0.193436 0.0998836
0.244804 0.193348 0.0997818
0.245317 0.193174 0.0999015
0.245798 0.193086 0.0997996
0.24628 0.192998 0.0996978
0.246761 0.192909 0.0995959
0.247243 0.192821 0.099494
0.247724 0.192733 0.0993922
0.24819 0.192687 0.0991796
0.248656 0.192642 0.0989668
0.249137 0.192553 0.098865
0.249572 0.192594 0.0984309
0.250022 0.192591 0.0981073
0.250441 0.192674 0.0975623
0.250861 0.192758 0.0970174
0.251264 0.192884 0.0963616
0.251668 0.193009 0.0957058
0.252047 0.193185 0.0948945
0.252461 0.193272 0.0943198
0.252705 0.193799 0.0925628
0.253017 0.19415 0.0912783
0.253312 0.194544 0.0898758
0.253624 0.194896 0.0885916
0.253834 0.19551 0.086598
0.254196 0.195729 0.0856684
0.254627 0.195772 0.0852117
0.255024 0.195904 0.0845187
0.255454 0.195948 0.0840622
0.255902 0.195947 0.0837238
0.256366 0.195902 0.0835036
0.256814 0.195903 0.0831655
0.257295 0.195814 0.0830636
0.25776 0.19577 0.0828434
0.258241 0.195682 0.0827415
0.258706 0.195637 0.0825213
0.25917 0.195593 0.0823012
0.259635 0.195548 0.0820811
0.260099 0.195504 0.0818609
0.260564 0.19546 0.0816411
0.261029 0.195416 0.0814209
0.261493 0.195371 0.0812007
0.261958 0.195327 0.0809805
0.262422 0.195282 0.0807604
0.262904 0.195194 0.0806586
0.263368 0.195149 0.0804384
0.26385 0.195061 0.0803365
0.264314 0.195018 0.0801167
0.264796 0.194929 0.0800148
0.265277 0.194841 0.079913
0.265742 0.194797 0.0796928
0.266223 0.194708 0.0795909
0.266722 0.194576 0.0796074
0.267203 0.194488 0.0795055
0.267668 0.194444 0.0792853
0.268149 0.194355 0.0791834
0.268631 0.194267 0.0790816
0.269095 0.194223 0.0788614
0.269577 0.194134 0.0787596
0.270041 0.19409 0.0785395
0.27054 0.193958 0.0785558
0.271021 0.19387 0.0784539
0.27152 0.193738 0.0784704
0.272001 0.193649 0.0783685
0.272483 0.193561 0.0782667
0.272964 0.193473 0.0781648
0.273446 0.193385 0.078063
0.273927 0.193296 0.0779611
0.274409 0.193208 0.0778592
0.27489 0.19312 0.0777573
0.275372 0.193032 0.0776555
0.275836 0.192987 0.0774353
0.276318 0.192899 0.0773334
0.276782 0.192854 0.0771133
0.277264 0.192766 0.0770115
0.277728 0.192722 0.0767913
0.278176 0.192722 0.0764531
0.27864 0.192677 0.076233
0.279105 0.192633 0.0760128
0.279586 0.192545 0.0759109
0.280085 0.192413 0.0759274
0.280549 0.192368 0.0757072
0.281048 0.192236 0.0757236
0.281546 0.192104 0.0757401
0.282045 0.191972 0.0757565
0.282526 0.191884 0.0756547
0.283025 0.191751 0.0756707
0.283523 0.191619 0.0756872
0.284022 0.191487 0.0757036
0.284503 0.191399 0.0756017
0.285002 0.191267 0.0756182
0.2855 0.191135 0.0756346
0.285982 0.191047 0.0755327
0.286463 0.190958 0.0754309
0.286961 0.190825 0.0754469
0.287443 0.190737 0.0753451
0.287941 0.190605 0.0753615
0.288423 0.190517 0.0752597
0.288921 0.190385 0.0752761
0.289403 0.190297 0.0751742
0.289901 0.190165 0.0751906
0.2904 0.190033 0.0752071
0.290932 0.189812 0.0754598
0.291465 0.189593 0.0757128
0.291997 0.189372 0.0759655
0.292529 0.189153 0.0762185
0.293062 0.188932 0.0764713
0.293577 0.188757 0.0766059
0.294076 0.188625 0.0766224
0.294574 0.188493 0.0766388
0.295072 0.18836 0.0766549
0.295588 0.188184 0.0767896
0.296087 0.188052 0.076806
0.296585 0.18792 0.0768225
0.297083 0.187787 0.0768386
0.297582 0.187655 0.0768551
0.298063 0.187567 0.0767531
0.298562 0.187435 0.0767696
0.29906 0.187303 0.076786
0.299559 0.187171 0.0768024
0.300057 0.187039 0.0768189
0.300555 0.186906 0.076835
0.301054 0.186774 0.0768514
0.301553 0.186642 0.0768679
0.302068 0.186466 0.0770026
0.302567 0.186334 0.077019
0.303065 0.186201 0.0770351
0.30358 0.186026 0.0771699
0.304079 0.185894 0.0771863
0.30456 0.185805 0.0770844
0.305059 0.185673 0.0771008
0.305557 0.185541 0.0771173
0.306056 0.185408 0.0771334
0.306537 0.18532 0.0770315
0.307036 0.185188 0.0770479
0.307517 0.1851 0.0769461
0.307999 0.185012 0.0768442
0.30848 0.184923 0.0767423
0.308961 0.184835 0.0766405
0.309443 0.184747 0.0765386
0.309925 0.184659 0.0764367
0.310423 0.184527 0.0764531
0.310922 0.184395 0.0764695
0.31142 0.184263 0.076486
0.311902 0.184175 0.0763841
0.3124 0.184043 0.0764006
0.312898 0.18391 0.0764167
0.31338 0.183821 0.0763148
0.313861 0.183733 0.076213
0.314343 0.183645 0.0761111
0.314824 0.183557 0.0760092
0.315289 0.183513 0.0757894
0.31577 0.183425 0.0756875
0.316235 0.18338 0.0754674
0.3167 0.183336 0.0752472
0.317164 0.183291 0.075027
0.317645 0.183203 0.0749251
0.318127 0.183115 0.0748233
0.318591 0.18307 0.0746032
0.319056 0.183026 0.074383
0.319537 0.182938 0.0742811
0.320002 0.182894 0.0740613
0.320467 0.18285 0.0738411
0.320931 0.182805 0.0736209
0.321396 0.182761 0.0734008
0.321843 0.18276 0.0730623
0.322308 0.182716 0.0728425
0.322755 0.182716 0.072504
0.32322 0.182671 0.0722839
0.323667 0.18267 0.0719454
0.324132 0.182627 0.0717256
0.324596 0.182582 0.0715054
0.325044 0.182582 0.071167
0.325508 0.182537 0.0709468
0.325956 0.182537 0.0706087
0.326438 0.182449 0.0705068
0.326902 0.182404 0.0702866
0.32735 0.182404 0.0699482
0.327831 0.182316 0.0698463
0.328313 0.182227 0.0697445
0.328777 0.182183 0.0695243
0.329242 0.182139 0.0693045
0.329723 0.182051 0.0692026
0.330205 0.181963 0.0691007
0.330669 0.181918 0.0688806
0.331134 0.181874 0.0686604
0.331581 0.181873 0.068322
0.332063 0.181785 0.0682201
0.33251 0.181785 0.067882
0.332975 0.18174 0.0676618
0.333456 0.181652 0.0675599
0.333904 0.181651 0.0672215
0.334369 0.181607 0.0670013
0.334816 0.181607 0.0666632
0.335247 0.18165 0.0662064
0.335677 0.181694 0.06575
0.336142 0.18165 0.0655298
0.336606 0.181605 0.0653096
0.337071 0.181561 0.0650895
0.337518 0.18156 0.064751
0.337966 0.18156 0.0644129
0.338413 0.181559 0.0640745
0.338878 0.181515 0.0638543
0.339326 0.181515 0.0635162
0.339773 0.181514 0.0631777
0.340238 0.18147 0.0629575
0.340685 0.18147 0.0626195
0.341116 0.181513 0.0621626
0.341563 0.181512 0.0618243
0.341977 0.1816 0.0612494
0.342424 0.181599 0.060911
0.342821 0.181731 0.0602179
0.343218 0.181862 0.0595249
0.343649 0.181906 0.0590686
0.343977 0.182213 0.0579023
0.344391 0.1823 0.0573276
0.344771 0.182475 0.0565163
0.345116 0.182738 0.0554683
0.345496 0.182913 0.054657
0.345893 0.183045 0.053964
0.346238 0.183308 0.0529166
0.34633 0.18423 0.0500952
0.227299 0.201003 0.0926246
0.228001 0.200343 0.0940594
0.228499 0.20021 0.0940755
0.229252 0.199419 0.0958649
0.229835 0.199067 0.0964725
0.230384 0.198803 0.0968435
0.230934 0.198539 0.0972144
0.231483 0.198274 0.0975854
0.232032 0.19801 0.0979563
0.232547 0.197834 0.0980907
0.233097 0.197569 0.0984617
0.233629 0.197349 0.0987143
0.234144 0.197173 0.0988491
0.23466 0.196997 0.0989834
0.235158 0.196865 0.0989999
0.235674 0.196689 0.0991346
0.236172 0.196556 0.0991506
0.236654 0.196468 0.0990488
0.237118 0.196424 0.0988291
0.2376 0.196336 0.0987272
0.238064 0.196291 0.098507
0.238529 0.196247 0.0982868
0.23901 0.196159 0.098185
0.239509 0.196027 0.0982014
0.240119 0.195592 0.0990079
0.240662 0.195331 0.0993488
0.241206 0.195072 0.0996899
0.241719 0.194898 0.0998098
0.242247 0.194681 0.10004
0.24276 0.194507 0.10016
0.243288 0.19429 0.10039
0.2438 0.194115 0.100509
0.244313 0.193942 0.100629
0.244795 0.193853 0.100527
0.245292 0.193722 0.100536
0.245773 0.193633 0.100434
0.246255 0.193545 0.100332
0.246752 0.193414 0.100341
0.247233 0.193326 0.100239
0.247715 0.193238 0.100138
0.248196 0.193149 0.100036
0.248678 0.193061 0.0999339
0.249144 0.193016 0.0997212
0.249594 0.193014 0.0993979
0.25006 0.192968 0.0991852
0.250495 0.193009 0.0987511
0.250929 0.193049 0.098317
0.251364 0.19309 0.097883
0.251768 0.193217 0.0972275
0.252156 0.193386 0.0964613
0.252526 0.1936 0.0955693
0.252957 0.193643 0.0951125
0.253302 0.193907 0.094065
0.253564 0.194391 0.0924268
0.253808 0.194918 0.0906698
0.254171 0.195138 0.0897405
0.254415 0.195666 0.087984
0.25471 0.196061 0.0865815
0.25509 0.196237 0.0857707
0.255487 0.196368 0.0850777
0.255934 0.196368 0.0847395
0.256382 0.196368 0.0844011
0.25683 0.196368 0.084063
0.257294 0.196323 0.0838428
0.257742 0.196323 0.0835044
0.258206 0.196279 0.0832846
0.258671 0.196235 0.0830644
0.259152 0.196146 0.0829625
0.2596 0.196146 0.0826241
0.260064 0.196102 0.0824043
0.260512 0.196101 0.0820658
0.26096 0.196101 0.0817278
0.261407 0.196101 0.0813892
0.261855 0.196101 0.0810512
0.262319 0.196056 0.080831
0.262767 0.196056 0.0804925
0.263248 0.195967 0.0803907
0.263713 0.195924 0.0801709
0.264195 0.195836 0.080069
0.264659 0.195791 0.0798489
0.26514 0.195703 0.079747
0.265622 0.195615 0.0796451
0.266104 0.195526 0.0795433
0.266585 0.195438 0.0794414
0.267066 0.19535 0.0793395
0.267531 0.195305 0.0791194
0.268012 0.195217 0.0790175
0.268477 0.195173 0.0787973
0.268925 0.195173 0.0784592
0.269406 0.195085 0.0783574
0.269888 0.194996 0.0782555
0.270386 0.194864 0.0782719
0.270884 0.194732 0.078288
0.271366 0.194643 0.0781861
0.271847 0.194555 0.0780842
0.272329 0.194467 0.0779824
0.27281 0.194379 0.0778805
0.273309 0.194247 0.077897
0.27379 0.194158 0.0777951
0.274272 0.19407 0.0776932
0.274753 0.193982 0.0775913
0.275235 0.193894 0.0774895
0.275716 0.193805 0.0773876
0.276198 0.193717 0.0772858
0.276662 0.193673 0.0770656
0.277127 0.193629 0.0768458
0.277592 0.193584 0.0766257
0.278039 0.193584 0.0762872
0.278504 0.19354 0.0760673
0.278968 0.193496 0.0758471
0.27945 0.193407 0.0757453
0.279931 0.193319 0.0756434
0.280413 0.193231 0.0755416
0.280894 0.193143 0.0754397
0.281393 0.193011 0.0754561
0.281891 0.192878 0.0754723
0.282372 0.19279 0.0753704
0.282888 0.192614 0.0755051
0.283386 0.192482 0.0755215
0.283868 0.192394 0.0754196
0.284366 0.192261 0.0754357
0.284848 0.192172 0.0753339
0.285346 0.19204 0.0753503
0.285845 0.191908 0.0753667
0.286326 0.19182 0.0752649
0.286808 0.191732 0.075163
0.287289 0.191644 0.0750611
0.287771 0.191555 0.0749593
0.288269 0.191424 0.0749757
0.288734 0.191379 0.0747556
0.289215 0.191291 0.0746537
0.289731 0.191114 0.074788
0.290229 0.190982 0.0748045
0.290745 0.190806 0.0749393
0.291277 0.190586 0.0751919
0.291809 0.190366 0.0754445
0.292341 0.190145 0.0756973
0.292874 0.189926 0.0759502
0.293406 0.189705 0.0762028
0.293905 0.189573 0.0762193
0.29442 0.189397 0.0763537
0.294918 0.189265 0.0763701
0.295434 0.189088 0.0765045
0.295932 0.188956 0.0765209
0.296431 0.188824 0.0765373
0.296929 0.188692 0.0765538
0.297445 0.188515 0.0766882
0.297943 0.188383 0.0767046
0.298424 0.188295 0.0766027
0.298923 0.188163 0.0766191
0.299421 0.18803 0.0766352
0.29992 0.187898 0.0766516
0.300418 0.187766 0.0766681
0.300917 0.187634 0.0766845
0.301432 0.187457 0.0768189
0.30193 0.187326 0.0768353
0.302429 0.187193 0.0768518
0.302927 0.187061 0.0768678
0.303426 0.186929 0.0768842
0.303941 0.186753 0.0770189
0.304423 0.186665 0.076917
0.304921 0.186532 0.0769331
0.30542 0.1864 0.0769496
0.305918 0.186268 0.076966
0.306417 0.186136 0.0769825
0.306915 0.186003 0.0769986
0.307413 0.185871 0.0770149
0.307895 0.185783 0.0769131
0.308376 0.185694 0.0768112
0.308858 0.185606 0.0767093
0.309322 0.185562 0.0764892
0.309804 0.185473 0.0763874
0.310302 0.185341 0.0764037
0.310801 0.185209 0.0764202
0.311299 0.185077 0.0764366
0.311781 0.184989 0.0763348
0.312279 0.184856 0.0763509
0.31276 0.184768 0.076249
0.313259 0.184636 0.0762654
0.31374 0.184548 0.0761635
0.314222 0.184459 0.0760617
0.314704 0.184371 0.0759597
0.315185 0.184283 0.0758579
0.31565 0.184239 0.0756378
0.316131 0.18415 0.075536
0.316596 0.184107 0.0753161
0.31706 0.184062 0.075096
0.317542 0.183974 0.0749941
0.318006 0.183929 0.0747739
0.318488 0.183841 0.074672
0.318952 0.183797 0.0744519
0.319434 0.183708 0.0743501
0.319898 0.183665 0.0741302
0.320363 0.18362 0.0739101
0.320827 0.183576 0.0736899
0.321292 0.183531 0.0734697
0.321757 0.183488 0.0732499
0.322204 0.183487 0.0729114
0.322669 0.183443 0.0726913
0.323116 0.183443 0.0723533
0.323581 0.183398 0.072133
0.324028 0.183399 0.0717949
0.324493 0.183354 0.0715748
0.324957 0.18331 0.0713546
0.325405 0.18331 0.0710165
0.32587 0.183265 0.0707964
0.326334 0.183221 0.0705762
0.326799 0.183176 0.070356
0.327246 0.183176 0.0700179
0.327711 0.183132 0.0697978
0.328175 0.183087 0.0695776
0.328657 0.182999 0.0694757
0.329138 0.182911 0.0693739
0.329603 0.182867 0.0691541
0.330085 0.182779 0.0690522
0.330566 0.182691 0.0689503
0.331013 0.18269 0.0686119
0.331495 0.182602 0.0685101
0.331959 0.182557 0.0682899
0.332424 0.182514 0.06807
0.332889 0.182469 0.0678499
0.333353 0.182425 0.0676297
0.333818 0.18238 0.0674096
0.334265 0.18238 0.0670714
0.334713 0.18238 0.066733
0.335127 0.182467 0.0661582
0.335591 0.182424 0.0659385
0.336039 0.182423 0.0656
0.336503 0.182379 0.0653798
0.336951 0.182379 0.0650418
0.337398 0.182378 0.0647033
0.337863 0.182335 0.0644836
0.338294 0.182378 0.0640268
0.338741 0.182378 0.0636887
0.339206 0.182333 0.0634685
0.339654 0.182333 0.0631303
0.340118 0.182289 0.0629102
0.340549 0.182333 0.0624538
0.340996 0.182332 0.0621154
0.341444 0.182332 0.0617773
0.341858 0.18242 0.0612026
0.342288 0.182463 0.0607459
0.342685 0.182595 0.0600532
0.343082 0.182727 0.0593602
0.343478 0.182858 0.0586672
0.343858 0.183034 0.0578563
0.344255 0.183166 0.0571633
0.344635 0.183341 0.056352
0.34493 0.183737 0.0549499
0.345361 0.18378 0.0544936
0.345706 0.184044 0.0534461
0.346086 0.18422 0.0526351
0.223439 0.20922 0.0733992
0.22387 0.209264 0.0729428
0.227398 0.201246 0.0941119
0.227965 0.200937 0.0946008
0.228497 0.200717 0.0948535
0.229249 0.199924 0.0966424
0.229815 0.199615 0.0971314
0.230365 0.199351 0.0975023
0.230897 0.199131 0.0977549
0.231463 0.198822 0.0982438
0.232012 0.198558 0.0986147
0.232527 0.198381 0.0987491
0.233077 0.198117 0.0991201
0.233609 0.197897 0.0993727
0.234124 0.19772 0.099507
0.234623 0.197588 0.0995235
0.235121 0.197456 0.0995399
0.235619 0.197323 0.099556
0.236118 0.197191 0.0995724
0.236615 0.19706 0.0995814
0.237112 0.196928 0.09959
0.237578 0.196884 0.0993776
0.238044 0.196838 0.0991649
0.238509 0.196794 0.0989448
0.239007 0.196662 0.0989612
0.239504 0.196531 0.0989702
0.240063 0.196228 0.0994219
0.240623 0.195924 0.0998735
0.241151 0.195707 0.100104
0.241663 0.195533 0.100223
0.242191 0.195316 0.100454
0.242688 0.195184 0.100462
0.243247 0.194881 0.100914
0.243776 0.194663 0.101144
0.244273 0.194533 0.101153
0.244785 0.194358 0.101273
0.245282 0.194226 0.101281
0.245764 0.194138 0.10118
0.24623 0.194093 0.100967
0.246696 0.194048 0.100754
0.247193 0.193917 0.100763
0.24769 0.193785 0.100772
0.248171 0.193697 0.10067
0.248653 0.193609 0.100568
0.249134 0.19352 0.100466
0.2496 0.193476 0.100254
0.250066 0.19343 0.100041
0.250516 0.193428 0.0997182
0.250967 0.193426 0.0993949
0.251402 0.193467 0.0989608
0.251821 0.193551 0.0984164
0.25224 0.193634 0.0978714
0.252629 0.193803 0.0971051
0.253001 0.194016 0.0962284
0.253401 0.194147 0.0955507
0.253781 0.194323 0.0947399
0.254042 0.194807 0.0931016
0.254406 0.195028 0.0921727
0.254633 0.1956 0.0902983
0.254911 0.19604 0.0887784
0.255274 0.19626 0.0878492
0.255587 0.196612 0.0865655
0.255966 0.196788 0.0857546
0.256414 0.196788 0.0854165
0.256879 0.196744 0.0851963
0.257309 0.196788 0.0847399
0.257774 0.196743 0.0845198
0.258239 0.1967 0.0843
0.258686 0.196699 0.0839616
0.259151 0.196656 0.0837417
0.259615 0.196611 0.0835216
0.260063 0.196611 0.0831835
0.260494 0.196655 0.0827271
0.260941 0.196654 0.0823886
0.261372 0.196698 0.0819323
0.261803 0.196742 0.0814759
0.262233 0.196786 0.0810195
0.262681 0.196786 0.0806814
0.263146 0.196742 0.0804613
0.26361 0.196698 0.0802415
0.264075 0.196654 0.0800213
0.264539 0.196609 0.0798012
0.265004 0.196566 0.0795814
0.265486 0.196477 0.0794795
0.265967 0.196389 0.0793777
0.266448 0.196301 0.0792758
0.26693 0.196213 0.0791739
0.267394 0.196168 0.0789537
0.267842 0.196168 0.0786157
0.268307 0.196124 0.0783955
0.268771 0.196079 0.0781753
0.26927 0.195947 0.0781918
0.269751 0.195859 0.0780899
0.270232 0.195771 0.077988
0.270731 0.195639 0.0780045
0.271213 0.195551 0.0779026
0.271694 0.195462 0.0778007
0.272192 0.19533 0.0778168
0.272674 0.195241 0.0777149
0.273155 0.195153 0.077613
0.273654 0.195021 0.0776294
0.274135 0.194933 0.0775276
0.274634 0.194801 0.0775441
0.275115 0.194713 0.0774422
0.27558 0.194668 0.077222
0.276061 0.19458 0.0771202
0.276526 0.194535 0.0769
0.277007 0.194447 0.0767981
0.277455 0.194447 0.07646
0.277903 0.194447 0.0761219
0.278367 0.194403 0.0759018
0.278832 0.194358 0.0756816
0.279313 0.19427 0.0755798
0.279795 0.194182 0.0754779
0.280276 0.194094 0.0753761
0.280758 0.194006 0.0752742
0.281256 0.193873 0.0752906
0.281738 0.193785 0.0751887
0.282219 0.193697 0.0750869
0.282718 0.193565 0.0751033
0.283216 0.193432 0.0751193
0.283714 0.1933 0.0751358
0.284213 0.193168 0.0751522
0.284694 0.19308 0.0750504
0.285193 0.192947 0.0750664
0.285674 0.192859 0.0749645
0.286173 0.192727 0.074981
0.286671 0.192595 0.0749974
0.287136 0.19255 0.0747772
0.287617 0.192462 0.0746754
0.288116 0.19233 0.0746918
0.28858 0.192286 0.0744716
0.289062 0.192197 0.0743698
0.28956 0.192065 0.0743862
0.290058 0.191932 0.0744023
0.290574 0.191757 0.074537
0.291106 0.191536 0.0747896
0.291638 0.191316 0.0750423
0.292171 0.191095 0.0752949
0.292703 0.190875 0.0755476
0.293235 0.190655 0.0758002
0.293751 0.190478 0.0759346
0.294266 0.190301 0.076069
0.294781 0.190126 0.0762037
0.295297 0.189949 0.0763381
0.295795 0.189817 0.0763544
0.296293 0.189684 0.0763705
0.296809 0.189508 0.0765052
0.29729 0.18942 0.0764033
0.297806 0.189243 0.0765378
0.298304 0.189111 0.0765542
0.298786 0.189023 0.0764523
0.299284 0.188891 0.0764687
0.299782 0.188758 0.0764848
0.300264 0.18867 0.0763829
0.300779 0.188494 0.0765176
0.301295 0.188318 0.076652
0.301793 0.188186 0.0766685
0.302291 0.188053 0.0766845
0.30279 0.187921 0.0767009
0.303288 0.187789 0.0767174
0.303804 0.187612 0.0768517
0.304285 0.187524 0.0767498
0.3048 0.187347 0.0768842
0.305299 0.187215 0.0769006
0.305798 0.187083 0.076917
0.306296 0.18695 0.0769331
0.306794 0.186818 0.0769496
0.307276 0.18673 0.0768477
0.307774 0.186598 0.0768641
0.308256 0.18651 0.0767622
0.308737 0.186422 0.0766603
0.309202 0.186377 0.0764402
0.309683 0.186289 0.0763384
0.310165 0.186201 0.0762365
0.310663 0.186069 0.0762529
0.311161 0.185936 0.076269
0.31166 0.185804 0.0762854
0.312158 0.185672 0.0763019
0.31264 0.185583 0.0762
0.313138 0.185451 0.076216
0.31362 0.185362 0.0761141
0.314101 0.185274 0.0760122
0.314583 0.185186 0.0759104
0.315064 0.185098 0.0758085
0.315546 0.185009 0.0757067
0.31601 0.184966 0.0754869
0.316492 0.184878 0.0753851
0.316956 0.184833 0.0751649
0.317421 0.184789 0.0749447
0.317902 0.1847 0.0748428
0.318367 0.184657 0.074623
0.318849 0.184569 0.0745211
0.319313 0.184524 0.074301
0.319778 0.18448 0.0740809
0.320259 0.184391 0.073979
0.320707 0.184391 0.0736408
0.321188 0.184303 0.073539
0.321653 0.184259 0.0733189
0.322101 0.184259 0.0729808
0.322565 0.184214 0.0727607
0.32303 0.184171 0.0725409
0.323477 0.18417 0.0722023
0.323925 0.18417 0.0718643
0.324389 0.184126 0.0716441
0.324854 0.184082 0.0714243
0.325302 0.184081 0.0710859
0.325783 0.183993 0.070984
0.326248 0.18395 0.0707642
0.326695 0.183949 0.0704258
0.327126 0.183993 0.0699694
0.327591 0.183948 0.0697492
0.328055 0.183905 0.0695294
0.328537 0.183816 0.0694275
0.329018 0.183728 0.0693257
0.3295 0.18364 0.0692238
0.329981 0.183552 0.069122
0.330463 0.183463 0.0690201
0.33091 0.183463 0.0686817
0.331392 0.183374 0.0685798
0.331856 0.183331 0.06836
0.332321 0.183286 0.0681398
0.332785 0.183242 0.0679197
0.33325 0.183198 0.0676999
0.333715 0.183154 0.0674797
0.334162 0.183154 0.0671416
0.33461 0.183153 0.0668032
0.335041 0.183197 0.0663468
0.335505 0.183154 0.066127
0.335953 0.183153 0.0657886
0.3364 0.183153 0.0654505
0.336865 0.183109 0.0652303
0.337296 0.183152 0.0647739
0.337726 0.183196 0.0643176
0.338174 0.183197 0.0639794
0.338622 0.183197 0.0636414
0.339069 0.183196 0.0633029
0.339534 0.183152 0.0630831
0.339981 0.183152 0.0627447
0.340412 0.183196 0.0622883
0.34086 0.183196 0.0619502
0.341291 0.18324 0.0614938
0.341721 0.183284 0.0610374
0.342152 0.183327 0.060581
0.342532 0.183504 0.0597702
0.342912 0.18368 0.0589592
0.343326 0.183767 0.0583845
0.34374 0.183856 0.0578102
0.34412 0.184032 0.0569993
0.344482 0.184252 0.0560702
0.344795 0.184604 0.0547865
0.345242 0.184604 0.0544483
0.345538 0.185001 0.0530467
0.345918 0.185177 0.0522358
0.223441 0.209739 0.074183
0.226627 0.202591 0.0929834
0.227396 0.201753 0.0948899
0.227962 0.201444 0.0953787
0.228613 0.200915 0.0964583
0.229213 0.200517 0.0971833
0.229779 0.200209 0.0976722
0.230328 0.199944 0.0980427
0.230877 0.199679 0.0984133
0.231426 0.199414 0.0987843
0.231975 0.199149 0.0991548
0.232507 0.198929 0.0994074
0.233056 0.198664 0.099778
0.233572 0.198487 0.0999124
0.234087 0.198312 0.100047
0.234586 0.198179 0.100063
0.235067 0.19809 0.0999613
0.235566 0.197958 0.0999777
0.236078 0.197784 0.100097
0.236591 0.19761 0.100217
0.237072 0.197521 0.100115
0.237554 0.197433 0.100013
0.23802 0.197387 0.0998002
0.238486 0.197343 0.0995878
0.238967 0.197254 0.099486
0.23948 0.19708 0.0996055
0.240008 0.196863 0.0998357
0.240567 0.196559 0.100287
0.24111 0.196298 0.100628
0.241638 0.196081 0.100858
0.242151 0.195907 0.100978
0.242679 0.19569 0.101208
0.243223 0.195429 0.101549
0.243735 0.195254 0.101668
0.244248 0.19508 0.101788
0.244745 0.194948 0.101796
0.245257 0.194774 0.101916
0.245739 0.194686 0.101814
0.24622 0.194597 0.101712
0.246702 0.194509 0.10161
0.247183 0.194421 0.101508
0.24768 0.19429 0.101517
0.248162 0.194202 0.101416
0.248628 0.194156 0.101203
0.249125 0.194025 0.101212
0.249575 0.194023 0.100889
0.250041 0.193978 0.100676
0.250507 0.193933 0.100464
0.250973 0.193887 0.100251
0.251408 0.193929 0.0998171
0.251859 0.193927 0.0994939
0.252278 0.19401 0.098949
0.252713 0.194051 0.0985153
0.253101 0.194222 0.0977494
0.253474 0.194435 0.0968727
0.253845 0.194649 0.0959885
0.254242 0.194781 0.0952959
0.254487 0.195311 0.0935402
0.254884 0.195443 0.0928476
0.255129 0.195973 0.0910919
0.255374 0.196502 0.0893362
0.255754 0.196679 0.0885253
0.2561 0.196943 0.0874782
0.256429 0.197252 0.0863131
0.256911 0.197164 0.0862113
0.257375 0.197119 0.0859912
0.257823 0.19712 0.0856531
0.258288 0.197076 0.0854333
0.258735 0.197075 0.0850948
0.2592 0.197032 0.0848751
0.259648 0.197032 0.0845369
0.260095 0.197032 0.0841989
0.260543 0.197031 0.0838605
0.260974 0.197076 0.0834045
0.261387 0.197164 0.0828298
0.261801 0.197252 0.0822555
0.262215 0.197341 0.0816812
0.262646 0.197385 0.0812249
0.263094 0.197385 0.0808867
0.263525 0.197429 0.0804304
0.263989 0.197384 0.0802103
0.264454 0.197341 0.0799905
0.264901 0.19734 0.079652
0.265366 0.197296 0.0794322
0.265847 0.197208 0.0793303
0.266312 0.197164 0.0791102
0.266777 0.19712 0.0788903
0.267224 0.19712 0.0785523
0.267689 0.197076 0.0783322
0.268153 0.197031 0.078112
0.268635 0.196943 0.0780101
0.269116 0.196855 0.0779083
0.269598 0.196767 0.0778064
0.270079 0.196678 0.0777045
0.270561 0.19659 0.0776027
0.271059 0.196458 0.0776191
0.271541 0.19637 0.0775172
0.272039 0.196238 0.0775336
0.272521 0.19615 0.0774318
0.273002 0.196061 0.0773299
0.273501 0.195928 0.077346
0.273999 0.195796 0.0773624
0.274481 0.195708 0.0772605
0.274962 0.19562 0.0771586
0.275444 0.195532 0.0770568
0.275908 0.195487 0.0768367
0.27639 0.195399 0.0767348
0.276871 0.195311 0.0766329
0.277336 0.195267 0.0764131
0.277783 0.195266 0.0760747
0.278231 0.195267 0.0757366
0.278696 0.195223 0.0755168
0.279194 0.19509 0.0755329
0.279659 0.195047 0.0753131
0.28014 0.194958 0.0752112
0.280622 0.19487 0.0751093
0.281103 0.194782 0.0750075
0.281601 0.194649 0.0750236
0.282083 0.194561 0.0749217
0.282581 0.194429 0.0749381
0.28308 0.194296 0.0749542
0.283561 0.194208 0.0748523
0.28406 0.194075 0.0748688
0.284558 0.193944 0.0748851
0.285023 0.193899 0.074665
0.285521 0.193767 0.0746814
0.286019 0.193634 0.0746975
0.286501 0.193546 0.0745956
0.286982 0.193458 0.0744937
0.287464 0.193369 0.0743919
0.287945 0.193281 0.07429
0.288444 0.193149 0.0743064
0.288925 0.193061 0.0742045
0.289407 0.192973 0.0741026
0.289905 0.19284 0.0741187
0.29042 0.192663 0.0742531
0.290936 0.192487 0.0743878
0.291468 0.192266 0.0746401
0.292 0.192046 0.0748927
0.292549 0.191782 0.0752637
0.293065 0.191605 0.075398
0.293597 0.191384 0.0756503
0.294095 0.191252 0.0756667
0.294628 0.191031 0.0759193
0.295143 0.190855 0.0760537
0.295658 0.190678 0.076188
0.296157 0.190546 0.0762044
0.296655 0.190413 0.0762205
0.29717 0.190237 0.0763552
0.297669 0.190104 0.0763713
0.298167 0.189972 0.0763877
0.298649 0.189884 0.0762858
0.299147 0.189751 0.0763019
0.299628 0.189663 0.0762
0.300127 0.189531 0.0762165
0.300642 0.189354 0.0763508
0.301157 0.189178 0.0764851
0.301639 0.18909 0.0763833
0.302154 0.188913 0.0765177
0.302653 0.188781 0.076534
0.303168 0.188604 0.0766684
0.303666 0.188472 0.0766848
0.304165 0.188339 0.0767009
0.304663 0.188207 0.0767173
0.305179 0.188031 0.0768517
0.30566 0.187942 0.0767498
0.306175 0.187766 0.0768841
0.306657 0.187678 0.0767822
0.307155 0.187546 0.0767987
0.307637 0.187457 0.0766968
0.308135 0.187325 0.0767132
0.308617 0.187237 0.0766113
0.309081 0.187193 0.0763912
0.309546 0.187148 0.0761711
0.310044 0.187016 0.0761875
0.310543 0.186884 0.0762039
0.311041 0.186751 0.07622
0.31154 0.186619 0.0762364
0.312038 0.186486 0.0762525
0.312519 0.186398 0.0761506
0.313001 0.18631 0.0760488
0.313499 0.186178 0.0760651
0.313981 0.18609 0.0759633
0.314462 0.186001 0.0758614
0.314944 0.185913 0.0757595
0.315425 0.185825 0.0756576
0.315907 0.185737 0.0755558
0.316371 0.185692 0.0753357
0.316836 0.185649 0.0751159
0.317317 0.18556 0.075014
0.317782 0.185516 0.0747938
0.318263 0.185428 0.074692
0.318728 0.185384 0.0744721
0.31921 0.185296 0.0743703
0.319674 0.185251 0.0741502
0.320139 0.185207 0.07393
0.320603 0.185163 0.0737103
0.321068 0.185119 0.0734901
0.321533 0.185075 0.0732702
0.321997 0.185031 0.0730502
0.322445 0.185031 0.072712
0.322909 0.184986 0.0724919
0.323374 0.184943 0.0722721
0.323821 0.184942 0.0719337
0.324269 0.184942 0.0715956
0.324734 0.184899 0.0713758
0.325198 0.184854 0.0711556
0.325663 0.18481 0.0709355
0.326128 0.184766 0.0707157
0.326575 0.184766 0.0703776
0.327006 0.18481 0.0699212
0.327487 0.184722 0.0698193
0.327952 0.184677 0.0695993
0.328434 0.184589 0.0694974
0.328898 0.184545 0.0692776
0.329397 0.184413 0.0692936
0.329861 0.184369 0.0690738
0.330343 0.184281 0.068972
0.330807 0.184236 0.0687518
0.331289 0.184148 0.0686499
0.331753 0.184104 0.0684302
0.332218 0.18406 0.06821
0.332682 0.184015 0.0679898
0.333147 0.183972 0.0677701
0.333612 0.183927 0.0675499
0.334076 0.183884 0.0673301
0.334524 0.183883 0.0669917
0.334955 0.183928 0.0665357
0.335403 0.183928 0.0661976
0.33585 0.183927 0.0658591
0.336298 0.183927 0.0655211
0.336746 0.183928 0.065183
0.337193 0.183928 0.0648449
0.337624 0.183972 0.0643885
0.338055 0.184016 0.0639321
0.338502 0.184016 0.0635941
0.338933 0.18406 0.0631377
0.339398 0.184016 0.0629179
0.339846 0.184016 0.0625798
0.340293 0.184015 0.0622414
0.340741 0.184016 0.0619033
0.341155 0.184104 0.0613291
0.341568 0.184192 0.0607544
0.342016 0.184192 0.0604163
0.342396 0.184369 0.0596057
0.342776 0.184545 0.0587949
0.343207 0.184589 0.0583385
0.343621 0.184677 0.0577642
0.343984 0.184898 0.0568354
0.344313 0.185207 0.0556704
0.344693 0.185383 0.0548596
0.345074 0.18556 0.054049
0.345403 0.185869 0.0528837
0.223459 0.210212 0.0750844
0.226693 0.202921 0.0942338
0.22736 0.202347 0.0954312
0.227994 0.201861 0.0963924
0.22856 0.201552 0.0968808
0.229142 0.201198 0.0974876
0.229708 0.200889 0.0979765
0.230274 0.20058 0.0984649
0.23084 0.200271 0.0989538
0.231372 0.20005 0.099206
0.231921 0.199785 0.0995766
0.232471 0.19952 0.0999475
0.233003 0.199299 0.1002
0.233518 0.199122 0.100334
0.234033 0.198946 0.100468
0.234562 0.198727 0.100706
0.23506 0.198596 0.100715
0.235541 0.198508 0.100613
0.236054 0.198333 0.100732
0.23655 0.198201 0.100741
0.237032 0.198113 0.100639
0.237513 0.198025 0.100537
0.23798 0.19798 0.100325
0.238445 0.197935 0.100112
0.238927 0.197846 0.10001
0.239424 0.197715 0.100019
0.239952 0.197497 0.100249
0.240495 0.197237 0.10059
0.241054 0.196933 0.101041
0.241598 0.196672 0.101382
0.242126 0.196454 0.101612
0.242654 0.196237 0.101843
0.243167 0.196063 0.101962
0.243694 0.195845 0.102192
0.244207 0.19567 0.102311
0.244704 0.195538 0.10232
0.245201 0.195407 0.102329
0.245698 0.195276 0.102338
0.246195 0.195145 0.102347
0.246677 0.195057 0.102245
0.247173 0.194925 0.102253
0.247655 0.194836 0.102152
0.248136 0.194748 0.10205
0.248618 0.19466 0.101948
0.249084 0.194615 0.101735
0.249565 0.194527 0.101633
0.250016 0.194525 0.10131
0.250498 0.194437 0.101209
0.250948 0.194435 0.100885
0.251398 0.194433 0.100562
0.251849 0.194431 0.100239
0.252284 0.194472 0.0998052
0.252719 0.194513 0.0993711
0.253138 0.194598 0.098827
0.253542 0.194725 0.0981715
0.253931 0.194896 0.097406
0.254304 0.195109 0.0965294
0.254687 0.195284 0.0957341
0.254982 0.195682 0.0943329
0.255346 0.195903 0.0934041
0.255574 0.196478 0.0915309
0.255819 0.197008 0.0897756
0.256216 0.197141 0.0890831
0.256562 0.197406 0.0880364
0.256943 0.197583 0.0872259
0.257407 0.197539 0.0870057
0.257838 0.197583 0.0865498
0.25832 0.197495 0.0864479
0.258767 0.197495 0.0861098
0.259198 0.197539 0.0856534
0.259663 0.197496 0.0854336
0.260127 0.197451 0.0852135
0.260575 0.197451 0.0848754
0.261006 0.197496 0.0844194
0.261437 0.19754 0.0839631
0.261851 0.197628 0.0833888
0.262248 0.197762 0.0826966
0.262662 0.19785 0.0821223
0.263076 0.197939 0.0815481
0.263506 0.197983 0.0810917
0.263937 0.198027 0.0806357
0.264368 0.198071 0.0801793
0.264816 0.198072 0.0798413
0.265263 0.198072 0.0795032
0.265728 0.198027 0.079283
0.266176 0.198027 0.078945
0.266623 0.198028 0.078607
0.267088 0.197984 0.0783871
0.267553 0.197939 0.078167
0.268 0.19794 0.077829
0.268482 0.197851 0.0777271
0.268963 0.197763 0.0776252
0.269428 0.197719 0.0774054
0.26991 0.197631 0.0773035
0.270391 0.197543 0.0772017
0.270889 0.19741 0.0772178
0.271388 0.197278 0.0772341
0.271886 0.197145 0.0772502
0.272367 0.197057 0.0771484
0.272866 0.196925 0.0771647
0.273364 0.196792 0.0771808
0.273846 0.196704 0.0770789
0.274327 0.196616 0.0769771
0.274809 0.196527 0.0768752
0.275307 0.196395 0.0768917
0.275772 0.196351 0.0766715
0.27627 0.196219 0.0766879
0.276735 0.196174 0.0764677
0.2772 0.196131 0.0762479
0.277647 0.196131 0.0759099
0.278129 0.196043 0.075808
0.278593 0.195998 0.0755879
0.279058 0.195955 0.0753681
0.279539 0.195866 0.0752662
0.280021 0.195778 0.0751644
0.280502 0.19569 0.0750625
0.281001 0.195557 0.0750786
0.281482 0.195469 0.0749767
0.281964 0.19538 0.0748749
0.282462 0.195249 0.0748912
0.282944 0.19516 0.0747894
0.283425 0.195072 0.0746875
0.283907 0.194984 0.0745856
0.284405 0.194851 0.0746017
0.284886 0.194763 0.0744998
0.285368 0.194674 0.074398
0.285849 0.194586 0.0742961
0.286348 0.194454 0.0743125
0.286829 0.194366 0.0742106
0.287311 0.194278 0.0741088
0.287792 0.194189 0.0740069
0.288274 0.194101 0.073905
0.288772 0.193968 0.0739211
0.289254 0.19388 0.0738192
0.289752 0.193748 0.0738357
0.290267 0.193571 0.07397
0.290799 0.19335 0.0742223
0.291315 0.193174 0.0743566
0.291847 0.192953 0.0746092
0.292379 0.192733 0.0748619
0.292911 0.192511 0.0751141
0.293427 0.192335 0.0752485
0.293942 0.192158 0.0753828
0.294474 0.191938 0.0756354
0.294972 0.191805 0.0756514
0.295505 0.191585 0.0759041
0.296003 0.191452 0.0759202
0.296518 0.191275 0.0760544
0.297017 0.191143 0.0760709
0.297515 0.19101 0.0760869
0.298013 0.190878 0.0761034
0.298495 0.19079 0.0760015
0.298976 0.190702 0.0758996
0.299475 0.190569 0.0759156
0.299973 0.190437 0.0759321
0.300488 0.19026 0.0760664
0.301004 0.190083 0.0762008
0.301519 0.189907 0.0763352
0.302034 0.18973 0.0764695
0.302532 0.189597 0.0764855
0.303031 0.189465 0.0765019
0.303546 0.189289 0.0766362
0.304028 0.1892 0.0765344
0.304526 0.189067 0.0765504
0.305041 0.188891 0.0766848
0.30554 0.188759 0.0767012
0.306038 0.188626 0.0767172
0.306537 0.188494 0.0767337
0.307018 0.188406 0.0766318
0.307499 0.188318 0.0765299
0.307998 0.188185 0.0765461
0.308479 0.188096 0.0764441
0.308944 0.188053 0.0762243
0.309426 0.187965 0.0761225
0.309907 0.187876 0.0760206
0.310422 0.1877 0.0761549
0.310921 0.187567 0.076171
0.311419 0.187435 0.0761875
0.311917 0.187302 0.0762035
0.312399 0.187214 0.0761016
0.31288 0.187125 0.0759998
0.313362 0.187037 0.0758979
0.31386 0.186905 0.0759143
0.314342 0.186817 0.0758125
0.314823 0.186729 0.0757106
0.315305 0.18664 0.0756087
0.315786 0.186552 0.0755068
0.316251 0.186508 0.0752867
0.316732 0.186419 0.0751848
0.317197 0.186376 0.0749651
0.317678 0.186288 0.0748633
0.318143 0.186243 0.074643
0.318608 0.1862 0.0744232
0.319089 0.186111 0.0743214
0.319554 0.186067 0.0741013
0.320001 0.186067 0.0737631
0.320483 0.185979 0.0736613
0.320931 0.185979 0.0733232
0.321412 0.185891 0.0732214
0.321877 0.185847 0.0730016
0.322341 0.185803 0.0727814
0.322806 0.185759 0.0725616
0.32327 0.185714 0.0723415
0.323718 0.185715 0.0720034
0.324166 0.185715 0.0716653
0.324631 0.185671 0.0714456
0.325095 0.185627 0.0712254
0.32556 0.185583 0.0710057
0.326024 0.185539 0.0707855
0.326472 0.185539 0.0704474
0.32692 0.185539 0.0701093
0.327385 0.185495 0.0698896
0.327866 0.185407 0.0697877
0.328331 0.185363 0.0695675
0.328812 0.185274 0.0694657
0.329294 0.185186 0.0693638
0.329758 0.185142 0.069144
0.330223 0.185098 0.0689239
0.330688 0.185054 0.068704
0.331169 0.184966 0.0686022
0.331633 0.184922 0.0683821
0.332115 0.184833 0.0682802
0.33258 0.18479 0.0680604
0.333044 0.184745 0.0678403
0.333509 0.184702 0.0676205
0.333973 0.184657 0.0674003
0.334421 0.184657 0.0670622
0.334869 0.184658 0.0667242
0.335317 0.184658 0.0663861
0.335764 0.184658 0.066048
0.336212 0.184658 0.0657099
0.336643 0.184703 0.0652539
0.33709 0.184702 0.0649155
0.337521 0.184747 0.0644595
0.337952 0.184791 0.0640032
0.338383 0.184836 0.0635472
0.338814 0.184879 0.0630909
0.339262 0.18488 0.0627528
0.339692 0.184924 0.0622968
0.34014 0.184925 0.0619587
0.340588 0.184925 0.0616206
0.341019 0.184969 0.0611643
0.34145 0.185013 0.0607083
0.341864 0.185102 0.060134
0.342227 0.185323 0.0592053
0.342641 0.185411 0.0586309
0.343072 0.185456 0.0581749
0.343469 0.185588 0.0574824
0.343849 0.185765 0.056672
0.344178 0.186074 0.0555069
0.344575 0.186208 0.0548147
0.344922 0.186473 0.0537681
0.345234 0.186827 0.0524852
0.223443 0.210775 0.0757498
0.226572 0.203737 0.0941852
0.227307 0.202986 0.0958546
0.227923 0.202543 0.0966972
0.228489 0.202233 0.0971856
0.229038 0.201968 0.0975561
0.229655 0.201525 0.0983987
0.230221 0.201217 0.0988875
0.230769 0.200951 0.0992577
0.231318 0.200686 0.0996282
0.231868 0.200421 0.0999987
0.232416 0.200155 0.100369
0.232932 0.199978 0.100503
0.233464 0.199758 0.100756
0.233995 0.199538 0.101001
0.234507 0.199363 0.10112
0.235019 0.199188 0.101239
0.235516 0.199057 0.101248
0.236013 0.198925 0.101257
0.23651 0.198793 0.101265
0.236992 0.198705 0.101164
0.237473 0.198617 0.101062
0.237939 0.198572 0.100849
0.238405 0.198527 0.100637
0.238871 0.198482 0.100424
0.239368 0.198351 0.100433
0.239881 0.198176 0.100552
0.240424 0.197915 0.100893
0.240983 0.197611 0.101344
0.241526 0.197349 0.101685
0.24207 0.197089 0.102026
0.242582 0.196913 0.102145
0.24311 0.196696 0.102375
0.243623 0.196521 0.102494
0.244151 0.196303 0.102724
0.244648 0.196172 0.102733
0.245145 0.19604 0.102742
0.245642 0.195909 0.102751
0.246123 0.195821 0.102649
0.24662 0.195689 0.102657
0.247117 0.195557 0.102666
0.247614 0.195427 0.102675
0.248111 0.195295 0.102684
0.248577 0.19525 0.102471
0.249043 0.195205 0.102259
0.249525 0.195116 0.102157
0.249991 0.195072 0.101944
0.250457 0.195027 0.101732
0.250923 0.194981 0.101519
0.251373 0.194979 0.101196
0.251824 0.194978 0.100873
0.252274 0.194976 0.10055
0.252725 0.194974 0.100227
0.253144 0.195059 0.0996827
0.253564 0.195143 0.0991382
0.253968 0.195271 0.0984832
0.254372 0.195399 0.0978285
0.254745 0.195613 0.0969522
0.25508 0.195919 0.0958173
0.255427 0.196185 0.0947711
0.255773 0.196451 0.0937244
0.255985 0.19707 0.0917334
0.256281 0.19747 0.0903329
0.256661 0.197646 0.0895225
0.257042 0.197824 0.0887124
0.257456 0.197913 0.0881381
0.257887 0.197958 0.0876822
0.258334 0.197958 0.0873441
0.258782 0.197958 0.087006
0.25923 0.197958 0.086668
0.259677 0.197958 0.08633
0.260142 0.197915 0.0861101
0.26059 0.197915 0.0857721
0.261038 0.197915 0.085434
0.261452 0.198004 0.0848598
0.261883 0.198048 0.0844039
0.262314 0.198093 0.0839478
0.262694 0.19827 0.0831373
0.263125 0.198315 0.0826814
0.263505 0.198492 0.0818709
0.263936 0.198537 0.081415
0.26435 0.198625 0.0808407
0.264764 0.198715 0.0802668
0.265195 0.198759 0.0798104
0.265642 0.198759 0.0794724
0.266073 0.198803 0.0790165
0.266521 0.198804 0.0786783
0.266969 0.198804 0.0783402
0.267417 0.198804 0.0780022
0.267865 0.198805 0.0776645
0.268346 0.198717 0.0775626
0.268811 0.198672 0.0773426
0.269275 0.198629 0.0771227
0.269757 0.19854 0.0770209
0.270238 0.198452 0.076919
0.27072 0.198364 0.0768172
0.271218 0.198231 0.0768332
0.271716 0.198099 0.0768496
0.272215 0.197966 0.0768657
0.272696 0.197878 0.0767638
0.273194 0.197745 0.0767798
0.273693 0.197613 0.0767963
0.274191 0.19748 0.0768123
0.274673 0.197392 0.0767104
0.275154 0.197304 0.0766085
0.275653 0.197172 0.076625
0.276134 0.197083 0.0765231
0.276616 0.196995 0.0764213
0.277064 0.196995 0.0760832
0.277528 0.196951 0.075863
0.278009 0.196863 0.0757612
0.278474 0.196819 0.0755414
0.278956 0.196731 0.0754396
0.279437 0.196642 0.0753377
0.279919 0.196554 0.0752358
0.2804 0.196466 0.075134
0.280882 0.196378 0.0750321
0.28138 0.196245 0.0750481
0.281845 0.196201 0.0748284
0.282326 0.196113 0.0747265
0.282808 0.196025 0.0746246
0.283289 0.195937 0.0745228
0.283771 0.195848 0.0744209
0.284252 0.19576 0.074319
0.284734 0.195672 0.0742172
0.285198 0.195628 0.0739973
0.28568 0.19554 0.0738955
0.286178 0.195407 0.0739116
0.286643 0.195363 0.0736918
0.287124 0.195275 0.0735899
0.287623 0.195142 0.073606
0.288121 0.19501 0.073622
0.288602 0.194921 0.0735201
0.289101 0.194789 0.0735366
0.289599 0.194656 0.0735525
0.290114 0.19448 0.0736869
0.29063 0.194303 0.0738213
0.291162 0.194082 0.0740735
0.291694 0.193861 0.0743261
0.292209 0.193685 0.0744604
0.292741 0.193463 0.0747127
0.293273 0.193242 0.074965
0.293789 0.193066 0.0750993
0.294304 0.192889 0.0752336
0.294819 0.192712 0.0753679
0.295334 0.192536 0.0755023
0.295832 0.192403 0.0755183
0.296348 0.192226 0.0756526
0.296863 0.19205 0.075787
0.297345 0.191961 0.0756851
0.297843 0.191828 0.0757011
0.298341 0.191696 0.0757176
0.298823 0.191608 0.0756157
0.299321 0.191475 0.0756317
0.299836 0.191299 0.0757661
0.300352 0.191122 0.0759004
0.300867 0.190945 0.0760348
0.301382 0.190768 0.0761687
0.301897 0.190591 0.076303
0.302412 0.190415 0.0764373
0.302911 0.190283 0.0764538
0.303426 0.190105 0.0765878
0.303907 0.190017 0.0764859
0.304406 0.189885 0.0765023
0.304904 0.189752 0.0765183
0.305403 0.18962 0.0765347
0.305901 0.189487 0.0765508
0.306382 0.189399 0.0764489
0.306881 0.189267 0.0764654
0.307363 0.189179 0.0763635
0.307844 0.18909 0.0762617
0.308325 0.189002 0.0761598
0.308807 0.188914 0.0760579
0.309288 0.188825 0.0759561
0.309787 0.188693 0.0759721
0.310285 0.18856 0.0759881
0.310783 0.188428 0.0760045
0.311282 0.188295 0.0760206
0.31178 0.188163 0.0760371
0.312279 0.18803 0.0760531
0.31276 0.187942 0.0759512
0.313242 0.187854 0.0758493
0.313723 0.187765 0.0757475
0.314204 0.187677 0.0756456
0.314703 0.187545 0.075662
0.315184 0.187457 0.0755602
0.315666 0.187369 0.0754583
0.31613 0.187324 0.0752381
0.316612 0.187236 0.0751363
0.317077 0.187192 0.0749165
0.317558 0.187104 0.0748146
0.318023 0.187059 0.0745945
0.318487 0.187016 0.0743747
0.318969 0.186928 0.0742728
0.319417 0.186928 0.0739347
0.319881 0.186884 0.073715
0.320346 0.18684 0.0734948
0.320794 0.18684 0.0731568
0.321275 0.186752 0.0730549
0.321757 0.186663 0.072953
0.322221 0.18662 0.0727332
0.322686 0.186575 0.0725131
0.32315 0.186532 0.0722933
0.323615 0.186488 0.0720736
0.324063 0.186488 0.0717355
0.324527 0.186444 0.0715153
0.324992 0.1864 0.0712955
0.325457 0.186356 0.0710754
0.325921 0.186312 0.0708557
0.326386 0.186268 0.0706359
0.326834 0.186269 0.0702978
0.327282 0.186269 0.0699598
0.327763 0.186181 0.0698579
0.328228 0.186136 0.0696377
0.328709 0.186048 0.0695359
0.32919 0.18596 0.069434
0.329655 0.185916 0.0692142
0.33012 0.185872 0.0689944
0.330584 0.185828 0.0687743
0.331049 0.185784 0.0685545
0.331514 0.18574 0.0683343
0.331995 0.185652 0.0682325
0.332477 0.185563 0.0681306
0.332941 0.18552 0.0679109
0.333406 0.185475 0.0676907
0.333871 0.185432 0.0674709
0.334318 0.185432 0.0671328
0.334766 0.185432 0.0667948
0.335214 0.185432 0.0664567
0.335662 0.185433 0.066119
0.336109 0.185433 0.065781
0.33654 0.185477 0.0653246
0.336988 0.185478 0.0649869
0.337419 0.185522 0.0645305
0.337833 0.185611 0.0639563
0.338281 0.185612 0.0636186
0.338695 0.1857 0.0630444
0.339126 0.185745 0.0625884
0.339556 0.185789 0.062132
0.339987 0.185834 0.0616761
0.340418 0.185879 0.0612201
0.340849 0.185922 0.0607637
