ply
format ascii 1.0
element vertex 1732
property float x
property float y
property float z
end_header
0.265407 0.223913 0.0724763
0.265951 0.224185 0.0716572
0.266591 0.225086 0.0695947
0.267118 0.225243 0.069002
0.267636 0.225343 0.0685221
0.268171 0.225558 0.0678162
0.268706 0.225773 0.0671108
0.269241 0.225988 0.0664048
0.225397 0.229324 0.0862465
0.225826 0.228852 0.0868972
0.226238 0.228267 0.0877744
0.22665 0.22768 0.088651
0.227089 0.227265 0.0891889
0.227518 0.226794 0.0898401
0.227913 0.226093 0.0909427
0.228298 0.225336 0.0921592
0.228701 0.224692 0.0931491
0.229113 0.224105 0.0940258
0.229543 0.223634 0.0946769
0.229972 0.223162 0.0953276
0.230402 0.22269 0.0959782
0.230849 0.222333 0.0964034
0.231296 0.221976 0.096828
0.231744 0.221618 0.0972527
0.232191 0.221261 0.0976774
0.232647 0.220961 0.0979892
0.233103 0.220661 0.0983011
0.23355 0.220304 0.0987258
0.233997 0.219946 0.0991504
0.234462 0.219704 0.0993495
0.234909 0.219346 0.0997741
0.235366 0.219047 0.100086
0.23583 0.218804 0.100285
0.236295 0.218561 0.100483
0.23676 0.218318 0.100682
0.237225 0.218075 0.100881
0.237699 0.21789 0.100967
0.238172 0.217704 0.101052
0.238646 0.217518 0.101138
0.239119 0.217332 0.101223
0.239593 0.217147 0.101309
0.240076 0.217019 0.101282
0.240549 0.216833 0.101367
0.24104 0.216762 0.101227
0.241514 0.216576 0.101312
0.241996 0.216447 0.101285
0.242488 0.216377 0.101145
0.242988 0.216363 0.100891
0.24347 0.216235 0.100864
0.243962 0.216163 0.100723
0.244453 0.216093 0.100583
0.244944 0.216021 0.100443
0.245444 0.216007 0.100189
0.245936 0.215936 0.100049
0.246436 0.215922 0.0997952
0.246936 0.215908 0.0995418
0.247436 0.215894 0.0992884
0.247954 0.215995 0.098809
0.248463 0.216038 0.0984424
0.24898 0.216139 0.097963
0.249489 0.216182 0.0975963
0.249998 0.216225 0.0972297
0.250516 0.216326 0.0967502
0.251025 0.216369 0.0963837
0.251525 0.216355 0.0961302
0.252025 0.216342 0.0958769
0.252525 0.216328 0.0956235
0.253016 0.216256 0.0954828
0.253516 0.216243 0.0952294
0.254016 0.216229 0.0949761
0.254517 0.216215 0.0947227
0.255025 0.216258 0.094356
0.255543 0.216359 0.0938767
0.256228 0.217547 0.0912494
0.256728 0.217533 0.090996
0.25722 0.217462 0.0908554
0.25772 0.217448 0.0906019
0.258238 0.217549 0.0901226
0.258755 0.217649 0.0896432
0.259264 0.217692 0.0892765
0.259799 0.217907 0.0885707
0.260343 0.218179 0.0877519
0.260888 0.218452 0.0869338
0.261758 0.220842 0.0819327
0.262232 0.220656 0.082018
0.26274 0.220699 0.0816515
0.263558 0.222746 0.0773288
0.264234 0.223877 0.0748143
0.264761 0.224035 0.0742222
0.265331 0.224479 0.0730643
0.265876 0.224751 0.0722455
0.266464 0.225309 0.0708617
0.267026 0.225696 0.069817
0.267534 0.225739 0.0694503
0.268061 0.225897 0.0688577
0.268579 0.225998 0.0683783
0.269123 0.22627 0.0675596
0.269632 0.226313 0.067193
0.270159 0.226475 0.0665938
0.270679 0.226592 0.0660869
0.225417 0.230514 0.0855877
0.225829 0.229927 0.0864643
0.226249 0.229398 0.0872282
0.226679 0.228926 0.0878789
0.227082 0.228282 0.0888683
0.227511 0.22781 0.089519
0.227941 0.227338 0.0901696
0.228344 0.226694 0.0911595
0.228729 0.225935 0.092375
0.229159 0.225463 0.0930256
0.229562 0.22482 0.0940156
0.23 0.224404 0.094553
0.230447 0.224047 0.0949776
0.230868 0.223518 0.0957415
0.231315 0.22316 0.0961661
0.231762 0.222803 0.0965908
0.232209 0.222444 0.097015
0.232656 0.222087 0.0974396
0.233112 0.221787 0.0977515
0.233568 0.221486 0.0980629
0.234015 0.221129 0.0984875
0.234462 0.220771 0.0989122
0.234927 0.220528 0.0991108
0.235374 0.220171 0.0995355
0.23583 0.219871 0.0998473
0.236286 0.21957 0.100159
0.23676 0.219385 0.100245
0.237234 0.219199 0.10033
0.237698 0.218956 0.100529
0.238163 0.218713 0.100727
0.238628 0.21847 0.100926
0.23911 0.218342 0.100898
0.239584 0.218157 0.100984
0.240067 0.218028 0.100957
0.24054 0.217842 0.101042
0.241023 0.217714 0.101015
0.241505 0.217586 0.100988
0.241988 0.217457 0.10096
0.24247 0.217329 0.100933
0.242961 0.217258 0.100793
0.243453 0.217187 0.100652
0.243935 0.217058 0.100625
0.244427 0.216988 0.100485
0.244927 0.216974 0.100231
0.245409 0.216846 0.100204
0.245909 0.216832 0.0999505
0.246409 0.216818 0.099697
0.246901 0.216746 0.0995565
0.247401 0.216733 0.0993031
0.24791 0.216777 0.0989369
0.248419 0.21682 0.0985702
0.248928 0.216864 0.0982042
0.249436 0.216907 0.0978375
0.249937 0.216893 0.0975841
0.250454 0.216994 0.0971048
0.250955 0.21698 0.0968514
0.251464 0.217024 0.0964852
0.251955 0.216952 0.0963446
0.252455 0.216939 0.0960916
0.252955 0.216925 0.0958378
0.253446 0.216854 0.0956976
0.253947 0.21684 0.0954442
0.254447 0.216827 0.0951909
0.254956 0.216871 0.0948247
0.255465 0.216914 0.0944581
0.256 0.217129 0.0937527
0.256641 0.218032 0.0916912
0.257168 0.21819 0.091099
0.257659 0.218119 0.0909584
0.258168 0.218163 0.0905922
0.258686 0.218264 0.0901129
0.259213 0.218421 0.0895202
0.259731 0.218522 0.0890408
0.260266 0.218737 0.0883354
0.260837 0.219182 0.087178
0.261628 0.221059 0.0831957
0.262146 0.22116 0.0827163
0.262664 0.221261 0.0822368
0.263332 0.222335 0.0798361
0.264 0.22341 0.0774359
0.264685 0.224599 0.0748091
0.265238 0.224929 0.0738777
0.265774 0.225144 0.0731723
0.266344 0.225589 0.0720149
0.266889 0.225862 0.0711967
0.267433 0.226135 0.0703785
0.267951 0.226236 0.0698991
0.26846 0.226279 0.0695325
0.268995 0.226494 0.0688271
0.269513 0.226595 0.0683477
0.27004 0.226753 0.0677555
0.270549 0.226797 0.0673889
0.271067 0.226901 0.0669025
0.271617 0.227203 0.0660368
0.272156 0.227443 0.0652904
0.225858 0.231175 0.0856932
0.226261 0.230531 0.0866826
0.226672 0.229943 0.0875588
0.227119 0.229586 0.0879834
0.227522 0.228942 0.0889728
0.22796 0.228526 0.0895102
0.228372 0.227939 0.0903864
0.228784 0.227352 0.0912631
0.229204 0.226822 0.0920265
0.229616 0.226235 0.0929027
0.230028 0.225648 0.0937793
0.230457 0.225175 0.0944295
0.230904 0.224818 0.0948541
0.231325 0.224288 0.0956176
0.231772 0.22393 0.0960422
0.232219 0.223572 0.0964663
0.232675 0.223271 0.0967778
0.233122 0.222914 0.0972024
0.233587 0.222671 0.097401
0.234034 0.222313 0.0978256
0.23449 0.222013 0.0981371
0.234937 0.221655 0.0985617
0.235384 0.221297 0.0989858
0.23584 0.220997 0.0992977
0.236305 0.220754 0.0994964
0.236769 0.22051 0.0996945
0.237234 0.220267 0.0998931
0.237699 0.220025 0.100092
0.238164 0.219782 0.10029
0.238637 0.219596 0.100376
0.239102 0.219353 0.100574
0.239576 0.219167 0.10066
0.240058 0.219039 0.100633
0.240541 0.218911 0.100606
0.241014 0.218725 0.100691
0.241497 0.218596 0.100664
0.24197 0.218411 0.100749
0.242461 0.218339 0.100609
0.242944 0.218211 0.100581
0.243435 0.21814 0.100441
0.243918 0.218012 0.100414
0.2444 0.217884 0.100387
0.2449 0.21787 0.100133
0.245392 0.217798 0.0999925
0.245883 0.217728 0.0998523
0.246374 0.217657 0.0997123
0.246875 0.217643 0.0994589
0.247375 0.21763 0.0992055
0.247875 0.217616 0.0989521
0.248375 0.217602 0.0986987
0.248875 0.217588 0.0984453
0.249384 0.217632 0.0980792
0.249884 0.217618 0.0978258
0.250393 0.217662 0.0974596
0.250893 0.217648 0.0972062
0.251403 0.217692 0.0968401
0.251894 0.217621 0.0966995
0.252394 0.217607 0.0964461
0.252894 0.217594 0.0961932
0.253385 0.217523 0.0960526
0.253886 0.217509 0.0957992
0.254386 0.217495 0.0955458
0.254877 0.217424 0.0954057
0.255386 0.217468 0.0950396
0.255913 0.217627 0.0944474
0.256448 0.217842 0.093742
0.257055 0.218517 0.092133
0.257608 0.218848 0.0912021
0.258117 0.218891 0.0908355
0.258635 0.218992 0.0903566
0.259153 0.219093 0.0898772
0.25967 0.219194 0.0893977
0.260215 0.219467 0.0885796
0.260812 0.220085 0.0870839
0.261463 0.221046 0.0849101
0.262007 0.221319 0.084092
0.262543 0.221534 0.0833866
0.263202 0.222553 0.0810996
0.263809 0.223227 0.0794906
0.264415 0.223902 0.0778817
0.265119 0.225208 0.0750304
0.265698 0.22571 0.0737603
0.266225 0.225868 0.0731681
0.266779 0.226199 0.0722372
0.267314 0.226414 0.0715317
0.267841 0.226573 0.0709396
0.268358 0.226674 0.0704602
0.268868 0.226718 0.070094
0.269394 0.226876 0.0695019
0.269912 0.226977 0.0690225
0.270439 0.227135 0.0684303
0.270957 0.227236 0.0679509
0.271466 0.22728 0.0675848
0.272004 0.227512 0.0668524
0.272506 0.227507 0.0665855
0.273046 0.227748 0.0658395
0.273576 0.227926 0.0652129
0.225985 0.233056 0.0836802
0.22629 0.231779 0.0859115
0.226701 0.231191 0.0867876
0.227113 0.230604 0.0876638
0.22756 0.230246 0.0880879
0.227972 0.229658 0.0889642
0.228401 0.229185 0.0896143
0.228821 0.228655 0.0903777
0.229233 0.228068 0.0912539
0.229662 0.227595 0.091904
0.230065 0.22695 0.092893
0.230503 0.226535 0.0934303
0.230923 0.226004 0.0941933
0.231361 0.225589 0.0947307
0.2318 0.225173 0.095268
0.232246 0.224815 0.0956922
0.232694 0.224458 0.0961169
0.233149 0.224157 0.0964282
0.233588 0.223742 0.0969656
0.234052 0.223498 0.0971638
0.234499 0.22314 0.0975884
0.234955 0.22284 0.0978999
0.235411 0.222539 0.0982112
0.235867 0.222238 0.0985226
0.236323 0.221938 0.098834
0.236779 0.221637 0.0991454
0.237243 0.221394 0.099344
0.237708 0.221151 0.0995426
0.238182 0.220965 0.0996281
0.238647 0.220722 0.0998267
0.239111 0.220479 0.100025
0.239585 0.220293 0.100111
0.240058 0.220107 0.100196
0.240532 0.219921 0.100281
0.241006 0.219736 0.100367
0.241479 0.21955 0.100453
0.241962 0.219422 0.100425
0.242453 0.219351 0.100285
0.242936 0.219222 0.100258
0.243418 0.219094 0.10023
0.243901 0.218966 0.100203
0.244392 0.218894 0.100062
0.244874 0.218766 0.100035
0.245366 0.218695 0.0998949
0.245857 0.218625 0.0997548
0.246348 0.218553 0.0996142
0.24684 0.218482 0.099474
0.24734 0.218469 0.0992206
0.247831 0.218398 0.0990805
0.248331 0.218384 0.0988272
0.248832 0.218371 0.0985743
0.24934 0.218414 0.0982076
0.249841 0.218401 0.0979547
0.250341 0.218388 0.0977013
0.250841 0.218374 0.097448
0.25135 0.218418 0.0970818
0.251842 0.218347 0.0969417
0.252342 0.218333 0.0966883
0.252842 0.21832 0.0964348
0.253333 0.218249 0.0962947
0.253825 0.218178 0.0961545
0.254325 0.218164 0.0959012
0.254825 0.218151 0.0956478
0.255334 0.218195 0.0952817
0.255843 0.218238 0.0949155
0.256352 0.218282 0.0945494
0.256905 0.218613 0.0936185
0.257485 0.219116 0.0923488
0.258057 0.219562 0.0911923
0.258575 0.219663 0.090713
0.259093 0.219765 0.0902341
0.259628 0.219981 0.0895292
0.260164 0.220197 0.0888242
0.260744 0.2207 0.0875546
0.261315 0.221146 0.0863976
0.261877 0.221534 0.085354
0.262413 0.22175 0.0846491
0.263037 0.22254 0.0828146
0.263635 0.223158 0.0813189
0.264295 0.224178 0.079033
0.265034 0.225715 0.0757306
0.26557 0.225931 0.0750257
0.266141 0.226376 0.0738688
0.266668 0.226535 0.0732766
0.267203 0.226751 0.0725717
0.26773 0.226909 0.0719795
0.268248 0.227011 0.0715006
0.268775 0.227169 0.0709085
0.269293 0.227271 0.0704296
0.269802 0.227315 0.0700634
0.27032 0.227416 0.0695841
0.270838 0.227517 0.0691052
0.271356 0.227618 0.0686257
0.271874 0.22772 0.0681469
0.272401 0.227882 0.0675477
0.272922 0.228001 0.0670418
0.273433 0.228057 0.0666551
0.273935 0.228051 0.0663882
0.274494 0.228415 0.0654028
0.275024 0.228595 0.064777
0.226426 0.233718 0.0837863
0.226749 0.232556 0.0857915
0.227169 0.232025 0.0865544
0.227571 0.231379 0.0875429
0.228001 0.230906 0.0881929
0.22843 0.230433 0.0888432
0.228841 0.229845 0.0897189
0.229271 0.229372 0.090369
0.229682 0.228784 0.0912447
0.230138 0.228483 0.091556
0.23054 0.227838 0.0925449
0.230961 0.227307 0.0933079
0.231408 0.226949 0.093732
0.231836 0.226475 0.0943817
0.232275 0.22606 0.0949191
0.232722 0.225701 0.0953432
0.233168 0.225343 0.0957674
0.233624 0.225042 0.0960788
0.234071 0.224684 0.0965029
0.234518 0.224326 0.0969271
0.234974 0.224025 0.0972385
0.23543 0.223724 0.0975498
0.235886 0.223424 0.0978613
0.236342 0.223123 0.0981726
0.236806 0.222879 0.0983707
0.237253 0.222522 0.0987954
0.237718 0.222278 0.0989935
0.238191 0.222092 0.0990789
0.238656 0.221849 0.0992776
0.239121 0.221606 0.0994762
0.239594 0.22142 0.0995615
0.240059 0.221176 0.0997597
0.240533 0.220991 0.0998456
0.241015 0.220863 0.0998182
0.241489 0.220677 0.0999035
0.241971 0.220548 0.0998762
0.242445 0.220362 0.0999616
0.242936 0.220292 0.0998214
0.243419 0.220163 0.099794
0.243901 0.220035 0.0997667
0.244375 0.219849 0.0998521
0.244866 0.219778 0.0997119
0.245348 0.21965 0.0996845
0.245831 0.219521 0.0996572
0.246322 0.219451 0.0995171
0.246814 0.219379 0.0993764
0.247314 0.219366 0.0991235
0.247805 0.219296 0.0989834
0.248297 0.219224 0.0988428
0.248797 0.219211 0.0985898
0.249306 0.219255 0.0982238
0.249797 0.219184 0.0980836
0.250297 0.219171 0.0978302
0.250798 0.219157 0.0975768
0.251298 0.219144 0.0973239
0.251789 0.219072 0.0971833
0.25229 0.219059 0.0969305
0.25279 0.219046 0.0966771
0.253281 0.218975 0.0965369
0.253773 0.218904 0.0963968
0.254273 0.218891 0.0961434
0.254773 0.218878 0.0958904
0.255273 0.218864 0.0956372
0.255782 0.218908 0.095271
0.256291 0.218952 0.0949048
0.256809 0.219053 0.0944259
0.257372 0.219443 0.0933828
0.257925 0.219773 0.0924519
0.25847 0.220047 0.0916342
0.259024 0.220379 0.0907038
0.259559 0.220595 0.0899989
0.260113 0.220927 0.0890684
0.260666 0.221258 0.088138
0.261193 0.221417 0.0875458
0.261756 0.221806 0.0865026
0.262282 0.221965 0.0859105
0.262889 0.222641 0.0843026
0.263532 0.223547 0.0822431
0.264165 0.224395 0.0802964
0.264781 0.225129 0.0785756
0.265486 0.226438 0.0757258
0.26603 0.226712 0.0749082
0.266575 0.226985 0.0740901
0.267119 0.227259 0.0732725
0.267637 0.22736 0.0727935
0.268146 0.227404 0.0724274
0.268673 0.227563 0.0718357
0.269191 0.227665 0.0713568
0.269709 0.227767 0.0708779
0.270227 0.227868 0.070399
0.270728 0.227855 0.0701456
0.271255 0.228014 0.069554
0.271755 0.228 0.0693006
0.272282 0.228159 0.0687089
0.272791 0.228203 0.0683428
0.273319 0.22837 0.0677371
0.27383 0.228427 0.0673509
0.274361 0.228606 0.0667247
0.274872 0.228663 0.0663386
0.275393 0.228781 0.0658322
0.275933 0.229022 0.0650867
0.276444 0.229079 0.0647
0.226868 0.234381 0.0838928
0.227208 0.233332 0.0856716
0.227628 0.232801 0.0864339
0.228048 0.23227 0.0871969
0.228459 0.231682 0.0880726
0.228888 0.231208 0.0887222
0.229291 0.230562 0.0897106
0.229746 0.230261 0.0900215
0.230149 0.229615 0.0910099
0.230596 0.229256 0.0914341
0.231007 0.228668 0.0923097
0.231454 0.22831 0.0927339
0.231865 0.227721 0.0936096
0.232321 0.22742 0.0939204
0.232759 0.227004 0.0944574
0.233206 0.226645 0.0948815
0.233662 0.226345 0.0951929
0.234108 0.225987 0.095617
0.234546 0.22557 0.096154
0.235002 0.22527 0.0964653
0.235449 0.224911 0.096889
0.235905 0.22461 0.0972004
0.236378 0.224424 0.0972857
0.236834 0.224123 0.0975972
0.23729 0.223823 0.0979085
0.237745 0.223521 0.0982195
0.238201 0.223221 0.0985308
0.238675 0.223034 0.0986162
0.23914 0.222791 0.0988149
0.239604 0.222548 0.0990129
0.240078 0.222362 0.0990983
0.240551 0.222176 0.0991838
0.241034 0.222047 0.0991564
0.241508 0.221862 0.0992422
0.241981 0.221676 0.0993276
0.242455 0.22149 0.099413
0.242946 0.221419 0.0992729
0.24341 0.221175 0.099471
0.243902 0.221105 0.0993308
0.244375 0.220919 0.0994163
0.244867 0.220848 0.0992761
0.24534 0.220662 0.0993615
0.245823 0.220534 0.0993341
0.246314 0.220463 0.099194
0.246797 0.220335 0.0991666
0.247279 0.220206 0.0991392
0.24778 0.220193 0.0988863
0.248271 0.220122 0.0987457
0.248771 0.220109 0.0984927
0.249263 0.220038 0.0983526
0.249763 0.220024 0.0980993
0.250263 0.220011 0.0978464
0.250754 0.219941 0.0977063
0.251255 0.219927 0.0974529
0.251746 0.219856 0.0973127
0.252246 0.219843 0.0970598
0.252738 0.219772 0.0969193
0.253238 0.219759 0.0966664
0.253729 0.219688 0.0965262
0.254229 0.219674 0.0962728
0.254721 0.219604 0.0961327
0.255221 0.219591 0.0958798
0.25573 0.219635 0.0955136
0.256231 0.219622 0.0952607
0.25674 0.219666 0.0948946
0.257267 0.219825 0.0943029
0.257811 0.220099 0.0934853
0.258365 0.220431 0.0925554
0.258901 0.220648 0.0918505
0.259455 0.22098 0.0909205
0.260008 0.221312 0.0899901
0.260553 0.221586 0.0891725
0.261098 0.22186 0.0883553
0.261625 0.22202 0.0877637
0.262179 0.222351 0.0868332
0.262759 0.222855 0.085564
0.263348 0.223418 0.0841826
0.264062 0.224785 0.0812205
0.264687 0.225577 0.0793876
0.26541 0.227002 0.0763128
0.265946 0.227219 0.0756084
0.26649 0.227493 0.0747908
0.267053 0.227882 0.0737476
0.267553 0.227869 0.0734947
0.268071 0.227971 0.0730158
0.268571 0.227957 0.0727624
0.269098 0.228116 0.0721708
0.269616 0.228218 0.0716919
0.270126 0.228262 0.0713262
0.270644 0.228364 0.0708473
0.271153 0.228408 0.0704812
0.271671 0.22851 0.0700023
0.27218 0.228554 0.0696366
0.272689 0.228598 0.0692705
0.273207 0.2287 0.0687916
0.273725 0.228802 0.0683127
0.274237 0.228858 0.0679265
0.274758 0.228977 0.0674206
0.275288 0.229157 0.0667949
0.2758 0.229214 0.0664087
0.27633 0.229394 0.065783
0.276832 0.229388 0.0655161
0.277353 0.229507 0.0650101
0.277893 0.229748 0.0642647
0.278452 0.230114 0.0632802
0.227354 0.235332 0.0834356
0.227729 0.234512 0.0847618
0.228096 0.233636 0.0862012
0.228525 0.233162 0.0868509
0.228945 0.23263 0.0876133
0.229374 0.232157 0.0882629
0.229767 0.231453 0.0893641
0.230223 0.231151 0.089675
0.230625 0.230504 0.090663
0.231063 0.230088 0.0911998
0.231492 0.229615 0.0918495
0.23193 0.229199 0.0923864
0.23235 0.228667 0.0931488
0.232805 0.228366 0.0934597
0.233243 0.22795 0.0939967
0.233699 0.227648 0.0943075
0.234137 0.227232 0.0948444
0.234593 0.226931 0.0951558
0.23503 0.226515 0.0956922
0.235486 0.226214 0.0960036
0.235933 0.225855 0.0964273
0.236398 0.225612 0.0966259
0.236853 0.22531 0.0969368
0.237309 0.22501 0.0972481
0.237774 0.224766 0.0974462
0.238238 0.224522 0.0976444
0.238685 0.224164 0.0980685
0.239159 0.223978 0.098154
0.239623 0.223734 0.0983521
0.240097 0.223548 0.0984375
0.240571 0.223363 0.0985234
0.241053 0.223234 0.098496
0.241518 0.22299 0.0986941
0.241991 0.222804 0.0987795
0.242474 0.222676 0.0987521
0.242947 0.22249 0.0988374
0.24343 0.222362 0.0988101
0.243903 0.222176 0.0988955
0.244386 0.222047 0.0988681
0.244859 0.221861 0.0989535
0.245341 0.221733 0.0989262
0.245824 0.221604 0.0988988
0.246306 0.221476 0.0988714
0.246789 0.221348 0.098844
0.247271 0.221219 0.0988166
0.247763 0.221149 0.0986765
0.248254 0.221078 0.0985363
0.248746 0.221007 0.0983962
0.249237 0.220937 0.0982561
0.249728 0.220866 0.0981159
0.250229 0.220852 0.0978625
0.25072 0.220782 0.0977225
0.25122 0.220769 0.0974696
0.251712 0.220698 0.0973294
0.252203 0.220627 0.0971893
0.252694 0.220556 0.0970486
0.253195 0.220543 0.0967957
0.253686 0.220472 0.0966556
0.254187 0.220459 0.0964027
0.254687 0.220445 0.0961494
0.255178 0.220375 0.0960093
0.255678 0.220362 0.0957563
0.256179 0.220349 0.0955035
0.256688 0.220393 0.0951373
0.257206 0.220495 0.0946589
0.257724 0.220597 0.09418
0.258269 0.220872 0.0933628
0.258814 0.221146 0.0925457
0.259332 0.221248 0.0920668
0.259904 0.221696 0.0909113
0.260449 0.221971 0.0900942
0.260985 0.222188 0.0893898
0.261521 0.222405 0.0886853
0.262074 0.222737 0.0877554
0.262646 0.223184 0.0865995
0.263236 0.223747 0.0852186
0.264003 0.225461 0.0815806
0.264637 0.226311 0.0796348
0.265361 0.227738 0.076561
0.265879 0.22784 0.0760826
0.266424 0.228115 0.0752654
0.26696 0.228332 0.074561
0.267487 0.228491 0.0739694
0.267996 0.228536 0.0736037
0.268496 0.228522 0.0733504
0.269014 0.228625 0.072872
0.269533 0.228726 0.0723931
0.270042 0.228771 0.0720274
0.27056 0.228873 0.0715485
0.271069 0.228917 0.0711829
0.271587 0.229019 0.070704
0.272097 0.229064 0.0703383
0.272606 0.229108 0.0699722
0.273106 0.229095 0.0697193
0.273624 0.229196 0.0692404
0.274142 0.229299 0.068762
0.274653 0.229351 0.0683823
0.275164 0.229408 0.0679962
0.275695 0.229589 0.0673709
0.276207 0.229646 0.0669847
0.276727 0.229764 0.0664788
0.277248 0.229883 0.0659728
0.27775 0.229878 0.0657064
0.278281 0.230058 0.0650807
0.278802 0.230178 0.0645753
0.279313 0.230235 0.0641891
0.279844 0.230414 0.0635634
0.228198 0.235348 0.0845301
0.228635 0.234932 0.0850665
0.229028 0.234227 0.0861671
0.229431 0.23358 0.0871551
0.229859 0.233106 0.0878042
0.23027 0.232516 0.0886794
0.230726 0.232215 0.0889902
0.231137 0.231626 0.0898654
0.23153 0.230921 0.0909661
0.231977 0.230562 0.0913898
0.232415 0.230145 0.0919262
0.232861 0.229787 0.0923503
0.233281 0.229254 0.0931122
0.233737 0.228953 0.0934231
0.234184 0.228595 0.0938472
0.23463 0.228235 0.0942709
0.235086 0.227934 0.0945818
0.235524 0.227518 0.0951187
0.23598 0.227216 0.0954296
0.236426 0.226857 0.0958533
0.236873 0.226499 0.0962774
0.237347 0.226313 0.0963627
0.237802 0.226011 0.0966736
0.238267 0.225768 0.0968717
0.238722 0.225466 0.0971827
0.239178 0.225165 0.0974936
0.239652 0.224979 0.0975795
0.240125 0.224793 0.0976648
0.24059 0.22455 0.097863
0.241063 0.224364 0.0979483
0.241537 0.224177 0.0980337
0.24201 0.223991 0.0981191
0.242493 0.223863 0.0980917
0.242957 0.223619 0.0982898
0.24344 0.223491 0.0982624
0.243922 0.223363 0.0982351
0.244405 0.223234 0.0982077
0.244869 0.22299 0.0984059
0.245352 0.222862 0.0983785
0.245834 0.222734 0.0983511
0.246317 0.222605 0.0983237
0.24679 0.222419 0.0984091
0.247273 0.222291 0.0983818
0.247764 0.22222 0.0982416
0.248238 0.222034 0.098327
0.248729 0.221964 0.0981868
0.24922 0.221893 0.0980467
0.249712 0.221822 0.0979066
0.250203 0.221751 0.0977665
0.250704 0.221739 0.0975136
0.251195 0.221668 0.0973734
0.251687 0.221597 0.0972333
0.252178 0.221527 0.0970931
0.252669 0.221456 0.096953
0.253161 0.221385 0.0968129
0.253652 0.221314 0.0966723
0.254152 0.221301 0.0964194
0.254644 0.22123 0.0962793
0.255135 0.22116 0.0961391
0.255635 0.221147 0.0958862
0.256145 0.221191 0.0955206
0.256645 0.221178 0.0952677
0.257154 0.221222 0.0949016
0.257673 0.221325 0.0944232
0.258182 0.221369 0.0940576
0.258727 0.221644 0.0932403
0.259254 0.221804 0.0926492
0.259799 0.222079 0.0918321
0.260353 0.222412 0.0909026
0.260907 0.222745 0.0899727
0.261434 0.222905 0.0893815
0.261997 0.223295 0.0883389
0.262542 0.22357 0.0875217
0.263105 0.223961 0.0864795
0.26398 0.226368 0.081489
0.264597 0.227104 0.0797697
0.265285 0.228302 0.0771479
0.265839 0.228635 0.0762186
0.266366 0.228794 0.0756269
0.266884 0.228897 0.0751484
0.26742 0.229115 0.0744446
0.267929 0.229158 0.0740784
0.26843 0.229146 0.0738255
0.26893 0.229133 0.0735726
0.269449 0.229235 0.0730943
0.269958 0.229279 0.0727281
0.270467 0.229324 0.0723625
0.270994 0.229484 0.0717713
0.271495 0.229471 0.0715184
0.272004 0.229515 0.0711523
0.272522 0.229617 0.0706739
0.273022 0.229604 0.070421
0.273541 0.229707 0.0699426
0.27405 0.229751 0.0695765
0.274559 0.229795 0.0692108
0.275069 0.229844 0.0688382
0.275581 0.229902 0.0684525
0.276092 0.229959 0.0680662
0.276613 0.230077 0.0675603
0.277144 0.230258 0.0669351
0.277655 0.230316 0.0665494
0.278157 0.23031 0.0662825
0.278678 0.23043 0.065777
0.27919 0.230487 0.0653908
0.279711 0.230606 0.0648853
0.280213 0.230601 0.0646189
0.280763 0.230905 0.0637542
0.281274 0.230962 0.063368
0.281795 0.231082 0.0628625
0.22913 0.235941 0.0844964
0.229568 0.235524 0.0850329
0.229952 0.234761 0.0862458
0.230372 0.234229 0.0870081
0.230774 0.233582 0.0879957
0.231212 0.233165 0.0885321
0.231623 0.232575 0.0894067
0.232069 0.232216 0.0898303
0.232471 0.231568 0.0908178
0.232909 0.231151 0.0913542
0.233355 0.230792 0.0917778
0.233784 0.230317 0.0924269
0.234222 0.2299 0.0929634
0.234677 0.229599 0.0932743
0.235124 0.22924 0.0936979
0.23558 0.228938 0.0940088
0.236017 0.228521 0.0945452
0.236464 0.228162 0.0949688
0.236911 0.227803 0.0953925
0.237375 0.227559 0.0955907
0.23784 0.227315 0.0957887
0.238304 0.227072 0.095987
0.238751 0.226713 0.0964106
0.239207 0.226411 0.0967215
0.23968 0.226225 0.0968068
0.240145 0.225981 0.097005
0.240618 0.225795 0.0970903
0.241083 0.225551 0.0972885
0.241556 0.225365 0.0973739
0.24203 0.225179 0.0974592
0.242503 0.224993 0.0975446
0.242977 0.224807 0.09763
0.243459 0.224679 0.0976026
0.243942 0.22455 0.0975752
0.244415 0.224364 0.0976606
0.244889 0.224178 0.097746
0.245362 0.223992 0.0978314
0.245854 0.223922 0.0976913
0.246318 0.223678 0.0978894
0.246801 0.223549 0.097862
0.247283 0.223421 0.0978347
0.247766 0.223293 0.0978073
0.248248 0.223164 0.0977799
0.248731 0.223036 0.0977525
0.249213 0.222908 0.0977252
0.249705 0.222837 0.097585
0.250196 0.222766 0.0974449
0.250687 0.222696 0.0973047
0.251179 0.222625 0.0971646
0.251661 0.222497 0.0971372
0.252153 0.222426 0.096997
0.252644 0.222355 0.096857
0.253135 0.222285 0.0967169
0.253636 0.222272 0.096464
0.254127 0.222201 0.0963238
0.254619 0.22213 0.0961837
0.25511 0.22206 0.0960435
0.255619 0.222104 0.0956779
0.256111 0.222034 0.0955378
0.25662 0.222079 0.0951721
0.257121 0.222066 0.0949193
0.257621 0.222053 0.0946663
0.258139 0.222155 0.094188
0.258658 0.222257 0.0937095
0.259185 0.222418 0.0931184
0.259721 0.222635 0.0924145
0.260266 0.222911 0.0915978
0.260811 0.223187 0.0907811
0.261365 0.22352 0.0898518
0.26191 0.223795 0.0890351
0.262456 0.224071 0.0882184
0.263037 0.224577 0.0869507
0.263653 0.225315 0.085232
0.264601 0.228186 0.0793408
0.265254 0.229154 0.0771711
0.265799 0.22943 0.0763545
0.266308 0.229474 0.0759888
0.266836 0.229635 0.0753976
0.267363 0.229795 0.0748065
0.267863 0.229782 0.0745536
0.268373 0.229826 0.074188
0.268873 0.229813 0.0739351
0.269373 0.229801 0.0736822
0.269883 0.229845 0.0733166
0.270392 0.22989 0.0729509
0.270901 0.229935 0.0725852
0.27142 0.230037 0.0721069
0.271929 0.230082 0.0717412
0.272438 0.230127 0.0713756
0.272939 0.230114 0.0711227
0.273448 0.230159 0.070757
0.273957 0.230202 0.0703909
0.274466 0.230247 0.0700253
0.274976 0.230292 0.0696596
0.275485 0.230337 0.069294
0.276006 0.230456 0.0687885
0.276518 0.230514 0.0684028
0.277029 0.230571 0.0680166
0.27755 0.23069 0.0675111
0.278062 0.230748 0.0671254
0.278574 0.230805 0.0667392
0.279085 0.230863 0.0663535
0.279597 0.23092 0.0659673
0.280118 0.231039 0.0654619
0.28062 0.231034 0.0651954
0.281151 0.231215 0.0645702
0.281662 0.231273 0.0641845
0.282174 0.23133 0.0637983
0.282685 0.231388 0.0634126
0.283216 0.231569 0.0627874
0.230108 0.236823 0.0838996
0.230939 0.235699 0.0855357
0.231278 0.234648 0.0873124
0.231707 0.234172 0.0879611
0.232144 0.233755 0.0884975
0.232582 0.233339 0.0890338
0.232975 0.232632 0.0901335
0.23343 0.232331 0.0904444
0.233859 0.231855 0.0910931
0.234305 0.231496 0.0915167
0.234734 0.231022 0.0921659
0.235199 0.230778 0.092364
0.235627 0.230303 0.0930126
0.236074 0.229943 0.0934363
0.236538 0.2297 0.0936345
0.236985 0.22934 0.0940581
0.237422 0.228923 0.094594
0.237878 0.228621 0.0949049
0.238334 0.22832 0.0952158
0.238798 0.228076 0.0954139
0.239263 0.227832 0.095612
0.239709 0.227472 0.0960352
0.240174 0.227228 0.0962334
0.240638 0.226985 0.0964314
0.241121 0.226856 0.0964041
0.241594 0.22667 0.0964895
0.24205 0.226369 0.0968003
0.242514 0.226125 0.0969985
0.242997 0.225997 0.0969711
0.24347 0.225811 0.0970565
0.243953 0.225682 0.0970291
0.244444 0.225611 0.096889
0.244918 0.225425 0.0969743
0.245391 0.225239 0.0970598
0.245874 0.225111 0.0970324
0.246338 0.224867 0.0972304
0.246821 0.224739 0.0972031
0.247294 0.224553 0.0972885
0.247786 0.224482 0.0971483
0.248259 0.224296 0.0972337
0.248751 0.224225 0.0970936
0.249224 0.224039 0.097179
0.249707 0.223911 0.0971516
0.250198 0.22384 0.0970114
0.250681 0.223712 0.096984
0.251163 0.223584 0.0969567
0.251654 0.223513 0.0968166
0.252146 0.223442 0.0966765
0.252637 0.223372 0.0965363
0.253129 0.223301 0.0963962
0.253611 0.223173 0.0963688
0.254102 0.223102 0.0962287
0.254603 0.223089 0.0959759
0.255094 0.223018 0.0958357
0.255595 0.223005 0.0955828
0.256095 0.222992 0.09533
0.256595 0.222979 0.0950771
0.257096 0.222967 0.0948246
0.257587 0.222897 0.0946845
0.258115 0.223057 0.0940933
0.258615 0.223044 0.0938404
0.259151 0.223262 0.0931366
0.25967 0.223365 0.0926586
0.260215 0.223641 0.091842
0.260751 0.223858 0.0911381
0.261297 0.224135 0.090322
0.261842 0.22441 0.0895053
0.262423 0.224918 0.088238
0.263013 0.225483 0.0868581
0.264749 0.230192 0.0771089
0.26525 0.23018 0.076856
0.265768 0.230282 0.0763776
0.266278 0.230328 0.0760125
0.266787 0.230372 0.0756468
0.267296 0.230417 0.0752811
0.267806 0.230462 0.0749155
0.268306 0.230449 0.0746626
0.268806 0.230436 0.0744098
0.269307 0.230424 0.0741574
0.269816 0.230469 0.0737917
0.270317 0.230456 0.0735389
0.270826 0.2305 0.0731732
0.271326 0.230487 0.0729203
0.271845 0.23059 0.0724419
0.272354 0.230635 0.0720768
0.272864 0.23068 0.0717111
0.273364 0.230667 0.0714582
0.273873 0.230712 0.0710926
0.274374 0.230699 0.0708397
0.274901 0.230859 0.0702486
0.275401 0.230847 0.0699962
0.275911 0.230892 0.0696305
0.276432 0.231011 0.069125
0.276934 0.231007 0.0688586
0.277455 0.231126 0.0683531
0.277967 0.231184 0.0679675
0.278469 0.231179 0.067701
0.27899 0.231299 0.067196
0.279492 0.231295 0.0669296
0.280013 0.231414 0.0664241
0.280515 0.23141 0.0661577
0.281036 0.231529 0.0656522
0.281538 0.231525 0.0653863
0.28206 0.231644 0.0648808
0.282571 0.231702 0.0644951
0.283083 0.231759 0.0641089
0.283594 0.231817 0.0637231
0.284116 0.231936 0.0632177
0.284676 0.232304 0.0622346
0.232354 0.236164 0.0854752
0.233095 0.234462 0.0882378
0.233541 0.234102 0.088661
0.23397 0.233627 0.0893096
0.234407 0.23321 0.0898461
0.234863 0.232908 0.0901564
0.235318 0.232606 0.0904674
0.235711 0.2319 0.091567
0.23614 0.231425 0.0922157
0.236586 0.231065 0.0926389
0.237033 0.230705 0.0930624
0.237497 0.230462 0.0932606
0.237926 0.229986 0.0939092
0.238381 0.229684 0.0942197
0.238837 0.229383 0.0945305
0.239301 0.229139 0.0947287
0.239784 0.22901 0.0947013
0.240239 0.228708 0.0950117
0.240677 0.228291 0.0955481
0.241159 0.228163 0.0955207
0.241606 0.227803 0.0959438
0.242097 0.227732 0.0958037
0.24257 0.227546 0.0958891
0.243026 0.227245 0.0962
0.2435 0.227059 0.0962853
0.243991 0.226988 0.0961452
0.244473 0.22686 0.0961179
0.244929 0.226557 0.0964283
0.245411 0.226429 0.0964009
0.245894 0.2263 0.0963735
0.246367 0.226114 0.0964588
0.246859 0.226044 0.0963188
0.247341 0.225915 0.0962914
0.247815 0.225729 0.0963767
0.248306 0.225659 0.0962366
0.24878 0.225473 0.096322
0.249253 0.225287 0.0964074
0.249753 0.225274 0.0961545
0.250227 0.225088 0.0962398
0.2507 0.224901 0.0963253
0.251183 0.224773 0.0962979
0.251665 0.224645 0.0962705
0.252157 0.224574 0.0961303
0.252648 0.224503 0.0959902
0.253131 0.224375 0.0959629
0.253613 0.224247 0.0959355
0.254105 0.224176 0.0957954
0.254596 0.224106 0.0956557
0.255088 0.224036 0.0955156
0.255597 0.22408 0.0951499
0.256088 0.22401 0.0950098
0.256589 0.223997 0.0947569
0.25708 0.223927 0.0946173
0.25759 0.223972 0.0942517
0.25809 0.223959 0.0939988
0.258609 0.224062 0.0935208
0.259127 0.224164 0.0930425
0.259646 0.224268 0.0925646
0.260173 0.224429 0.0919739
0.260718 0.224704 0.0911573
0.261291 0.225155 0.0900033
0.261827 0.225373 0.0892999
0.262426 0.225996 0.0878072
0.263017 0.226562 0.0864278
0.264728 0.231103 0.0770198
0.26521 0.230975 0.0769924
0.265737 0.231135 0.0764013
0.266238 0.231123 0.0761489
0.266747 0.231168 0.0757832
0.267257 0.231213 0.0754176
0.267748 0.231143 0.075278
0.268249 0.23113 0.0750251
0.268758 0.231175 0.0746594
0.269249 0.231104 0.0745193
0.26975 0.231092 0.0742669
0.270259 0.231137 0.0739013
0.27076 0.231124 0.0736484
0.27126 0.231111 0.073396
0.27177 0.231156 0.0730304
0.27227 0.231143 0.0727775
0.27278 0.231189 0.0724123
0.273289 0.231234 0.0720467
0.273789 0.231221 0.0717938
0.274299 0.231266 0.0714287
0.274808 0.231311 0.071063
0.275318 0.231356 0.0706974
0.275827 0.231401 0.0703322
0.276336 0.231446 0.0699666
0.276848 0.231504 0.0695809
0.27735 0.231499 0.0693145
0.277871 0.231619 0.0688094
0.278383 0.231677 0.0684237
0.278885 0.231673 0.0681573
0.279397 0.231731 0.0677716
0.279908 0.231788 0.0673859
0.28042 0.231846 0.0670002
0.280932 0.231904 0.0666144
0.281443 0.231962 0.0662288
0.281945 0.231957 0.0659623
0.282457 0.232015 0.0655766
0.282968 0.232073 0.0651909
0.28348 0.232131 0.0648052
0.283992 0.232188 0.0644194
0.284503 0.232246 0.0640337
0.285015 0.232304 0.063648
0.285527 0.232362 0.0632623
0.286077 0.232668 0.062399
0.234189 0.236095 0.0861757
0.234663 0.235909 0.0862611
0.235055 0.235202 0.0873603
0.235403 0.234206 0.0890226
0.235876 0.234019 0.0891081
0.236314 0.233602 0.089644
0.236688 0.232779 0.0909686
0.237153 0.232535 0.0911663
0.237599 0.232175 0.0915895
0.238036 0.231757 0.0921254
0.238492 0.231455 0.0924362
0.238911 0.230922 0.0931971
0.239412 0.230909 0.0929448
0.239849 0.230492 0.0934807
0.240305 0.230189 0.0937911
0.240778 0.230003 0.0938764
0.241243 0.22976 0.0940745
0.241689 0.2294 0.0944977
0.242172 0.229271 0.0944703
0.242627 0.228969 0.0947807
0.243101 0.228783 0.0948661
0.243556 0.228481 0.0951765
0.244029 0.228294 0.0952618
0.244503 0.228108 0.0953472
0.244985 0.22798 0.0953199
0.245468 0.227852 0.0952925
0.245941 0.227666 0.0953778
0.246433 0.227595 0.0952377
0.246897 0.227351 0.0954359
0.24738 0.227223 0.0954085
0.247871 0.227152 0.0952683
0.248335 0.226908 0.095466
0.248827 0.226838 0.0953264
0.2493 0.226651 0.0954112
0.249783 0.226522 0.0953838
0.250265 0.226394 0.0953565
0.250739 0.226208 0.0954418
0.251221 0.22608 0.0954145
0.251713 0.226009 0.0952744
0.252186 0.225823 0.0953597
0.252678 0.225752 0.0952196
0.253151 0.225566 0.0953049
0.253643 0.225496 0.0951649
0.254125 0.225367 0.0951375
0.254626 0.225355 0.094885
0.255108 0.225227 0.0948577
0.255617 0.225271 0.0944921
0.2561 0.225143 0.0944647
0.256592 0.225073 0.0943251
0.257083 0.225003 0.0941849
0.257592 0.225047 0.0938193
0.258111 0.225151 0.0933414
0.258629 0.225254 0.0928635
0.259121 0.225183 0.0927234
0.259684 0.225576 0.0916822
0.260203 0.225679 0.0912043
0.260757 0.226013 0.0902754
0.261303 0.226291 0.0894597
0.261884 0.226799 0.088193
0.264196 0.231969 0.0772959
0.264697 0.231957 0.0770435
0.265179 0.231828 0.0770161
0.265698 0.231932 0.0765381
0.266198 0.231919 0.0762853
0.266708 0.231964 0.0759201
0.267208 0.231951 0.0756673
0.2677 0.231881 0.0755271
0.2682 0.231868 0.0752747
0.268701 0.231856 0.0750219
0.269201 0.231843 0.074769
0.269693 0.231773 0.0746294
0.270193 0.23176 0.0743765
0.270703 0.231805 0.0740113
0.271203 0.231792 0.0737584
0.271703 0.231779 0.0735056
0.272204 0.231767 0.0732532
0.272713 0.231812 0.0728875
0.273214 0.2318 0.0726351
0.273723 0.231845 0.0722695
0.274224 0.231833 0.0720171
0.274724 0.23182 0.0717642
0.275234 0.231865 0.071399
0.275734 0.231852 0.0711462
0.276244 0.231898 0.070781
0.276753 0.231943 0.0704154
0.277264 0.231997 0.0700367
0.277776 0.232054 0.069651
0.278288 0.232113 0.0692657
0.27879 0.232109 0.0689993
0.279311 0.232229 0.0684943
0.279813 0.232224 0.0682279
0.280315 0.23222 0.0679619
0.280827 0.232278 0.0675762
0.281338 0.232336 0.0671905
0.28185 0.232395 0.0668053
0.282362 0.232453 0.0664195
0.282864 0.232448 0.0661531
0.283375 0.232506 0.0657674
0.283887 0.232564 0.0653822
0.284389 0.23256 0.0651158
0.284901 0.232618 0.06473
0.285413 0.232676 0.0643448
0.285915 0.232672 0.0640784
0.286446 0.232854 0.0634541
0.286948 0.23285 0.0631877
0.28746 0.232908 0.0628024
0.288001 0.233152 0.0620584
0.235578 0.236386 0.0864529
0.236051 0.2362 0.0865384
0.236917 0.235306 0.0877224
0.237436 0.235409 0.0872445
0.237729 0.234065 0.0895825
0.238139 0.233472 0.0904557
0.238612 0.233286 0.090541
0.239014 0.232637 0.0915274
0.239487 0.23245 0.0916124
0.239907 0.231917 0.0923737
0.240389 0.231789 0.0923463
0.240862 0.231602 0.0924313
0.241336 0.231416 0.0925166
0.241782 0.231056 0.0929398
0.24222 0.230638 0.0934757
0.242711 0.230567 0.0933355
0.243185 0.230381 0.093421
0.243676 0.230311 0.0932808
0.244104 0.229834 0.0939289
0.24456 0.229532 0.0942393
0.245051 0.229462 0.0940997
0.245543 0.229392 0.0939596
0.245998 0.229089 0.09427
0.246463 0.228845 0.094468
0.246945 0.228717 0.0944407
0.247428 0.228589 0.0944133
0.247883 0.228286 0.0947238
0.248402 0.22839 0.0942458
0.248893 0.228319 0.0941057
0.249375 0.228191 0.0940784
0.249867 0.22812 0.0939382
0.250295 0.227645 0.0945869
0.250814 0.227748 0.0941089
0.251323 0.227793 0.0937438
0.251779 0.227491 0.0940542
0.252261 0.227363 0.0940268
0.252789 0.227524 0.0934362
0.253253 0.22728 0.0936343
0.253709 0.226978 0.0939447
0.254236 0.227139 0.093354
0.254701 0.226895 0.0935522
0.255201 0.226882 0.0932993
0.255684 0.226754 0.0932719
0.256166 0.226625 0.0932445
0.256676 0.226671 0.0928794
0.257203 0.226832 0.0922887
0.257686 0.226703 0.0922613
0.258267 0.227212 0.0909952
0.258714 0.226852 0.0914183
0.259305 0.22742 0.0900398
0.259769 0.227175 0.0902375
0.260869 0.227787 0.0884935
0.263219 0.233195 0.0771493
0.263665 0.232835 0.0775724
0.264166 0.232823 0.0773201
0.264657 0.232752 0.0771798
0.265158 0.232739 0.076927
0.265658 0.232727 0.0766746
0.266168 0.232773 0.0763095
0.266668 0.23276 0.0760566
0.26716 0.23269 0.075917
0.26766 0.232677 0.0756641
0.268152 0.232606 0.0755239
0.268661 0.232652 0.0751588
0.269144 0.232524 0.0751314
0.269644 0.232511 0.0748791
0.270145 0.232498 0.0746262
0.270645 0.232486 0.0743737
0.271155 0.232532 0.0740086
0.271646 0.232461 0.0738685
0.272156 0.232507 0.0735033
0.272665 0.232552 0.0731382
0.273166 0.232539 0.0728853
0.273666 0.232527 0.0726329
0.274158 0.232457 0.0724928
0.274658 0.232444 0.0722399
0.275159 0.232432 0.0719875
0.275659 0.232419 0.0717351
0.27616 0.232406 0.0714822
0.276669 0.232452 0.0711171
0.27717 0.232439 0.0708642
0.27767 0.232427 0.0706118
0.278182 0.232485 0.0702261
0.278694 0.232543 0.0698408
0.279206 0.232601 0.0694551
0.279718 0.23266 0.0690699
0.280229 0.232718 0.0686842
0.280731 0.232714 0.0684182
0.281243 0.232773 0.068033
0.281745 0.232768 0.0677666
0.282267 0.232888 0.0672616
0.282769 0.232885 0.0669956
0.283281 0.232943 0.0666104
0.283792 0.233001 0.0662247
0.284294 0.232997 0.0659587
0.284796 0.232993 0.0656923
0.285298 0.232989 0.0654263
0.28581 0.233047 0.0650406
0.286322 0.233106 0.0646554
0.286834 0.233163 0.0642696
0.287345 0.233222 0.0638844
0.287838 0.233156 0.0637377
0.288369 0.233339 0.0631135
0.288891 0.233459 0.0626085
0.289412 0.233579 0.0621035
0.289894 0.23345 0.0620761
0.239644 0.234515 0.0892681
0.240055 0.233923 0.0901418
0.240564 0.233969 0.0897766
0.240993 0.233493 0.0904248
0.241493 0.23348 0.090172
0.241867 0.232656 0.0914956
0.242349 0.232527 0.0914683
0.242787 0.232109 0.0920036
0.243278 0.232039 0.091864
0.243752 0.231852 0.0919488
0.244198 0.231492 0.092372
0.244689 0.231421 0.0922318
0.245145 0.231119 0.0925423
0.245609 0.230875 0.0927404
0.246065 0.230573 0.0930508
0.246556 0.230502 0.0929107
0.247039 0.230374 0.0928833
0.24753 0.230303 0.0927432
0.248003 0.230117 0.0928285
0.248486 0.229989 0.0928012
0.248932 0.229629 0.0932243
0.249424 0.229558 0.0930842
0.249933 0.229604 0.0927191
0.250398 0.229359 0.0929167
0.250898 0.229347 0.0926643
0.251372 0.229161 0.0927496
0.251836 0.228916 0.0929473
0.252373 0.229136 0.0922444
0.252819 0.228776 0.0926675
0.253329 0.228822 0.0923024
0.253838 0.228867 0.0919372
0.254393 0.229202 0.0910088
0.254803 0.22861 0.0918825
0.255412 0.229293 0.0902785
0.25585 0.228876 0.0908144
0.25635 0.228863 0.0905615
0.257405 0.229186 0.0893812
0.262259 0.234537 0.0767776
0.262715 0.234235 0.077088
0.263179 0.233991 0.0772861
0.263644 0.233747 0.0774838
0.264135 0.233676 0.0773437
0.264617 0.233548 0.0773163
0.265127 0.233593 0.0769511
0.265628 0.233581 0.0766988
0.266128 0.233569 0.0764464
0.266629 0.233556 0.0761935
0.26712 0.233486 0.0760539
0.267621 0.233473 0.075801
0.268112 0.233403 0.0756613
0.268613 0.233391 0.0754084
0.269104 0.233321 0.0752688
0.269587 0.233192 0.0752415
0.270096 0.233238 0.0748763
0.270588 0.233167 0.0747362
0.271097 0.233213 0.074371
0.271589 0.233143 0.0742314
0.272108 0.233246 0.0737535
0.272626 0.23335 0.0732756
0.273136 0.233395 0.0729104
0.273636 0.233383 0.0726581
0.274119 0.233255 0.0726307
0.27461 0.233184 0.0724906
0.275102 0.233114 0.0723509
0.275602 0.233101 0.072098
0.276094 0.233031 0.0719584
0.276594 0.233018 0.0717055
0.277086 0.232949 0.0715659
0.277586 0.232936 0.071313
0.278087 0.232923 0.0710606
0.278598 0.232978 0.0706819
0.27911 0.233036 0.0702967
0.279622 0.233095 0.0699114
0.280124 0.233091 0.0696455
0.280636 0.233149 0.0692598
0.281148 0.233208 0.0688745
0.28165 0.233204 0.0686086
0.282162 0.233263 0.0682233
0.282673 0.23332 0.0678376
0.283175 0.233317 0.0675717
0.283697 0.233438 0.0670671
0.284189 0.233372 0.0669205
0.284701 0.233429 0.0665348
0.285203 0.233426 0.0662688
0.285715 0.233484 0.0658836
0.286217 0.233481 0.0656176
0.286729 0.233539 0.0652319
0.287231 0.233535 0.0649659
0.287733 0.233531 0.0647
0.288245 0.23359 0.0643148
0.288757 0.233648 0.0639295
0.289269 0.233706 0.0635438
0.28978 0.233765 0.0631585
0.290273 0.233699 0.0630119
0.290794 0.23382 0.0625073
0.291316 0.23394 0.0620024
0.291828 0.233999 0.0616171
0.241542 0.234851 0.0891798
0.242061 0.234955 0.0887023
0.243846 0.233512 0.0903935
0.244301 0.23321 0.0907039
0.244775 0.233023 0.0907887
0.245257 0.232895 0.0907614
0.245739 0.232766 0.090734
0.246249 0.232813 0.0903693
0.246695 0.232452 0.090792
0.247151 0.23215 0.0911023
0.247597 0.231789 0.091525
0.248079 0.23166 0.0914977
0.248571 0.23159 0.0913575
0.249153 0.2321 0.0900923
0.249572 0.231566 0.0908527
0.249973 0.230915 0.0918382
0.250474 0.230902 0.0915857
0.250956 0.230774 0.0915584
0.251466 0.23082 0.0911932
0.252003 0.23104 0.0904909
0.252512 0.231086 0.0901257
0.252949 0.230667 0.0906611
0.253586 0.231525 0.0887204
0.253996 0.230933 0.0895936
0.254478 0.230805 0.0895662
0.254952 0.230618 0.089651
0.261409 0.236578 0.0750565
0.26181 0.235927 0.0760419
0.262247 0.235509 0.0765773
0.26273 0.23538 0.0765499
0.263176 0.235019 0.0769725
0.263668 0.234949 0.0768329
0.264141 0.234763 0.0769178
0.264623 0.234634 0.0768904
0.265115 0.234564 0.0767508
0.265606 0.234494 0.0766107
0.266098 0.234423 0.0764705
0.266589 0.234353 0.0763309
0.267081 0.234283 0.0761908
0.267573 0.234213 0.0760511
0.268064 0.234142 0.075911
0.268565 0.23413 0.0756586
0.269056 0.234059 0.0755185
0.269548 0.233989 0.0753789
0.270048 0.233977 0.075126
0.27054 0.233907 0.0749863
0.27104 0.233895 0.074734
0.271541 0.233882 0.0744816
0.272059 0.233986 0.0740037
0.272578 0.23409 0.0735263
0.273106 0.234252 0.0729361
0.273616 0.234297 0.072571
0.274107 0.234227 0.0724313
0.274599 0.234157 0.0722912
0.275081 0.234028 0.0722639
0.275564 0.2339 0.0722365
0.276046 0.233772 0.0722091
0.276538 0.233701 0.072069
0.277029 0.233631 0.0719293
0.277521 0.233561 0.0717892
0.278012 0.233491 0.0716496
0.278513 0.233478 0.0713967
0.279014 0.23347 0.0711378
0.279526 0.233529 0.0707525
0.280028 0.233525 0.0704866
0.28054 0.233584 0.0701013
0.281052 0.233643 0.0697161
0.281564 0.233701 0.0693308
0.282056 0.233635 0.0691842
0.282568 0.233694 0.0687989
0.28308 0.233752 0.0684137
0.283592 0.233811 0.0680284
0.284094 0.233807 0.0677625
0.284596 0.233804 0.0674965
0.285108 0.233862 0.0671113
0.28561 0.233859 0.0668453
0.286112 0.233855 0.0665794
0.286624 0.233914 0.0661941
0.287126 0.23391 0.0659282
0.287628 0.233906 0.0656622
0.288121 0.23384 0.0655156
0.288642 0.233961 0.065011
0.289154 0.23402 0.0646258
0.289656 0.234016 0.0643598
0.290168 0.234075 0.0639746
0.29067 0.234071 0.0637086
0.291182 0.23413 0.0633234
0.291694 0.234189 0.0629382
0.292187 0.234122 0.0627915
0.292708 0.234243 0.062287
0.29321 0.23424 0.062021
0.293781 0.234672 0.06092
0.294283 0.234668 0.0606536
0.247321 0.247122 0.064988
0.247744 0.24662 0.0656764
0.248158 0.246054 0.0664835
0.248581 0.245551 0.0671714
0.249074 0.245486 0.0670252
0.249566 0.245419 0.0668786
0.250039 0.245229 0.0669705
0.25056 0.24535 0.066466
0.251072 0.245408 0.0660807
0.251604 0.245593 0.0654574
0.252165 0.245963 0.0644757
0.252716 0.246272 0.0636138
0.253248 0.246455 0.0629899
0.253809 0.246826 0.0620087
0.260978 0.238085 0.0740962
0.26137 0.237375 0.0751939
0.261798 0.236898 0.0758415
0.262271 0.236712 0.0759269
0.262727 0.236409 0.0762368
0.263191 0.236164 0.0764344
0.263664 0.235978 0.0765198
0.264156 0.235908 0.0763797
0.26462 0.235663 0.0765774
0.265103 0.235535 0.07655
0.265585 0.235406 0.0765226
0.266068 0.235278 0.0764953
0.266559 0.235208 0.0763555
0.267042 0.23508 0.0763282
0.267533 0.235009 0.0761881
0.268025 0.234939 0.0760485
0.268516 0.234869 0.0759083
0.269008 0.234799 0.0757687
0.269508 0.234787 0.0755163
0.27 0.234716 0.0753762
0.270492 0.234646 0.0752365
0.270983 0.234576 0.0750964
0.271484 0.234563 0.074844
0.271993 0.23461 0.0744793
0.272503 0.234655 0.0741142
0.273031 0.234817 0.0735241
0.273559 0.23498 0.0729344
0.274068 0.235025 0.0725693
0.274578 0.235072 0.0722046
0.27507 0.235001 0.0720645
0.275561 0.234931 0.0719249
0.276034 0.234744 0.0720097
0.276517 0.234616 0.0719824
0.27699 0.23443 0.0720677
0.277473 0.234302 0.0720404
0.277964 0.234231 0.0719002
0.278447 0.234103 0.0718729
0.278947 0.23409 0.0716204
0.27945 0.234087 0.0713545
0.279952 0.234084 0.0710891
0.280444 0.234018 0.0709424
0.280956 0.234077 0.0705571
0.281458 0.234073 0.0702912
0.28196 0.234069 0.0700252
0.282472 0.234128 0.06964
0.282975 0.234125 0.0693745
0.283477 0.234121 0.0691085
0.283989 0.23418 0.0687233
0.284491 0.234176 0.0684574
0.285003 0.234235 0.0680721
0.285515 0.234294 0.0676874
0.286007 0.234228 0.0675407
0.286519 0.234287 0.0671554
0.287021 0.234283 0.0668895
0.287523 0.23428 0.0666235
0.288025 0.234276 0.0663576
0.288528 0.234273 0.0660921
0.28903 0.23427 0.0658262
0.289542 0.234328 0.0654409
0.290054 0.234387 0.0650556
0.290546 0.234321 0.064909
0.291058 0.23438 0.0645242
0.29157 0.234439 0.064139
0.292072 0.234435 0.063873
0.292584 0.234494 0.0634878
0.293096 0.234553 0.063103
0.293588 0.234487 0.0629563
0.29413 0.234733 0.0622132
0.294622 0.234667 0.0620666
0.295144 0.234789 0.0615625
0.295685 0.235035 0.0608194
0.244667 0.253645 0.0561287
0.244824 0.251454 0.0600351
0.245247 0.250951 0.0607229
0.245592 0.249948 0.0623646
0.246055 0.249695 0.0625759
0.246458 0.249066 0.0635019
0.246882 0.248563 0.0641897
0.247275 0.247873 0.0652355
0.247709 0.247432 0.0658041
0.248142 0.246991 0.0663727
0.248585 0.246612 0.066822
0.249057 0.246422 0.0669139
0.24953 0.246231 0.0670058
0.250032 0.246227 0.0667399
0.250524 0.246161 0.0665932
0.251017 0.246096 0.066447
0.251558 0.246343 0.0657044
0.25209 0.246526 0.0650805
0.252592 0.246523 0.064815
0.253154 0.246894 0.0638338
0.253725 0.247329 0.0627338
0.254247 0.24745 0.0622293
0.254838 0.248009 0.0608907
0.260521 0.239418 0.0734742
0.260985 0.239174 0.0736719
0.261422 0.238755 0.0742072
0.261841 0.23822 0.0749671
0.262305 0.237975 0.0751648
0.262769 0.23773 0.0753619
0.263215 0.237369 0.0757846
0.263689 0.237183 0.07587
0.264153 0.236938 0.0760676
0.264618 0.236694 0.0762652
0.2651 0.236565 0.0762379
0.265582 0.236437 0.0762105
0.266056 0.23625 0.0762954
0.266538 0.236122 0.076268
0.267021 0.235993 0.0762407
0.267503 0.235865 0.0762133
0.267986 0.235736 0.0761859
0.268477 0.235667 0.0760462
0.268969 0.235596 0.0759061
0.269469 0.235584 0.0756537
0.269952 0.235455 0.0756263
0.270452 0.235443 0.0753739
0.270935 0.235315 0.0753466
0.271435 0.235303 0.0750942
0.271936 0.235291 0.0748418
0.272437 0.235279 0.0745899
0.272947 0.235325 0.0742248
0.273465 0.235429 0.0737474
0.273984 0.235534 0.0732705
0.274512 0.235696 0.0726803
0.275022 0.235742 0.0723157
0.275533 0.235797 0.0719375
0.276026 0.235731 0.0717908
0.276528 0.235727 0.0715248
0.27701 0.235599 0.0714975
0.277483 0.235408 0.0715894
0.277946 0.235155 0.0718006
0.278428 0.235027 0.0717732
0.27891 0.234899 0.0717458
0.279403 0.234833 0.0715991
0.279895 0.234767 0.0714525
0.280387 0.234701 0.0713058
0.28088 0.234635 0.0711596
0.281372 0.234569 0.0710129
0.281884 0.234628 0.0706277
0.282376 0.234562 0.070481
0.282879 0.234559 0.0702156
0.283381 0.234555 0.0699496
0.283883 0.234552 0.0696837
0.284395 0.234611 0.0692989
0.284897 0.234608 0.0690329
0.2854 0.234605 0.0687675
0.285902 0.234601 0.0685015
0.286414 0.23466 0.0681163
0.286916 0.234657 0.0678508
0.287418 0.234653 0.0675848
0.28792 0.234649 0.0673189
0.288422 0.234647 0.0670534
0.288925 0.234643 0.0667874
0.289417 0.234577 0.0666408
0.289929 0.234636 0.066256
0.290441 0.234695 0.0658707
0.290943 0.234692 0.0656053
0.291445 0.234689 0.0653393
0.291957 0.234747 0.0649541
0.29246 0.234744 0.0646886
0.292981 0.234865 0.0641841
0.293484 0.234863 0.0639186
0.293986 0.234859 0.0636526
0.294508 0.234981 0.0631486
0.29501 0.234977 0.0628826
0.295532 0.235099 0.0623786
0.296054 0.235221 0.0618745
0.296556 0.235217 0.0616085
0.297068 0.235276 0.0612233
0.297629 0.235648 0.0602426
0.244702 0.254901 0.0554256
0.244987 0.253522 0.0577817
0.245272 0.252142 0.0601377
0.245666 0.251451 0.061183
