ply
format ascii 1.0
element vertex 1268
property float x
property float y
property float z
property uchar diffuse_red
property uchar diffuse_green
property uchar diffuse_blue
end_header
0.306422 0.0692057 -0.0343789 142 130 111
0.306556 0.069384 -0.0339893 137 119 100
0.306076 0.0693331 -0.0342381 142 129 110
0.306215 0.0694714 -0.0338538 139 118 98
0.305732 0.0694672 -0.0340922 143 125 104
0.305879 0.0695672 -0.0337091 138 108 86
0.3054 0.0696182 -0.0339277 143 119 97
0.305555 0.0696605 -0.0335609 139 100 74
0.305227 0.0697822 -0.0334204 136 100 76
0.305711 0.0696956 -0.033194 134 88 65
0.305382 0.0698059 -0.033053 130 76 51
0.305758 0.0696979 -0.0330625 132 85 61
0.305465 0.0698013 -0.0328447 128 70 47
0.305945 0.0696886 -0.0326071 110 51 34
0.305634 0.0697576 -0.0324348 104 42 25
0.306114 0.0696316 -0.0322317 105 44 29
0.305807 0.0696574 -0.0320503 99 37 23
0.306275 0.0695438 -0.0318668 92 28 17
0.305963 0.0695459 -0.0317094 92 26 15
0.306442 0.069459 -0.0315088 89 24 15
0.30613 0.0694269 -0.0313652 90 23 11
0.30661 0.0693688 -0.031164 85 19 11
0.306287 0.0693174 -0.0310239 88 19 10
0.306772 0.069298 -0.0307969 80 13 8
0.306453 0.0692258 -0.0306674 78 10 6
0.306844 0.0692649 -0.0306371 79 13 8
0.306619 0.069139 -0.0303099 79 11 7
0.307014 0.0691947 -0.0302728 77 11 7
0.3067 0.0691033 -0.0301357 77 11 7
0.307192 0.0691057 -0.0299125 77 12 8
0.306871 0.0689768 -0.0297839 77 11 7
0.307358 0.0689968 -0.0295538 77 11 8
0.307047 0.0688497 -0.0294243 77 11 7
0.307477 0.0689228 -0.029312 78 11 8
0.307184 0.0687511 -0.0291341 77 11 7
0.307674 0.0688387 -0.0289148 77 11 8
0.30739 0.0686355 -0.0287365 77 10 8
0.307866 0.0687864 -0.0285128 75 10 7
0.307578 0.0685614 -0.0283406 75 10 7
0.308058 0.0687717 -0.0280811 72 10 7
0.307755 0.0685184 -0.0279645 76 11 7
0.307939 0.0685016 -0.0275933 75 11 8
0.307595 0.0682366 -0.0275674 77 12 8
0.308026 0.0684914 -0.0273773 71 10 7
0.30781 0.0681826 -0.0271243 72 10 7
0.308215 0.0685146 -0.0269509 64 8 6
0.307988 0.068202 -0.0267011 67 8 6
0.308385 0.0685993 -0.026465 59 6 3
0.308119 0.0682527 -0.0262978 62 6 5
0.308265 0.0683898 -0.0259818 57 5 3
0.307916 0.0679802 -0.0260393 63 7 4
0.308062 0.0680873 -0.0256724 59 5 3
0.307703 0.0676664 -0.0257803 67 8 4
0.30784 0.0677702 -0.0253813 58 5 3
0.307498 0.0673238 -0.025489 68 8 5
0.307646 0.067441 -0.0250912 59 4 2
0.307262 0.0670121 -0.0252245 68 7 4
0.307397 0.0671496 -0.0248476 60 4 2
0.30702 0.0667502 -0.0249873 67 6 4
0.307177 0.0668578 -0.0246162 62 5 2
0.306778 0.0664821 -0.0247157 69 8 4
0.30693 0.0665735 -0.0243556 61 4 2
0.306507 0.0662237 -0.0245443 70 8 4
0.306676 0.0663062 -0.024123 64 6 4
0.306224 0.0659769 -0.0243628 70 7 4
0.306386 0.0660272 -0.023985 64 7 5
0.305936 0.065773 -0.0241919 69 7 5
0.306098 0.0657951 -0.0238136 64 7 5
0.305646 0.0655815 -0.0240243 68 8 6
0.305807 0.0655959 -0.0236479 65 8 5
0.305359 0.065403 -0.0238652 68 8 6
0.305523 0.0654124 -0.0234827 66 8 6
0.30504 0.0652716 -0.0237359 70 8 6
0.305222 0.0652545 -0.0233185 68 8 6
0.304895 0.0651207 -0.023235 69 8 6
0.305093 0.0651321 -0.0227769 67 7 6
0.304738 0.0650085 -0.0227241 69 7 6
0.304783 0.0650125 -0.0226289 68 7 6
0.304423 0.0649215 -0.0225873 70 8 6
0.304576 0.0649391 -0.0222231 68 9 6
0.304267 0.0648647 -0.0220909 69 8 6
0.304635 0.0649469 -0.0221049 68 8 6
0.304418 0.0648909 -0.0217149 68 8 6
0.304782 0.0650045 -0.0217355 66 8 6
0.304568 0.0649572 -0.0213438 67 8 5
0.304926 0.0650923 -0.0213738 65 6 5
0.304616 0.0649791 -0.021226 66 8 5
0.304756 0.065056 -0.0208549 65 6 5
0.304309 0.0648832 -0.0210742 68 8 5
0.304457 0.0649417 -0.020705 67 7 5
0.303996 0.0647983 -0.0209347 69 8 6
0.304149 0.0648381 -0.020555 69 7 6
0.303774 0.0647478 -0.0205764 70 8 6
0.303922 0.064781 -0.0202054 69 8 6
0.303601 0.0647223 -0.0200712 71 8 6
0.303675 0.0647276 -0.0198989 70 9 6
0.303278 0.0647005 -0.0199413 71 9 6
0.303431 0.0647145 -0.0195628 71 8 6
0.302959 0.0646905 -0.0198027 70 7 5
0.303112 0.0646924 -0.0194341 71 8 5
0.30279 0.0646873 -0.0192929 73 8 6
0.302943 0.0646838 -0.0189233 72 9 6
0.302471 0.0647079 -0.0191431 73 9 6
0.302619 0.0646968 -0.0187866 73 9 7
0.302156 0.0647488 -0.0189812 73 9 5
0.302313 0.0647245 -0.0186053 74 9 5
0.301832 0.0648186 -0.0188082 73 8 5
0.301991 0.0647771 -0.0184357 72 8 5
0.30152 0.0648948 -0.0186304 73 7 4
0.301672 0.064844 -0.018271 72 8 4
0.3012 0.0650042 -0.0184521 72 7 3
0.301357 0.064931 -0.0180932 72 7 4
0.300886 0.0651355 -0.0182605 72 7 3
0.301044 0.0650362 -0.0179102 73 7 4
0.300672 0.0652177 -0.0179106 71 6 3
0.300912 0.0650777 -0.0176104 72 6 3
0.300645 0.065196 -0.0173931 71 6 2
0.300768 0.0651222 -0.0172289 71 6 2
0.300392 0.0653132 -0.0171581 71 5 2
0.300613 0.065169 -0.0168681 71 5 2
0.300348 0.0652923 -0.0166418 69 5 2
0.300851 0.0650664 -0.0166057 72 7 3
0.300636 0.0651559 -0.0163084 70 6 3
0.301163 0.0649891 -0.0163034 73 9 4
0.300953 0.0650654 -0.0159841 72 8 4
0.301497 0.064948 -0.0160055 75 9 6
0.300433 0.0652521 -0.0160245 67 6 3
0.300346 0.0652867 -0.0161158 68 6 3
0.300437 0.0653411 -0.0176825 69 5 2
0.30048 0.0653895 -0.0182083 69 6 2
0.300539 0.0654423 -0.0187328 70 6 2
0.300533 0.0654996 -0.0189696 70 6 2
0.300363 0.0656857 -0.0192752 70 6 2
0.300665 0.0655178 -0.0195459 70 5 2
0.300503 0.0657096 -0.0198541 70 5 2
0.300801 0.0655382 -0.0201168 70 5 2
0.30064 0.0657397 -0.0204139 71 6 2
0.300936 0.0655755 -0.0206788 70 5 1
0.300771 0.0657966 -0.0209738 69 5 2
0.301071 0.0656311 -0.0212356 69 5 1
0.300684 0.065918 -0.0211292 72 6 1
0.300954 0.065786 -0.0214346 72 6 1
0.300526 0.0661617 -0.0214052 73 6 2
0.300792 0.0660299 -0.0217178 73 6 2
0.30065 0.0663126 -0.0219535 75 7 2
0.300918 0.0661691 -0.0222792 76 7 3
0.300777 0.0664783 -0.0224877 77 8 3
0.30105 0.0663464 -0.0228044 75 6 2
0.300686 0.0666918 -0.022609 77 8 3
0.300914 0.0666873 -0.0229879 75 6 3
0.300559 0.0670284 -0.0227796 78 8 2
0.300812 0.0669547 -0.0231187 76 7 2
0.300434 0.0673656 -0.0229584 78 7 3
0.300684 0.0673006 -0.0232801 77 7 2
0.300305 0.0677047 -0.0231215 78 8 3
0.300559 0.0676342 -0.0234529 76 7 2
0.30043 0.0679861 -0.0236083 76 7 1
0.30069 0.0679205 -0.0239248 76 6 2
0.300642 0.0680605 -0.0239816 75 6 2
0.300949 0.0678662 -0.0242363 76 6 1
0.300888 0.0680562 -0.0243159 75 5 1
0.301219 0.0678117 -0.0245441 75 6 1
0.301094 0.0681568 -0.0246952 75 6 1
0.301359 0.0681022 -0.0250088 73 6 1
0.300999 0.0683971 -0.0248043 76 6 1
0.301253 0.0683995 -0.025141 73 6 1
0.30076 0.0684083 -0.0244726 76 6 1
0.30052 0.0684104 -0.0241331 76 6 1
0.300285 0.0684231 -0.0237924 75 6 1
0.300048 0.0684416 -0.023449 77 7 2
0.299816 0.0684658 -0.0230808 76 8 3
0.299598 0.0684922 -0.022691 76 8 3
0.299389 0.0685165 -0.0222982 76 8 3
0.299178 0.0685502 -0.0218908 76 9 4
0.299002 0.0685282 -0.0214193 75 9 4
0.298777 0.0686652 -0.0209792 76 8 3
0.298896 0.0683151 -0.0208296 76 9 4
0.298664 0.0684332 -0.0204109 76 8 3
0.298783 0.0680903 -0.0202568 77 9 3
0.299012 0.067971 -0.0206811 76 8 3
0.299134 0.0676315 -0.0205088 76 8 3
0.299366 0.0675113 -0.0209187 75 8 4
0.29949 0.0671773 -0.0207441 75 8 4
0.299708 0.0670963 -0.0211578 74 7 3
0.299849 0.0667703 -0.0209571 73 7 3
0.299975 0.0669248 -0.021505 75 7 3
0.300111 0.0666134 -0.0213014 72 7 3
0.300232 0.0667728 -0.0218278 75 8 3
0.300377 0.0664562 -0.0216295 74 7 3
0.300499 0.0666258 -0.0221552 77 8 2
0.300439 0.066776 -0.0222386 77 8 3
0.300309 0.067112 -0.0224272 78 7 2
0.300071 0.0672063 -0.0220662 76 7 2
0.29994 0.0675341 -0.0222494 76 7 3
0.299703 0.0676271 -0.0218833 76 8 3
0.299577 0.0679678 -0.0220547 76 8 3
0.299347 0.0680652 -0.0216803 76 8 3
0.299458 0.068311 -0.0222097 75 8 3
0.299228 0.068415 -0.0218338 75 9 4
0.299693 0.0682199 -0.022574 76 8 3
0.299813 0.0678743 -0.0224178 77 8 3
0.300058 0.0677932 -0.022769 78 8 3
0.300184 0.0674508 -0.0225997 78 8 3
0.299933 0.0681312 -0.02293 77 8 3
0.30018 0.0680563 -0.023278 77 7 2
0.300199 0.0668712 -0.0218801 75 8 3
0.299831 0.0672913 -0.0217033 77 7 3
0.299472 0.067729 -0.0215059 76 8 3
0.299109 0.0681876 -0.0212674 76 9 4
0.299596 0.0673968 -0.0213212 75 7 3
0.299233 0.0678433 -0.0210976 76 8 4
0.30026 0.0663109 -0.0210868 74 6 2
0.299999 0.0664653 -0.0207413 73 7 3
0.299729 0.0666423 -0.0203889 74 7 2
0.299588 0.0669529 -0.0206032 75 7 3
0.299892 0.0663576 -0.0201443 71 6 2
0.300036 0.0661133 -0.0198883 72 6 2
0.3002 0.0658876 -0.0195824 71 6 2
0.300345 0.0659279 -0.0201505 70 5 1
0.300471 0.0659634 -0.0207081 73 6 2
0.300413 0.0660519 -0.0208127 74 6 2
0.300146 0.066204 -0.0204849 72 6 2
0.304248 0.0648591 -0.0212143 68 9 6
0.304101 0.0648101 -0.0215811 69 8 6
0.303945 0.0647996 -0.0219509 71 9 7
0.303779 0.0648189 -0.0223216 71 10 7
0.303466 0.064794 -0.0221809 73 10 6
0.30362 0.0648653 -0.0226976 72 9 6
0.3033 0.0648597 -0.0225546 71 8 5
0.303418 0.0649877 -0.0231341 71 9 5
0.303097 0.0649973 -0.0229769 69 7 4
0.30325 0.0651093 -0.0234634 69 8 6
0.302938 0.0651493 -0.0233078 68 6 4
0.302856 0.0652241 -0.0234534 70 7 4
0.302618 0.0652106 -0.0231361 69 7 4
0.302546 0.0652833 -0.0232491 70 7 4
0.302246 0.0653645 -0.0230428 72 5 2
0.302386 0.0655054 -0.0235509 72 6 2
0.302085 0.0656068 -0.02332 73 6 1
0.302231 0.0657605 -0.0238154 71 6 2
0.301929 0.0658944 -0.0235811 73 6 2
0.302153 0.0659301 -0.0239391 72 5 2
0.30187 0.066019 -0.0236579 73 5 2
0.302019 0.0662688 -0.0241361 70 5 2
0.301738 0.0663617 -0.0238513 75 6 2
0.301894 0.0666019 -0.024315 71 5 1
0.30161 0.0667061 -0.024037 76 6 1
0.301765 0.0669546 -0.0244868 73 6 1
0.301455 0.067121 -0.024223 75 5 1
0.301729 0.0670651 -0.024536 73 5 1
0.3016 0.0674061 -0.0246981 74 5 0
0.301915 0.0672135 -0.0249342 71 5 1
0.301862 0.0673549 -0.0249983 71 5 1
0.302131 0.0673065 -0.0253097 71 5 1
0.302005 0.0676549 -0.0254604 71 5 2
0.302355 0.0673774 -0.0256539 70 5 2
0.302272 0.0676073 -0.0257577 70 4 1
0.302638 0.0672968 -0.0259216 71 6 2
0.302509 0.0676589 -0.0260804 70 5 1
0.302794 0.0675823 -0.0263443 72 6 1
0.302685 0.0678661 -0.0264792 70 6 1
0.30308 0.0675191 -0.0265917 72 6 2
0.302952 0.0678638 -0.0267783 70 6 1
0.303234 0.0677972 -0.0270171 73 6 3
0.303108 0.0681427 -0.0271999 74 5 2
0.303396 0.0680982 -0.0274299 73 6 3
0.30327 0.0684415 -0.0276123 72 6 2
0.303558 0.0683986 -0.027841 76 7 3
0.303429 0.0687284 -0.0280261 75 7 2
0.303718 0.0687088 -0.0282395 75 8 2
0.303584 0.0690348 -0.0284359 74 7 2
0.303885 0.0690027 -0.0286565 77 6 1
0.303748 0.0693138 -0.0288583 74 6 1
0.304036 0.0692763 -0.0290875 74 6 1
0.303902 0.0695874 -0.0292995 74 7 1
0.304194 0.0695346 -0.0295372 77 7 1
0.304057 0.0698422 -0.0297542 76 7 1
0.304348 0.0697648 -0.0300098 76 8 1
0.304218 0.0700603 -0.0302589 73 8 1
0.304646 0.0696832 -0.0302962 76 8 2
0.304509 0.0699308 -0.0305755 76 11 3
0.304927 0.0695886 -0.0305693 80 9 4
0.30477 0.0698238 -0.0308668 80 12 4
0.305217 0.0694923 -0.0308102 80 11 5
0.305051 0.0697279 -0.031139 80 13 5
0.305362 0.0696063 -0.0313264 85 17 8
0.30518 0.0698383 -0.031713 90 24 12
0.305502 0.069712 -0.0318513 95 31 17
0.305451 0.0697591 -0.0319744 97 33 19
0.305662 0.0695561 -0.0315186 89 22 10
0.30583 0.0694068 -0.0311736 86 18 8
0.305518 0.0694298 -0.0309998 83 13 6
0.305995 0.0692727 -0.0308306 84 16 8
0.305682 0.0692782 -0.0306608 82 12 6
0.306133 0.0691791 -0.0305226 80 11 6
0.305844 0.0691404 -0.0303256 80 10 6
0.306299 0.0690681 -0.030181 79 11 6
0.30601 0.0689971 -0.0299836 78 11 6
0.306466 0.0689525 -0.0298377 79 11 7
0.306147 0.0688655 -0.0297072 78 10 6
0.306561 0.0688706 -0.0296528 78 11 7
0.306323 0.0687019 -0.0293773 77 10 6
0.306744 0.0687185 -0.029297 78 11 7
0.306433 0.0685937 -0.029152 77 10 7
0.306897 0.0685884 -0.0289757 78 11 7
0.306609 0.0684395 -0.0287918 77 10 7
0.307092 0.0684714 -0.0285832 78 10 7
0.306789 0.0683052 -0.0284393 78 10 7
0.307286 0.0683683 -0.0281918 77 10 8
0.306991 0.0681645 -0.0280344 78 10 7
0.307479 0.0682677 -0.0277879 77 11 8
0.307193 0.0680285 -0.0276274 77 11 7
0.307407 0.0679144 -0.0272325 79 12 8
0.307577 0.0678724 -0.0268688 73 10 7
0.307755 0.067893 -0.0264463 70 9 6
0.305373 0.0693057 -0.0304849 80 11 4
0.30553 0.0691347 -0.0301562 80 11 5
0.305691 0.0689542 -0.0298377 78 10 5
0.305839 0.0687981 -0.0295742 79 11 6
0.306005 0.0686127 -0.029247 79 11 6
0.30612 0.0684959 -0.0290105 79 11 6
0.3063 0.0683189 -0.0286578 77 10 7
0.306483 0.0681573 -0.0283145 79 11 7
0.306714 0.0679459 -0.0278573 78 10 7
0.306936 0.0677641 -0.0274313 79 10 8
0.307142 0.0676356 -0.0270189 77 11 7
0.307337 0.0675669 -0.0266109 76 11 8
0.307532 0.0675773 -0.0261726 72 10 6
0.305073 0.0693762 -0.0302776 80 10 4
0.304793 0.0694322 -0.030017 78 8 3
0.304495 0.0694838 -0.0297752 79 8 3
0.304337 0.0692449 -0.0293111 78 7 1
0.304189 0.068983 -0.0288612 76 7 1
0.304026 0.0686956 -0.028435 78 8 3
0.303857 0.0683843 -0.0280354 78 8 3
0.303692 0.0680795 -0.0276438 73 8 4
0.303528 0.0677627 -0.0272367 73 6 3
0.303638 0.0675073 -0.027083 73 7 4
0.303362 0.0674661 -0.0268309 72 7 4
0.303788 0.0671508 -0.02686 73 7 5
0.303476 0.0671834 -0.0266734 70 6 4
0.303625 0.0668417 -0.026451 71 7 4
0.303324 0.0668982 -0.0262452 73 8 4
0.303465 0.0665494 -0.0260362 71 7 4
0.303166 0.0666075 -0.0258255 70 7 3
0.303302 0.0662584 -0.0256255 71 8 4
0.302999 0.0663364 -0.025408 69 6 2
0.303146 0.0659935 -0.0251885 70 7 4
0.302847 0.0660773 -0.0249637 68 7 2
0.30299 0.0657708 -0.0247371 70 7 4
0.302597 0.0660936 -0.0246683 67 6 3
0.302693 0.0658533 -0.0245077 70 7 3
0.302384 0.0659626 -0.0242875 70 5 2
0.302526 0.0656502 -0.0240447 71 6 3
0.302685 0.0654177 -0.0237595 69 6 3
0.302308 0.0661789 -0.024408 70 6 2
0.302458 0.0664238 -0.024857 70 6 2
0.302695 0.0664457 -0.0251778 70 6 3
0.302893 0.0666163 -0.025554 69 6 2
0.302765 0.0669442 -0.0257401 70 6 2
0.303023 0.0669745 -0.026036 72 6 2
0.302924 0.0672331 -0.0261708 69 6 2
0.303209 0.0671754 -0.0264049 69 7 3
0.305227 0.0691659 -0.0299694 79 9 5
0.304941 0.0691847 -0.0297365 79 9 3
0.304642 0.0692032 -0.0295254 79 8 2
0.304494 0.0689614 -0.0290595 77 7 2
0.304326 0.0686897 -0.0286265 78 8 3
0.304443 0.0684654 -0.0284494 79 9 4
0.304164 0.0683906 -0.0282161 78 9 4
0.304598 0.0681643 -0.0282007 77 9 5
0.304279 0.0681585 -0.0280408 77 9 5
0.304432 0.0678398 -0.0277953 76 9 6
0.303999 0.0680818 -0.0278253 78 9 4
0.304117 0.0678255 -0.0276418 74 8 4
0.303831 0.0677548 -0.027439 73 8 4
0.305388 0.0689377 -0.0296815 80 10 4
0.305076 0.0689517 -0.0295083 80 9 3
0.304792 0.0689352 -0.0292725 78 8 3
0.304914 0.0687363 -0.0290534 77 9 3
0.304636 0.0686881 -0.0288192 78 8 3
0.305068 0.0684805 -0.0287766 79 9 5
0.304757 0.0684644 -0.0286172 79 8 4
0.304913 0.0681833 -0.028353 78 8 5
0.304749 0.0678765 -0.0279444 75 9 6
0.304925 0.0675506 -0.0276573 77 9 6
0.30461 0.0674903 -0.0275196 76 9 6
0.305093 0.0672929 -0.0273722 75 9 6
0.304781 0.0672014 -0.0272449 71 7 5
0.305267 0.0670417 -0.0270609 75 8 6
0.304948 0.0669346 -0.0269463 71 8 6
0.30543 0.0668261 -0.0267534 74 9 6
0.305122 0.06669 -0.0266333 72 8 5
0.305525 0.0667151 -0.0265819 74 8 6
0.305213 0.0665635 -0.0264546 73 8 6
0.305703 0.0665306 -0.0262182 73 8 6
0.305396 0.0663703 -0.0260968 73 8 6
0.305886 0.0663944 -0.0258631 74 8 6
0.305585 0.0662091 -0.0257282 72 8 5
0.30596 0.0663401 -0.0257158 75 9 6
0.305767 0.0660926 -0.0253599 73 8 6
0.306144 0.0662487 -0.0253103 73 10 6
0.305862 0.0660415 -0.0251431 72 9 6
0.306317 0.0662164 -0.0249281 71 8 5
0.30605 0.0659846 -0.0247495 71 7 5
0.306606 0.0664531 -0.0250976 70 8 5
0.306895 0.0666921 -0.0252683 69 7 4
0.307172 0.0669547 -0.0254605 71 8 5
0.30732 0.0672555 -0.0258811 73 9 6
0.306425 0.0664712 -0.0254806 72 8 6
0.306716 0.0666851 -0.0256773 74 9 6
0.306979 0.0669484 -0.0258637 74 9 6
0.30724 0.0672493 -0.0260507 74 9 6
0.307062 0.0672805 -0.0264288 77 11 8
0.306865 0.0673785 -0.0268581 78 10 7
0.306729 0.0674687 -0.0271141 78 10 7
0.30654 0.0676316 -0.027481 78 10 7
0.306351 0.0678267 -0.0278349 76 10 6
0.306167 0.068024 -0.0281793 76 9 7
0.306021 0.0681795 -0.0284711 76 10 7
0.305702 0.0680741 -0.0283419 78 10 6
0.305537 0.0682917 -0.028652 77 9 6
0.305229 0.0682201 -0.0285016 78 9 6
0.305852 0.068359 -0.028789 78 11 7
0.305702 0.068535 -0.0290734 79 10 7
0.30554 0.0687383 -0.0293784 81 10 6
0.305382 0.0685019 -0.0289289 79 9 6
0.305225 0.0687173 -0.0292264 82 10 5
0.306242 0.0665371 -0.0258974 75 9 6
0.306516 0.0667547 -0.0260775 77 10 7
0.306796 0.0669956 -0.0262498 79 11 7
0.30601 0.0666969 -0.0263556 76 9 6
0.306316 0.0668817 -0.0264959 77 9 6
0.30659 0.0671182 -0.0266774 78 10 6
0.305821 0.0668803 -0.0267253 75 8 6
0.305633 0.0671094 -0.0270918 74 8 6
0.305411 0.0673986 -0.0274889 74 9 6
0.306122 0.0670555 -0.0268576 77 9 6
0.306426 0.0672501 -0.0269858 78 10 7
0.305935 0.0672657 -0.0272236 75 8 7
0.30624 0.0674361 -0.0273472 77 9 7
0.305741 0.067498 -0.0275693 76 10 7
0.306045 0.0676563 -0.0277113 76 9 7
0.303939 0.0647799 -0.0210832 70 8 6
0.30378 0.0647556 -0.0214547 70 8 6
0.303624 0.0647671 -0.0218255 73 10 7
0.303301 0.0647434 -0.0216877 72 9 5
0.303101 0.0648035 -0.0221353 72 8 5
0.302787 0.0648293 -0.0219711 73 9 5
0.302624 0.0649486 -0.0223062 70 8 4
0.302474 0.0648922 -0.0218022 69 7 4
0.302305 0.0650292 -0.0221336 70 7 3
0.302156 0.064991 -0.0216196 69 7 3
0.301966 0.065175 -0.0219959 68 5 2
0.301837 0.0651287 -0.0214386 68 6 2
0.301677 0.06531 -0.0217609 68 5 2
0.301379 0.0654624 -0.0214974 68 5 2
0.301512 0.0655186 -0.022047 69 5 2
0.301215 0.0656829 -0.0217816 70 6 2
0.301345 0.0657642 -0.0223342 71 6 2
0.301068 0.0658963 -0.0220247 73 6 2
0.301191 0.0660312 -0.0225881 74 6 2
0.301234 0.0654177 -0.0209418 68 5 1
0.301095 0.0653811 -0.020379 70 6 2
0.301259 0.0652083 -0.0200565 69 6 2
0.300964 0.0653515 -0.0198165 69 5 2
0.301426 0.0650573 -0.0197256 70 6 3
0.301127 0.0651812 -0.0194897 69 5 3
0.301583 0.0649339 -0.019383 72 7 4
0.301285 0.0650392 -0.0191443 71 6 4
0.301678 0.0648801 -0.0191678 72 7 4
0.301356 0.0649872 -0.018978 71 6 4
0.301996 0.0648018 -0.0193444 71 7 5
0.302312 0.0647387 -0.0195145 73 9 5
0.30263 0.0646978 -0.0196701 72 8 5
0.302797 0.0647038 -0.0201687 71 8 5
0.303126 0.0646946 -0.0203022 71 8 5
0.302966 0.0646981 -0.0206802 71 8 5
0.303448 0.0647064 -0.0204418 71 8 6
0.303292 0.0646977 -0.0208188 70 8 5
0.303617 0.064728 -0.0209459 70 8 6
0.303458 0.06472 -0.0213203 71 9 5
0.301836 0.064877 -0.019701 71 7 4
0.302151 0.0647899 -0.01987 72 8 5
0.302474 0.0647356 -0.0200373 71 7 5
0.302643 0.0647327 -0.0205348 71 7 4
0.302472 0.0647877 -0.0209396 69 6 5
0.302792 0.0647419 -0.0210973 69 7 4
0.302317 0.0648713 -0.0212864 69 6 4
0.302631 0.0647964 -0.0214579 70 7 5
0.302005 0.0649715 -0.0211046 68 6 4
0.301537 0.0652702 -0.0211979 68 5 2
0.302156 0.0648706 -0.0207527 70 6 4
0.301698 0.0650959 -0.0208748 68 5 3
0.301843 0.0649798 -0.0205687 70 7 3
0.301394 0.0652347 -0.0206291 69 5 2
0.301558 0.0650799 -0.0203027 70 6 3
0.30232 0.0647884 -0.0203994 71 7 4
0.302 0.0648734 -0.0202192 71 8 4
0.301722 0.064949 -0.0199549 71 7 4
0.300833 0.0653266 -0.0192396 70 6 2
0.300987 0.0651757 -0.0189101 71 6 2
0.301148 0.0650375 -0.0185597 72 6 3
0.300694 0.0653225 -0.0186656 71 6 3
0.300735 0.0652627 -0.0184392 71 6 3
0.302944 0.0649029 -0.0224773 70 8 5
0.302776 0.0650248 -0.0228069 69 6 4
0.303135 0.064714 -0.021183 70 8 5
0.302976 0.0647421 -0.0215514 71 8 6
0.30628 0.0712522 -0.0411703 1 0 0
0.305923 0.0714329 -0.0412377 0 0 0
0.305983 0.0712855 -0.0409266 0 0 0
0.305603 0.0715736 -0.0409731 0 0 0
0.305734 0.0713151 -0.0406266 5 0 0
0.305422 0.0714346 -0.0404566 5 0 0
0.305634 0.0711679 -0.0401873 19 7 0
0.305315 0.0712307 -0.039966 21 9 0
0.305741 0.0709434 -0.0398514 33 18 2
0.305442 0.0709633 -0.0396109 35 19 3
0.305886 0.0707169 -0.0395303 47 26 9
0.305569 0.0706782 -0.0392722 57 33 13
0.306047 0.0704392 -0.0392568 67 39 18
0.305773 0.0703429 -0.039032 82 47 21
0.306179 0.0701052 -0.0389866 96 54 26
0.305864 0.0700451 -0.0388189 109 65 32
0.306014 0.0697473 -0.0387037 131 79 43
0.305696 0.0697362 -0.0385432 145 103 58
0.305832 0.069414 -0.0383731 150 116 79
0.305525 0.0694163 -0.0381933 143 114 79
0.305663 0.0691343 -0.0379756 151 127 98
0.305359 0.0691771 -0.0377584 147 131 107
0.305498 0.0689832 -0.0375402 140 134 112
0.305224 0.0690663 -0.0372575 145 135 114
0.305667 0.0688021 -0.0372235 139 135 117
0.305392 0.06886 -0.0369571 146 140 119
0.305823 0.0686738 -0.0368822 149 145 125
0.305513 0.0687593 -0.0367095 153 147 125
0.305977 0.0686026 -0.036547 147 146 127
0.30567 0.0686681 -0.036384 149 144 126
0.306132 0.0685939 -0.0361963 151 150 132
0.305818 0.0686519 -0.0360279 150 146 128
0.305888 0.0686694 -0.0358571 148 146 128
0.305506 0.0687634 -0.0358415 148 141 125
0.305662 0.0688244 -0.0354749 146 138 124
0.305198 0.0689327 -0.0356514 139 135 118
0.305365 0.0690085 -0.0352317 145 137 122
0.304879 0.0691341 -0.0354632 137 130 114
0.305029 0.069208 -0.0350903 139 131 113
0.30456 0.0693823 -0.035293 133 124 108
0.304666 0.0694334 -0.034967 141 128 110
0.304304 0.0696972 -0.0349045 132 120 104
0.304779 0.0695375 -0.0346279 141 129 110
0.304407 0.0697743 -0.0345508 135 119 98
0.304439 0.0698019 -0.0344467 135 118 98
0.304093 0.070094 -0.0342783 138 118 97
0.304585 0.0698921 -0.0340352 139 114 92
0.304206 0.0701256 -0.0339707 138 111 85
0.304372 0.0701494 -0.0336322 136 104 81
0.303928 0.0704142 -0.0337594 138 102 74
0.30411 0.0704633 -0.0333458 134 93 68
0.303689 0.0707031 -0.0335126 135 91 63
0.30422 0.0704733 -0.0331063 134 80 53
0.303936 0.0708516 -0.0327976 115 58 36
0.304458 0.0704979 -0.0324497 105 43 24
0.304043 0.0708572 -0.0324375 107 48 29
0.30418 0.070761 -0.0320356 97 34 18
0.304058 0.0708705 -0.031971 93 31 15
0.303909 0.0709845 -0.0316249 90 24 9
0.304062 0.070742 -0.0313337 79 15 4
0.303807 0.0710742 -0.0325104 106 47 28
0.303455 0.0712746 -0.0329946 115 65 44
0.303781 0.0708871 -0.0330253 117 61 38
0.303475 0.0709767 -0.0333782 128 80 55
0.303519 0.0707037 -0.0338114 136 102 71
0.303749 0.0704061 -0.0341245 139 112 83
0.303307 0.0713375 -0.0331763 123 74 49
0.303222 0.0710855 -0.0336524 132 92 63
0.303403 0.0707876 -0.033861 141 112 79
0.303267 0.0708504 -0.0340404 142 113 78
0.303328 0.0707541 -0.0342451 140 115 84
0.303535 0.0704332 -0.0346869 146 128 104
0.303963 0.0700561 -0.0346321 137 122 102
0.303866 0.0700583 -0.0348994 139 123 102
0.304211 0.0696966 -0.0351459 137 125 108
0.304163 0.0697267 -0.0352949 133 123 107
0.304427 0.0694292 -0.0356081 134 127 111
0.303992 0.069842 -0.0356297 132 124 108
0.304232 0.0696229 -0.0359392 132 126 108
0.303816 0.0700131 -0.0358955 143 134 113
0.304063 0.0698377 -0.0362268 132 126 109
0.303657 0.0702699 -0.0361821 147 137 116
0.303905 0.0700863 -0.0364933 138 132 113
0.303747 0.0703596 -0.0367322 139 132 113
0.303993 0.0702055 -0.0370476 130 126 108
0.303855 0.0705093 -0.037266 122 120 105
0.304106 0.0703474 -0.0375739 109 111 98
0.303964 0.0706387 -0.0377675 106 106 94
0.304226 0.0704888 -0.0379932 110 102 82
0.304146 0.0707038 -0.0381531 105 98 79
0.304498 0.0704971 -0.0382829 112 93 62
0.304353 0.0707937 -0.0384185 91 77 56
0.304651 0.0708023 -0.038647 89 63 39
0.304354 0.0710064 -0.0385796 81 66 48
0.304525 0.071101 -0.0387818 68 50 32
0.304233 0.0712693 -0.038719 61 53 44
0.304525 0.0712906 -0.0389889 54 39 24
0.304347 0.0714737 -0.0390551 43 33 24
0.304685 0.071396 -0.0393382 37 25 13
0.304213 0.0717583 -0.0392514 24 25 22
0.304503 0.0717323 -0.039618 15 17 15
0.304121 0.0720987 -0.039608 6 18 20
0.304452 0.0719613 -0.0398851 5 10 9
0.304334 0.0721928 -0.0400651 1 10 12
0.304648 0.0720154 -0.040233 4 3 2
0.304544 0.0722227 -0.0404202 0 0 2
0.30488 0.0720402 -0.0406242 0 0 0
0.304573 0.0723529 -0.0407013 0 0 0
0.304831 0.0722262 -0.0409825 0 0 0
0.304479 0.0725561 -0.0409953 0 0 0
0.304291 0.0726349 -0.0407172 0 0 0
0.304052 0.0728079 -0.0405461 0 0 1
0.304285 0.0724595 -0.0403784 0 0 2
0.304025 0.0726489 -0.0402283 0 5 7
0.304084 0.0723945 -0.0399772 2 10 11
0.303833 0.0727078 -0.0399867 0 7 8
0.303853 0.0724672 -0.039695 3 13 16
0.303606 0.0728292 -0.0396847 0 13 16
0.303644 0.0725755 -0.039454 4 20 26
0.303477 0.0727725 -0.0393454 3 24 32
0.303524 0.0724998 -0.0391317 12 33 43
0.303285 0.0728866 -0.0390568 6 33 45
0.303287 0.0725988 -0.0388436 18 45 61
0.303091 0.0728091 -0.0386764 19 46 65
0.303153 0.0724489 -0.0385277 35 64 82
0.302882 0.0728355 -0.0383536 43 74 86
0.302963 0.0724398 -0.0382332 48 75 86
0.302771 0.0725349 -0.0379951 74 97 99
0.302886 0.072181 -0.0378448 88 103 101
0.302622 0.072443 -0.0376264 108 117 112
0.302668 0.0722454 -0.0374959 110 118 114
0.302413 0.0724919 -0.0371968 128 130 120
0.302456 0.0723555 -0.0371173 130 131 121
0.302225 0.0725448 -0.0367582 142 141 125
0.302375 0.0721476 -0.036565 143 141 124
0.302193 0.0724032 -0.0364186 144 140 123
0.302403 0.0720074 -0.0364338 150 148 127
0.302162 0.0722475 -0.036016 150 144 124
0.30241 0.0718727 -0.036073 155 149 124
0.302165 0.0721963 -0.0358374 143 132 110
0.30246 0.0717272 -0.0356367 158 140 115
0.302237 0.0720625 -0.0354248 142 131 108
0.302508 0.0715888 -0.0352208 151 133 108
0.302304 0.0719463 -0.0350355 141 124 101
0.302613 0.0714797 -0.0348278 145 125 99
0.302452 0.0718475 -0.0346332 138 118 92
0.302592 0.0717205 -0.0342734 136 113 84
0.302092 0.0724254 -0.0352325 142 127 105
0.301995 0.0725182 -0.0355455 143 128 108
0.301981 0.0726459 -0.0359504 145 134 113
0.303792 0.0730115 -0.0403032 0 0 2
0.303699 0.0733158 -0.0405649 0 0 0
0.303567 0.0734246 -0.0402989 0 0 1
0.303542 0.073724 -0.0405991 0 0 0
0.303449 0.0737776 -0.0401827 0 1 1
0.303451 0.0740358 -0.0403736 0 0 0
0.303359 0.0739964 -0.0399687 0 3 4
0.303388 0.0742876 -0.0401452 0 0 0
0.303323 0.0741394 -0.039801 0 2 2
0.303284 0.0745152 -0.0397372 0 0 0
0.303207 0.074084 -0.0394709 0 8 12
0.303122 0.0743638 -0.0392806 0 5 10
0.303063 0.0739738 -0.0390939 0 15 22
0.302981 0.0742127 -0.0389302 1 11 22
0.302864 0.0738983 -0.038689 5 27 42
0.302812 0.0742919 -0.0386177 2 18 34
0.302663 0.0741048 -0.0383111 14 40 65
0.302636 0.0744731 -0.0382408 11 33 54
0.302492 0.074346 -0.0380062 23 49 70
0.30247 0.0747172 -0.0378639 12 34 56
0.302377 0.0743347 -0.0378008 26 55 73
0.30226 0.07453 -0.0375543 30 57 73
0.302193 0.0742559 -0.0375091 50 75 81
0.302058 0.0745152 -0.0372023 59 83 86
0.301998 0.0741506 -0.0371124 87 100 95
0.301996 0.0745124 -0.0370474 63 87 89
0.301853 0.0743951 -0.0366675 97 107 100
0.301886 0.0747749 -0.0366951 83 96 92
0.301798 0.0746642 -0.0362985 107 111 102
0.301814 0.0750073 -0.0362142 101 107 99
0.301785 0.0748824 -0.035824 116 115 101
0.3018 0.0752257 -0.0357272 117 115 100
0.301778 0.075108 -0.0353411 122 116 99
0.301844 0.0755581 -0.0356238 107 107 95
0.301825 0.0754404 -0.0352314 121 116 98
0.301892 0.075889 -0.0354995 110 109 97
0.301861 0.0757765 -0.0351127 118 111 95
0.301966 0.0762256 -0.035376 102 103 93
0.301811 0.0753296 -0.0348618 132 118 98
0.301776 0.0749905 -0.0349643 135 121 98
0.301777 0.0746457 -0.0350482 138 122 98
0.301772 0.0743073 -0.0351456 141 126 101
0.301793 0.0739592 -0.0352407 144 127 102
0.301813 0.0735969 -0.0353098 142 124 101
0.301862 0.0732449 -0.0353883 143 127 104
0.301938 0.0728994 -0.0354668 141 125 104
0.301871 0.0730317 -0.035885 140 130 110
0.302008 0.072767 -0.0363451 142 136 116
0.301886 0.0731424 -0.0362845 136 130 111
0.302052 0.0728954 -0.036741 141 139 123
0.30196 0.0733011 -0.0367703 125 127 113
0.302049 0.0732732 -0.0370045 124 129 116
0.302082 0.0734224 -0.0371848 103 117 110
0.302211 0.0732497 -0.0374419 95 114 109
0.302237 0.0735484 -0.0375741 75 96 98
0.302332 0.073614 -0.0377688 70 91 93
0.302319 0.0738692 -0.0377508 55 83 88
0.302481 0.0738647 -0.0380317 41 74 87
0.302491 0.0740256 -0.0380301 36 71 85
0.302667 0.0737173 -0.0383126 33 67 83
0.302118 0.0729057 -0.036925 141 138 122
0.302274 0.072876 -0.0373374 125 129 118
0.302541 0.0726166 -0.0376641 96 112 108
0.302439 0.073057 -0.0377583 93 110 107
0.302671 0.0728344 -0.0380182 70 95 100
0.302626 0.0731238 -0.0380889 72 97 101
0.302781 0.0732882 -0.0383694 30 61 81
0.302986 0.0731647 -0.0386484 12 39 54
0.302875 0.0735099 -0.0386167 13 39 59
0.303049 0.0734487 -0.0389205 3 27 40
0.30301 0.0736814 -0.0389145 3 26 40
0.303155 0.0736941 -0.0392578 0 20 28
0.302542 0.0735057 -0.0380884 68 91 98
0.302415 0.0732442 -0.0377884 90 107 104
0.30313 0.0730242 -0.0388318 8 34 49
0.303155 0.0732054 -0.0389631 5 30 42
0.303258 0.0731908 -0.039236 0 23 32
0.303184 0.0734193 -0.0391681 0 22 31
0.303293 0.0734193 -0.0394621 0 19 25
0.303287 0.0737968 -0.0396224 0 11 14
0.303355 0.0737763 -0.0398619 0 8 10
0.303347 0.0735543 -0.0397005 0 12 15
0.303442 0.0734986 -0.0399703 0 6 8
0.30345 0.0732222 -0.0397472 0 12 15
0.303571 0.0732141 -0.0400675 0 5 7
0.303645 0.073002 -0.0399637 0 7 9
0.303397 0.073047 -0.0394458 0 18 24
0.301832 0.0733855 -0.0357897 138 131 111
0.301816 0.0734989 -0.0361954 135 129 113
0.301867 0.0736147 -0.0365779 123 122 110
0.301772 0.0738557 -0.0361093 125 123 108
0.301823 0.0739756 -0.0364918 113 115 105
0.30177 0.074203 -0.03601 122 120 105
0.301805 0.0743196 -0.0363904 109 114 103
0.301754 0.0745462 -0.0359195 120 116 102
0.301871 0.0740313 -0.036707 108 115 105
0.301901 0.0736712 -0.0367574 111 118 106
0.302028 0.0737886 -0.0371634 101 113 104
0.30219 0.0739176 -0.0375389 68 86 87
0.302359 0.074034 -0.0378263 39 70 84
0.301795 0.0737271 -0.0357057 138 130 109
0.301776 0.0740777 -0.0356184 137 127 106
0.30177 0.0744258 -0.0355284 134 126 105
0.301764 0.0747657 -0.0354348 131 124 103
0.303513 0.0740984 -0.0408317 0 0 0
0.303518 0.0743312 -0.0411105 0 0 0
0.303493 0.0744997 -0.0409217 0 0 0
0.303472 0.0748447 -0.040966 0 0 0
0.303442 0.0747227 -0.0405451 0 0 0
0.303446 0.0750886 -0.0405621 0 0 0
0.303393 0.0748989 -0.0401031 0 0 0
0.303446 0.0753498 -0.0402375 0 0 0
0.30339 0.0752045 -0.0399103 0 0 0
0.303412 0.0755641 -0.0398645 0 0 0
0.303308 0.0752866 -0.0396162 0 0 0
0.30328 0.0755814 -0.0394067 0 0 0
0.303177 0.0751397 -0.0392942 0 0 0
0.303108 0.0753699 -0.0390275 0 0 1
0.302971 0.0749723 -0.0388694 0 3 10
0.302979 0.0752727 -0.0387666 0 2 5
0.302846 0.0752284 -0.0384983 0 9 19
0.302985 0.0755337 -0.0386674 0 3 5
0.302824 0.0755289 -0.0382774 3 10 17
0.303015 0.0758539 -0.0385431 2 4 6
0.30286 0.0758656 -0.0380955 8 16 21
0.303085 0.07621 -0.0383945 4 6 8
0.302934 0.0762122 -0.0379093 18 21 23
0.303241 0.0766007 -0.0381603 16 17 15
0.3031 0.0765311 -0.0376237 24 28 30
0.303394 0.0769327 -0.0376299 24 21 17
0.303249 0.0768894 -0.0371628 37 36 36
0.303532 0.077355 -0.0370986 35 35 34
0.30329 0.0773046 -0.036803 51 51 47
0.303369 0.0776131 -0.0365602 50 54 57
0.303052 0.0774773 -0.036392 61 68 66
0.303661 0.0777047 -0.0367062 43 45 45
0.30382 0.0775065 -0.0371274 44 36 31
0.303701 0.07726 -0.0375978 38 23 17
0.303977 0.0775661 -0.0374487 48 33 22
0.303821 0.0773707 -0.0380803 30 19 11
0.303984 0.0775085 -0.0379524 24 14 8
0.304117 0.0776632 -0.0384442 12 6 2
0.304145 0.0776439 -0.03808 22 12 6
0.304343 0.0778562 -0.0382079 17 9 1
0.304293 0.0777894 -0.0378397 37 24 10
0.304497 0.0779755 -0.0379669 24 13 3
0.304478 0.077938 -0.0375927 43 28 13
0.304708 0.0781059 -0.037803 28 15 4
0.304677 0.0780783 -0.0373238 54 35 20
0.30499 0.0782358 -0.0375934 40 25 12
0.304917 0.0782132 -0.0371091 69 47 26
0.305213 0.0783078 -0.0372968 47 30 15
0.305256 0.0783495 -0.0370013 70 48 28
0.305574 0.0784467 -0.037196 40 25 13
0.305819 0.0785184 -0.0369546 42 27 16
0.305851 0.0785629 -0.0366947 57 39 25
0.306176 0.0785878 -0.0368429 41 29 20
0.304443 0.0779256 -0.0371837 68 45 27
0.304245 0.0777653 -0.0374345 54 37 23
0.304105 0.0776 -0.0377268 43 28 17
0.303515 0.0770251 -0.0380928 22 17 10
0.30344 0.0768542 -0.0385846 9 8 5
0.30331 0.076471 -0.0387571 2 3 2
0.303492 0.076776 -0.0390249 3 4 3
0.303441 0.076525 -0.0391256 1 2 1
0.303583 0.076648 -0.0394594 0 0 0
0.3034 0.0762596 -0.0392721 0 0 0
0.303541 0.0763724 -0.0396673 0 0 0
0.303454 0.0759753 -0.0397337 0 0 0
0.303593 0.0763443 -0.0399822 0 0 0
0.303568 0.0761618 -0.0401814 0 0 0
0.303704 0.0765617 -0.0403574 0 0 0
0.303624 0.0762136 -0.0405996 0 0 0
0.30376 0.0766573 -0.0407934 0 0 0
0.303692 0.0764216 -0.0409736 0 0 0
0.303785 0.0767491 -0.0411938 0 0 0
0.303688 0.0764332 -0.0413252 0 0 0
0.303769 0.0767562 -0.0415498 0 0 0
0.303695 0.0764936 -0.0417533 0 0 0
0.303828 0.0769803 -0.0419214 0 0 0
0.303712 0.0766684 -0.0421969 0 0 0
0.303806 0.0770312 -0.0423528 0 0 0
0.30371 0.0768234 -0.0426288 0 0 0
0.303727 0.076994 -0.0429936 0 0 0
0.30389 0.0770926 -0.041485 0 0 0
0.303898 0.0770629 -0.0410638 0 0 0
0.304029 0.0773561 -0.0408851 0 0 0
0.303865 0.0769683 -0.0406467 0 0 0
0.304008 0.0772979 -0.0404487 0 0 0
0.303819 0.0769237 -0.0402872 0 0 0
0.303874 0.0771331 -0.040023 0 0 0
0.303696 0.0767155 -0.0399209 0 0 0
0.30376 0.0770086 -0.0396565 0 0 0
0.303659 0.076959 -0.0392989 1 1 0
0.303649 0.0771502 -0.0389444 9 8 4
0.303626 0.0771892 -0.0384836 20 15 9
0.303215 0.0760893 -0.03887 0 1 1
0.303944 0.0777834 -0.0368843 57 49 41
0.3042 0.0778413 -0.0370152 67 49 36
0.303162 0.075727 -0.0389729 0 0 0
0.303313 0.0759266 -0.0392764 0 0 0
0.303505 0.0758055 -0.0402686 0 0 0
0.303492 0.0755122 -0.0406463 0 0 0
0.30348 0.0752485 -0.0409924 0 0 0
0.303485 0.0749824 -0.0414004 0 0 0
0.303554 0.0758586 -0.0407179 0 0 0
0.303615 0.0761081 -0.0410228 0 0 0
0.303545 0.0757019 -0.0411054 0 0 0
0.303619 0.076102 -0.0414094 0 0 0
0.303553 0.0757788 -0.0415332 0 0 0
0.303615 0.0761131 -0.0417455 0 0 0
0.303563 0.0758773 -0.0419402 0 0 0
0.303623 0.0762707 -0.0420942 0 0 0
0.303549 0.0759822 -0.0423452 0 0 0
0.303613 0.0764159 -0.0425237 0 0 0
0.303518 0.0761266 -0.0427797 0 0 0
0.303594 0.0766058 -0.0429991 0 0 0
0.303438 0.0762509 -0.0432527 0 0 0
0.303524 0.0766624 -0.0434075 0 0 0
0.303431 0.0764897 -0.0436318 0 0 0
0.303381 0.0765817 -0.0440181 0 0 0
0.303299 0.0767281 -0.0444336 0 0 0
0.303212 0.0768621 -0.0448419 0 0 0
0.303107 0.0769573 -0.0452338 0 0 0
0.303001 0.0770605 -0.0456239 0 0 0
0.302891 0.0771793 -0.0460246 0 0 0
0.30278 0.077318 -0.046412 0 0 0
0.303503 0.0753787 -0.0414096 0 0 0
0.303499 0.0751671 -0.0418662 0 0 0
0.303522 0.0755372 -0.0417558 0 0 0
0.303505 0.0755731 -0.0421314 0 0 0
0.30348 0.0752441 -0.0423566 0 0 0
0.303468 0.0756534 -0.0426066 0 0 0
0.303447 0.0752746 -0.0427472 0 0 0
0.303412 0.0754405 -0.0430607 0 0 0
0.303417 0.0758301 -0.0430467 0 0 0
0.303352 0.0755801 -0.0434529 0 0 0
0.303348 0.0759186 -0.0434506 0 0 0
0.303291 0.0757356 -0.0438629 0 0 0
0.303467 0.0743722 -0.0405406 0 0 0
0.303392 0.0745657 -0.0401906 0 0 0
0.303283 0.0749358 -0.0396536 0 0 0
0.303135 0.074745 -0.0392979 0 2 3
0.302968 0.0745593 -0.0389296 1 6 14
0.302794 0.074666 -0.0385638 5 16 32
0.302759 0.0749615 -0.0384575 1 11 23
0.302648 0.0747817 -0.0382095 10 25 44
0.302637 0.0751218 -0.0380963 5 20 35
0.302475 0.0750967 -0.0376902 12 26 42
0.302289 0.074866 -0.0374483 34 58 72
0.302296 0.0752308 -0.0372843 26 40 52
0.302064 0.0748098 -0.0371216 52 75 80
0.302061 0.0751739 -0.036961 44 62 67
0.301896 0.074954 -0.0366814 80 92 88
0.301902 0.0753901 -0.0365068 80 87 83
0.301825 0.0752027 -0.0360905 101 104 98
0.301868 0.0755563 -0.035849 111 110 98
0.301903 0.0758861 -0.0355899 109 109 96
0.302088 0.0746333 -0.0372322 57 81 84
0.302652 0.0754759 -0.0378878 7 16 25
0.302716 0.0757919 -0.0376575 19 27 33
0.302848 0.0761101 -0.037493 26 28 28
0.302919 0.0763958 -0.0372492 40 38 34
0.302923 0.076769 -0.036966 27 31 34
0.303005 0.077126 -0.036719 52 57 57
0.302698 0.0767247 -0.0367023 41 45 50
0.302725 0.077091 -0.0364736 65 72 70
0.302412 0.0766714 -0.0364676 54 66 70
0.302468 0.07698 -0.0362499 75 81 77
0.302225 0.0766681 -0.0361068 74 82 80
0.302272 0.0768644 -0.0359354 86 91 86
0.302063 0.0764651 -0.0357301 96 98 89
0.302777 0.0773937 -0.0361849 71 78 75
0.302522 0.075406 -0.0375664 23 34 43
0.302495 0.0756016 -0.0373678 23 33 43
0.302606 0.0759576 -0.037209 29 31 34
0.302325 0.0757861 -0.0369959 38 39 41
0.302366 0.0761249 -0.0368043 34 49 59
0.302097 0.0758705 -0.0366294 51 61 64
0.302154 0.0762141 -0.0364114 71 78 76
0.301934 0.0757254 -0.0362859 76 87 85
0.301997 0.0760617 -0.0360404 92 95 87
0.3022 0.0765518 -0.0361788 69 79 78
0.302396 0.0763553 -0.036678 38 56 65
0.302683 0.076344 -0.0369256 34 36 38
0.302076 0.0755319 -0.0368165 46 62 65
0.302285 0.0754486 -0.0371365 32 43 52
0.303797 0.072323 -0.0393998 9 25 30
0.305095 0.0720791 -0.041204 0 0 0
0.305231 0.0719042 -0.0409455 0 0 0
0.305355 0.0719275 -0.0413384 0 0 0
0.305524 0.0717502 -0.0412257 0 0 0
0.3056 0.0717899 -0.041548 0 0 0
0.305235 0.0717385 -0.0406364 0 0 0
0.30493 0.0718367 -0.0403591 2 0 0
0.305107 0.0715647 -0.040198 7 1 0
0.30476 0.0717516 -0.0399971 13 10 5
0.304904 0.0714699 -0.0397838 25 17 4
0.304697 0.0692007 -0.0358657 141 134 115
0.305145 0.0689278 -0.0357769 141 135 119
0.304975 0.0690079 -0.0361392 144 137 118
0.305346 0.068787 -0.0362037 147 140 123
0.305265 0.06884 -0.0363939 147 142 123
0.30376 0.0701004 -0.0351502 142 127 108
0.303573 0.0702516 -0.0354652 149 135 113
0.303395 0.0704667 -0.0357833 154 144 118
0.303346 0.0705431 -0.0358726 154 143 118
0.303502 0.0705216 -0.0364111 147 138 116
0.303189 0.0708152 -0.036138 159 148 124
0.303334 0.0708129 -0.0366363 152 144 124
0.303104 0.070986 -0.0362924 164 153 127
0.303184 0.0711092 -0.0368284 147 146 124
0.302941 0.0712832 -0.0365068 157 153 130
0.303033 0.0714112 -0.0370531 133 139 125
0.302771 0.0715902 -0.0367015 144 148 134
0.302884 0.0717138 -0.0372593 116 126 119
0.302632 0.071902 -0.0368911 140 142 127
0.302802 0.0719168 -0.0373766 115 125 119
0.302579 0.0720386 -0.0369702 140 142 127
0.302523 0.0717741 -0.0363436 152 150 128
0.302702 0.0714812 -0.0361311 165 155 128
0.302776 0.071386 -0.0360473 166 152 126
0.302899 0.0711138 -0.0357917 162 147 121
0.30298 0.0709623 -0.0356154 163 147 121
0.303148 0.0707405 -0.0353285 156 142 118
0.303018 0.0718309 -0.0377334 94 110 109
0.303139 0.0715502 -0.0375761 111 122 113
0.303327 0.0711876 -0.0373468 133 134 119
0.303432 0.0709465 -0.0371402 135 136 121
0.303591 0.0706512 -0.0369486 142 137 118
0.303678 0.0708126 -0.0374885 123 121 107
0.303824 0.0709418 -0.0379724 97 100 89
0.304049 0.0710427 -0.0383648 86 84 71
0.303933 0.0713523 -0.0385423 70 70 64
0.304053 0.0715629 -0.0388692 46 42 38
0.303744 0.0716088 -0.0386 52 58 59
0.303882 0.0718149 -0.0389409 31 36 38
0.303608 0.0719482 -0.0387207 36 48 55
0.303808 0.0721067 -0.0391391 17 29 34
0.303458 0.0722808 -0.038817 24 43 54
0.303333 0.0720442 -0.0384529 48 67 78
0.303095 0.0721087 -0.0381668 67 89 94
0.303247 0.0717541 -0.0380493 88 104 101
0.303489 0.071678 -0.0383283 64 76 76
0.303401 0.071414 -0.0378805 107 114 103
0.303685 0.0713073 -0.0382098 82 92 86
0.303561 0.0711204 -0.0377494 115 119 106
0.303332 0.0705565 -0.0350178 152 136 111
0.303018 0.0714891 -0.0335341 130 88 59
0.302951 0.0712426 -0.0340403 135 106 72
0.303127 0.0709304 -0.0342421 147 123 94
0.303131 0.070852 -0.0345916 145 123 93
0.302794 0.0716018 -0.0338999 127 99 69
0.30275 0.0713527 -0.0344094 141 121 92
0.302974 0.0710152 -0.0346523 148 127 100
0.303226 0.0706856 -0.0348454 149 127 101
0.30311 0.0708065 -0.0351942 152 136 112
0.302886 0.0710884 -0.0350141 155 138 111
0.302752 0.0712495 -0.0353635 159 144 117
0.302721 0.0714013 -0.0357814 162 147 120
0.302671 0.0715191 -0.0361097 166 156 129
0.305068 0.0712184 -0.0396007 34 20 6
0.305111 0.0710008 -0.0392848 47 29 11
0.304784 0.0710726 -0.0390142 58 39 20
0.304972 0.070758 -0.0388814 74 50 24
0.304818 0.0704563 -0.0385182 109 79 46
0.304651 0.0701448 -0.0381318 117 101 77
0.304369 0.0702186 -0.0378755 114 107 88
0.304516 0.0699171 -0.0376726 120 113 95
0.304252 0.0700629 -0.0373585 115 113 99
0.30441 0.0697808 -0.0371522 125 121 104
0.304159 0.0699188 -0.0368272 129 125 107
0.30457 0.0695312 -0.0368658 133 129 113
0.304312 0.0696829 -0.0365371 131 127 110
0.304723 0.0692903 -0.0365899 142 135 116
0.304473 0.069455 -0.0362639 134 130 111
0.304902 0.0690739 -0.0362712 146 138 119
0.304637 0.069246 -0.0359714 142 134 116
0.30509 0.0690053 -0.0367224 145 140 121
0.30493 0.0692374 -0.0370093 141 136 117
0.305062 0.06931 -0.0375315 143 129 106
0.304767 0.0694734 -0.0372852 139 132 112
0.304935 0.0695288 -0.0377437 142 124 100
0.304674 0.0696503 -0.0374691 125 119 101
0.304789 0.0698222 -0.0379439 131 112 88
0.305218 0.0694515 -0.0379815 142 122 95
0.305393 0.06975 -0.0383704 141 105 60
0.305567 0.0700772 -0.0387141 128 80 39
0.305086 0.069767 -0.0381741 144 115 82
0.30526 0.070088 -0.0385483 127 84 46
0.305433 0.0704076 -0.0388939 98 58 28
0.304959 0.0701008 -0.0383554 130 99 65
0.305118 0.07042 -0.0387122 100 65 35
0.30526 0.0706937 -0.0390466 72 43 19
0.306383 0.0711846 -0.0409412 2 0 0
0.306165 0.0711614 -0.0405874 6 0 0
0.305938 0.0711241 -0.0403427 19 8 0
0.306062 0.0709638 -0.0400258 31 16 1
0.306185 0.0707677 -0.0397099 42 24 7
0.306336 0.0705189 -0.0394386 51 31 12
0.306489 0.0702539 -0.0391962 68 39 17
0.306591 0.0699845 -0.0389955 93 56 30
0.30636 0.0697436 -0.038801 119 74 37
0.306784 0.0697123 -0.0388221 88 64 40
0.306455 0.0694569 -0.0386281 120 88 52
0.306657 0.0693555 -0.038536 105 86 56
0.306329 0.0691547 -0.0382929 130 109 79
0.306685 0.0691015 -0.0382285 105 97 76
0.306478 0.0689125 -0.0379481 114 107 88
0.306813 0.0689394 -0.0379367 118 115 99
0.306703 0.0688257 -0.0377225 126 119 102
0.307073 0.0688666 -0.0376822 115 120 106
0.306806 0.0687421 -0.037413 129 128 111
0.307074 0.0687147 -0.0371757 142 138 121
0.306646 0.0686651 -0.0371913 143 139 121
0.306808 0.0686321 -0.0369047 148 145 128
0.306607 0.0686065 -0.0368518 155 152 134
0.306566 0.0685972 -0.0366565 155 156 135
0.306301 0.0685909 -0.0366975 142 141 125
0.306459 0.068573 -0.0363408 156 156 135
0.306138 0.0686479 -0.0370501 146 143 121
0.306457 0.0686736 -0.0372106 144 139 121
0.305995 0.0687475 -0.0373975 134 128 109
0.30631 0.0687693 -0.0375658 139 134 114
0.306597 0.0687821 -0.0376092 123 118 103
0.306145 0.0694205 -0.0385285 131 96 58
0.305977 0.0691283 -0.0381438 149 126 95
0.305814 0.0689118 -0.0377054 133 122 101
0.306143 0.0689102 -0.0378627 138 127 105
0.306525 0.0710994 -0.0406101 6 1 0
0.306338 0.0709986 -0.0402329 17 7 0
0.306657 0.0710054 -0.0402797 10 4 0
0.306542 0.0708522 -0.0398838 27 16 2
0.303864 0.0733846 -0.0415961 0 0 0
0.304024 0.0731953 -0.0418592 0 0 0
0.304336 0.0728026 -0.0418026 0 0 0
0.304169 0.073015 -0.0421332 0 0 0
0.304481 0.072684 -0.0420783 0 0 0
0.304328 0.0728264 -0.0423814 0 0 0
0.304695 0.072503 -0.0423095 0 0 0
0.304464 0.0726551 -0.0426098 0 0 0
0.304704 0.0725195 -0.0428289 0 0 0
0.304318 0.0728048 -0.0429035 0 0 0
0.304475 0.0726701 -0.0431411 0 0 0
0.304145 0.072998 -0.0432115 0 0 0
0.304321 0.0728092 -0.0434473 0 0 0
0.303992 0.0732327 -0.0435791 0 0 0
0.304134 0.0728975 -0.0437463 0 0 0
0.303971 0.0731175 -0.0440545 0 0 0
0.304243 0.0726903 -0.0439897 0 0 0
0.304032 0.0728174 -0.0442844 0 0 0
0.304291 0.0725395 -0.0443584 0 0 0
0.30409 0.0726414 -0.0445401 0 0 0
0.303921 0.0727417 -0.0448396 0 0 0
0.304466 0.0724508 -0.0442032 0 0 0
0.304644 0.0724053 -0.0439212 0 0 0
0.304505 0.0726064 -0.0436684 0 0 0
0.304899 0.0723385 -0.0436107 0 0 0
0.304741 0.0725109 -0.0433127 0 0 0
0.305095 0.0722565 -0.0432958 0 0 0
0.305026 0.072344 -0.0429796 0 0 0
0.305349 0.0721158 -0.0430013 0 0 0
0.305196 0.0722049 -0.0426925 0 0 0
0.305386 0.07206 -0.0425585 0 0 0
0.305182 0.0721408 -0.0422926 0 0 0
0.304949 0.072339 -0.0425186 0 0 0
0.304929 0.0722972 -0.0420343 0 0 0
0.304688 0.0725148 -0.0418357 0 0 0
0.30378 0.073642 -0.0418883 0 0 0
0.303899 0.0734682 -0.042178 0 0 0
0.304019 0.0732301 -0.042434 0 0 0
0.30415 0.0730028 -0.042668 0 0 0
0.302115 0.0751404 -0.047257 0 0 0
0.302298 0.0751413 -0.0469331 0 0 0
0.302468 0.0751301 -0.0465857 0 0 0
0.302666 0.0751253 -0.0462383 0 0 0
0.304729 0.0719678 -0.0450323 0 0 0
0.304936 0.0717225 -0.0452111 0 0 0
0.305267 0.0716429 -0.0450202 0 0 0
0.305163 0.0715589 -0.0453745 0 0 0
0.305512 0.0715243 -0.0452441 0 0 0
0.305283 0.0714773 -0.0455376 0 0 0
0.305782 0.0714547 -0.0455201 0 0 0
0.305583 0.0713612 -0.0457763 0 0 0
0.30606 0.071431 -0.0458008 0 0 0
0.305848 0.071333 -0.0460609 0 0 0
0.306324 0.0714794 -0.0460581 0 0 0
0.306123 0.0713938 -0.0463468 0 0 0
0.306576 0.0715989 -0.046323 0 0 0
0.306396 0.0714985 -0.0466228 0 0 0
0.306807 0.071802 -0.0465777 0 0 0
0.306586 0.0716035 -0.0468715 0 0 0
0.306714 0.0717233 -0.0469302 0 0 0
0.30643 0.0715088 -0.0471668 0 0 0
0.306483 0.0715368 -0.0473474 0 0 0
0.306242 0.0713963 -0.0474727 0 0 0
0.306339 0.0714803 -0.0477412 0 0 0
0.306049 0.0713131 -0.0477625 0 0 0
0.306253 0.0714414 -0.0480175 0 0 0
0.305867 0.0712127 -0.0480485 0 0 0
0.306102 0.071336 -0.0483142 0 0 0
0.305692 0.0710931 -0.0483409 0 0 0
0.305931 0.0712184 -0.0486131 0 0 0
0.305497 0.0709764 -0.0486333 0 0 0
0.305749 0.0711127 -0.0488986 0 0 0
0.305307 0.0708686 -0.0489218 0 0 0
0.305564 0.070995 -0.0491929 0 0 0
0.305135 0.0707389 -0.0492135 0 0 0
0.305392 0.0708634 -0.0494934 0 0 0
0.30497 0.0705983 -0.0495409 0 0 0
0.305215 0.070711 -0.0498039 0 0 0
0.30478 0.0704235 -0.0498323 0 0 0
0.305059 0.0705225 -0.0501196 0 0 0
0.304595 0.0702214 -0.0501301 0 0 0
0.304939 0.0703308 -0.0504439 0 0 0
0.304637 0.0701161 -0.0506381 0 0 0
0.304767 0.0701715 -0.0507677 0 0 0
0.304457 0.0699093 -0.0509404 0 0 0
0.304586 0.0699674 -0.0510768 0 0 0
0.304265 0.0697188 -0.0512209 0 0 0
0.304502 0.0698683 -0.0514543 0 0 0
0.30426 0.0696653 -0.0516822 0 0 0
0.304501 0.0698538 -0.0519294 0 0 0
0.30408 0.0695482 -0.0519822 0 0 0
0.304325 0.0697038 -0.052237 0 0 0
0.303895 0.0694017 -0.0522729 0 0 0
0.304132 0.0695833 -0.0525235 0 0 0
0.303701 0.0692895 -0.0525633 0 0 0
0.303952 0.0694496 -0.0528236 0 0 0
0.303507 0.0691807 -0.05285 0 0 0
0.304153 0.0697276 -0.0530422 0 0 0
0.304364 0.0698238 -0.0527655 0 0 0
0.304552 0.0699327 -0.0524753 0 0 0
0.304727 0.0700817 -0.0521707 0 0 0
0.304677 0.0700177 -0.0516318 0 0 0
0.304887 0.0702537 -0.0518494 0 0 0
0.304852 0.0701686 -0.0513314 0 0 0
0.305067 0.0704089 -0.0515531 0 0 0
0.305033 0.0703079 -0.0510252 0 0 0
0.305247 0.0705241 -0.0512537 0 0 0
0.30541 0.0706495 -0.0509691 0 0 0
0.305335 0.0706331 -0.0513555 0 0 0
0.305574 0.070849 -0.0511065 0 0 0
0.305493 0.0708804 -0.0515109 0 0 0
0.305673 0.0710038 -0.051198 0 0 0
0.305805 0.071296 -0.0513944 0 0 0
0.305973 0.0714023 -0.0510724 0 0 0
0.306111 0.0717489 -0.0512521 0 0 0
0.306258 0.0718208 -0.0509262 0 0 0
0.306396 0.0722024 -0.0510694 0 0 0
0.30649 0.0721663 -0.0507757 0 0 0
0.306605 0.0723554 -0.0506899 0 0 0
0.306437 0.0719195 -0.0506091 0 0 0
0.306674 0.0722169 -0.0502992 0 0 0
0.306541 0.0719528 -0.05029 0 0 0
0.30668 0.0720656 -0.0499687 0 0 0
0.306425 0.0717086 -0.0500953 0 0 0
0.30657 0.0718254 -0.0497639 0 0 0
0.306315 0.0715233 -0.0498903 0 0 0
0.306367 0.071569 -0.0495521 0 0 0
0.306159 0.0713425 -0.0498459 0 0 0
0.306048 0.0712507 -0.0496842 0 0 0
0.305892 0.0711012 -0.0500201 0 0 0
0.305656 0.070986 -0.0497699 0 0 0
0.305493 0.0708154 -0.0500866 0 0 0
0.305816 0.0711164 -0.0494574 0 0 0
0.305947 0.0712099 -0.0491587 0 0 0
0.306161 0.0713634 -0.0489239 0 0 0
0.30629 0.0714698 -0.0486479 0 0 0
0.306419 0.0715436 -0.0482393 0 0 0
0.306172 0.0713643 -0.0493137 0 0 0
0.306506 0.0717077 -0.0491387 0 0 0
0.306126 0.0715042 -0.0507444 0 0 0
0.305822 0.071099 -0.0508788 0 0 0
0.305314 0.0707631 -0.0518279 0 0 0
0.305632 0.0711911 -0.0517192 0 0 0
0.305948 0.0716652 -0.0515809 0 0 0
0.306233 0.0721028 -0.0514319 0 0 0
0.306456 0.0725142 -0.0512167 0 0 0
0.306642 0.0727874 -0.0510051 0 0 0
0.306424 0.0726047 -0.051433 0 0 0
0.306525 0.0729223 -0.0513905 0 0 0
0.3063 0.0727257 -0.0518081 0 0 0
0.306408 0.0730575 -0.0517247 0 0 0
0.306194 0.0731752 -0.0520557 0 0 0
0.30637 0.0734421 -0.051755 0 0 0
0.30614 0.0735538 -0.0520601 0 0 0
0.306116 0.0738878 -0.0519265 0 0 0
0.305851 0.0736682 -0.0523312 0 0 0
0.305816 0.0740041 -0.0521599 0 0 0
0.305531 0.0738003 -0.0525578 0 0 0
0.306736 0.0726758 -0.0506336 0 0 0
0.306831 0.0725728 -0.0502687 0 0 0
0.306868 0.0729796 -0.0505606 0 0 0
0.306981 0.0729146 -0.0501742 0 0 0
0.306995 0.0733409 -0.0504734 0 0 0
0.307069 0.0732209 -0.0500935 0 0 0
0.307156 0.0735368 -0.0499907 0 0 0
0.307133 0.0731005 -0.049719 0 0 0
0.307249 0.0734294 -0.049619 0 0 0
0.307322 0.0732938 -0.0492649 0 0 0
0.307434 0.0736376 -0.0491902 0 0 0
0.307497 0.0734944 -0.0488202 0 0 0
0.307613 0.0738424 -0.0487525 0 0 0
0.307582 0.0733809 -0.0484395 0 0 0
0.307703 0.0737071 -0.0483317 0 0 0
0.307648 0.0732243 -0.0480231 0 0 0
0.307784 0.0735623 -0.0478825 0 0 0
0.307693 0.0731155 -0.0475634 0 0 0
