ply
format ascii 1.0
element vertex 1730
property float x
property float y
property float z
end_header
0.310014 0.163401 0.0804564
0.310562 0.163313 0.08045
0.311159 0.163198 0.0805496
0.311707 0.16311 0.0805432
0.312255 0.163023 0.0805369
0.312802 0.162935 0.0805305
0.31335 0.162847 0.0805242
0.313898 0.162759 0.0805179
0.314346 0.162725 0.0802995
0.314844 0.162664 0.080187
0.315293 0.16263 0.0799686
0.315692 0.162623 0.0796442
0.316041 0.162643 0.0792137
0.316341 0.16269 0.0786773
0.31674 0.162684 0.0783529
0.317238 0.162623 0.0782405
0.317736 0.162562 0.078128
0.318234 0.162501 0.0780158
0.318732 0.16244 0.0779033
0.31923 0.162379 0.0777909
0.319728 0.162318 0.0776786
0.320226 0.162257 0.0775662
0.320675 0.162223 0.0773478
0.321123 0.16219 0.0771293
0.321572 0.162156 0.0769109
0.32202 0.162122 0.0766926
0.322469 0.162088 0.0764741
0.322917 0.162054 0.0762558
0.323316 0.162047 0.0759314
0.323765 0.162013 0.0757129
0.324163 0.162006 0.0753885
0.324513 0.162026 0.0749581
0.324862 0.162046 0.0745276
0.325311 0.162012 0.0743092
0.325809 0.161951 0.0741968
0.326307 0.161891 0.0740845
0.326805 0.16183 0.073972
0.327303 0.161769 0.0738596
0.327801 0.161708 0.0737473
0.32825 0.161674 0.0735289
0.328698 0.16164 0.0733105
0.329147 0.161606 0.0730921
0.329595 0.161572 0.0728737
0.330044 0.161539 0.0726553
0.330492 0.161505 0.0724369
0.330941 0.161471 0.0722185
0.331389 0.161437 0.0720001
0.331838 0.161403 0.0717817
0.332336 0.161342 0.0716693
0.332735 0.161335 0.0713449
0.333183 0.161301 0.0711264
0.333582 0.161294 0.070802
0.334031 0.16126 0.0705836
0.334429 0.161253 0.0702592
0.334828 0.161246 0.0699348
0.335277 0.161213 0.0697164
0.335626 0.161233 0.0692859
0.336025 0.161226 0.0689615
0.336374 0.161246 0.068531
0.336773 0.161239 0.0682066
0.337123 0.161259 0.0677762
0.337521 0.161252 0.0674517
0.33792 0.161245 0.0671274
0.33827 0.161265 0.066697
0.338619 0.161285 0.0662665
0.338919 0.161332 0.0657301
0.339268 0.161352 0.0652996
0.339618 0.161372 0.0648692
0.339917 0.161419 0.0643328
0.340267 0.161439 0.0639023
0.340517 0.161513 0.0632598
0.340816 0.16156 0.0627234
0.341116 0.161607 0.0621869
0.341466 0.161627 0.0617564
0.341815 0.161647 0.0613261
0.342214 0.161641 0.0610016
0.342613 0.161634 0.0606772
0.343012 0.161627 0.0603528
0.34341 0.16162 0.0600284
0.343809 0.161613 0.0597039
0.344159 0.161633 0.0592735
0.344558 0.161626 0.058949
0.344907 0.161646 0.0585187
0.345306 0.161639 0.0581942
0.345705 0.161632 0.0578698
0.346054 0.161652 0.0574394
0.346503 0.161618 0.0572209
0.346852 0.161639 0.0567905
0.347251 0.161631 0.0564661
0.3476 0.161651 0.0560357
0.34795 0.161672 0.0556052
0.348299 0.161692 0.0551748
0.348599 0.161739 0.0546384
0.348898 0.161786 0.0541019
0.349198 0.161833 0.0535654
0.349441 0.161907 0.0529093
0.349679 0.161983 0.0522394
0.350021 0.162004 0.0517952
0.350364 0.162025 0.051351
0.350654 0.162073 0.0507941
0.350891 0.162148 0.0501242
0.351075 0.162251 0.0493414
0.351206 0.162381 0.0484458
0.351337 0.162511 0.0475501
0.351627 0.162559 0.0469931
0.352022 0.162553 0.0466619
0.352365 0.162574 0.0462177
0.352761 0.162567 0.0458864
0.353103 0.162588 0.0454423
0.353393 0.162636 0.0448853
0.353736 0.162657 0.0444411
0.353973 0.162733 0.0437712
0.354262 0.162781 0.0432142
0.354446 0.162883 0.0424314
0.354736 0.162932 0.0418744
0.354867 0.163062 0.0409787
0.354998 0.163192 0.0400831
0.35513 0.163322 0.0391875
0.355366 0.163398 0.0385176
0.355603 0.163473 0.0378477
0.35584 0.163549 0.0371778
0.356024 0.163651 0.0363951
0.356261 0.163727 0.0357252
0.356551 0.163775 0.0351681
0.356682 0.163905 0.0342725
0.356866 0.164008 0.0334898
0.35705 0.164111 0.032707
0.357023 0.164323 0.0314728
0.356995 0.164535 0.0302385
0.35702 0.16472 0.0291171
0.357151 0.164851 0.0282214
0.357336 0.164953 0.0274387
0.357361 0.165138 0.0263173
0.357227 0.165405 0.0248573
0.356935 0.165754 0.0230588
0.357014 0.165912 0.0220502
0.356616 0.166315 0.0200259
0.235686 0.177219 0.0727662
0.23751 0.176473 0.0754824
0.238804 0.176001 0.07707
0.239676 0.175748 0.0777546
0.241923 0.174783 0.0813738
0.243006 0.17442 0.0825099
0.243772 0.174222 0.0829687
0.244644 0.173969 0.0836533
0.245463 0.173743 0.0842251
0.246228 0.173545 0.0846838
0.246994 0.173347 0.0851427
0.24776 0.173148 0.0856015
0.248526 0.17295 0.0860604
0.249186 0.172807 0.0862935
0.249952 0.172609 0.0867523
0.250665 0.172438 0.0870982
0.251325 0.172294 0.0873313
0.251985 0.172151 0.0875644
0.252645 0.172007 0.0877975
0.253199 0.171919 0.0878048
0.253807 0.171802 0.087925
0.254361 0.171714 0.0879324
0.255021 0.17157 0.0881655
0.255628 0.171454 0.0882857
0.256182 0.171365 0.088293
0.25679 0.171249 0.0884132
0.257397 0.171133 0.0885335
0.258004 0.171017 0.0886537
0.258558 0.170929 0.088661
0.259113 0.17084 0.0886684
0.259667 0.170751 0.0886756
0.260274 0.170635 0.0887959
0.260828 0.170547 0.0888033
0.261383 0.170458 0.0888106
0.262043 0.170314 0.0890437
0.262597 0.170226 0.089051
0.263204 0.17011 0.0891712
0.263758 0.170021 0.0891785
0.264313 0.169932 0.0891859
0.26492 0.169816 0.0893061
0.265474 0.169727 0.0893135
0.266029 0.169639 0.0893208
0.26653 0.169577 0.0892153
0.267031 0.169516 0.0891097
0.267533 0.169455 0.0890042
0.267981 0.169421 0.0887858
0.268483 0.16936 0.0886803
0.268931 0.169326 0.0884618
0.269327 0.169319 0.0881306
0.269775 0.169285 0.0879122
0.270171 0.169279 0.0875809
0.270566 0.169272 0.0872497
0.271015 0.169238 0.0870313
0.27141 0.169232 0.0867
0.271806 0.169225 0.0863687
0.272255 0.169192 0.0861503
0.272756 0.16913 0.0860447
0.273257 0.169069 0.0859393
0.273759 0.169008 0.0858337
0.274313 0.168919 0.085841
0.274867 0.16883 0.0858484
0.275422 0.168742 0.0858558
0.275923 0.16868 0.0857502
0.276477 0.168592 0.0857575
0.276926 0.168558 0.0855391
0.277374 0.168524 0.0853207
0.27777 0.168517 0.0849894
0.278218 0.168483 0.0847711
0.278667 0.168449 0.0845526
0.279116 0.168416 0.0843342
0.279617 0.168354 0.0842286
0.280012 0.168348 0.0838974
0.280514 0.168287 0.0837918
0.280909 0.16828 0.0834606
0.281358 0.168246 0.0832422
0.281753 0.16824 0.0829109
0.282149 0.168233 0.0825797
0.282598 0.168199 0.0823613
0.282993 0.168193 0.08203
0.283442 0.168159 0.0818115
0.283837 0.168152 0.0814803
0.284233 0.168146 0.081149
0.284523 0.168194 0.080592
0.284813 0.168242 0.080035
0.285102 0.168291 0.079478
0.285445 0.168311 0.0790337
0.285841 0.168305 0.0787025
0.286236 0.168298 0.0783713
0.286579 0.168319 0.0779271
0.286975 0.168313 0.0775958
0.287423 0.168279 0.0773774
0.287977 0.16819 0.0773847
0.288532 0.168102 0.0773921
0.289086 0.168013 0.0773994
0.28964 0.167924 0.0774067
0.290195 0.167835 0.0774141
0.290696 0.167774 0.0773086
0.291144 0.16774 0.0770902
0.291646 0.167679 0.0769847
0.292094 0.167645 0.0767663
0.29249 0.167639 0.076435
0.292886 0.167632 0.0761037
0.293281 0.167625 0.0757724
0.293571 0.167674 0.0752155
0.293861 0.167722 0.0746584
0.294203 0.167743 0.0742142
0.294493 0.167791 0.0736571
0.294783 0.167839 0.0731002
0.295179 0.167833 0.0727689
0.29568 0.167772 0.0726634
0.296182 0.16771 0.0725579
0.296683 0.167649 0.0724523
0.297184 0.167588 0.0723467
0.297897 0.167417 0.0726928
0.298927 0.167082 0.0737159
0.299799 0.166829 0.0744005
0.300618 0.166603 0.0749722
0.301437 0.166377 0.075544
0.302461 0.166043 0.0765533
0.303504 0.165684 0.0776068
0.304151 0.165542 0.0778124
0.304748 0.165427 0.0779119
0.305692 0.165123 0.0787535
0.306537 0.164872 0.079383
0.307333 0.164649 0.0799065
0.308029 0.16448 0.0802181
0.308626 0.164365 0.0803176
0.309223 0.16425 0.0804172
0.30982 0.164135 0.0805168
0.310368 0.164047 0.0805104
0.310965 0.163932 0.08061
0.311513 0.163844 0.0806035
0.312061 0.163756 0.0805971
0.312608 0.163668 0.0805907
0.313106 0.163607 0.0804783
0.313704 0.163492 0.0805778
0.314202 0.163431 0.0804654
0.31465 0.163397 0.080247
0.315148 0.163336 0.0801346
0.315597 0.163302 0.0799162
0.315996 0.163295 0.0795918
0.316345 0.163315 0.0791614
0.316694 0.163335 0.078731
0.317143 0.163302 0.0785126
0.317641 0.163241 0.0784002
0.318139 0.16318 0.0782878
0.318637 0.163119 0.0781754
0.319086 0.163085 0.077957
0.319584 0.163024 0.0778446
0.320032 0.16299 0.0776262
0.32053 0.162929 0.0775138
0.320979 0.162895 0.0772953
0.321427 0.162861 0.0770769
0.321876 0.162827 0.0768585
0.322374 0.162766 0.0767461
0.322773 0.162759 0.0764217
0.323221 0.162726 0.0762033
0.32367 0.162692 0.0759849
0.324118 0.162658 0.0757665
0.324467 0.162678 0.0753362
0.324817 0.162698 0.0749057
0.325216 0.162691 0.0745814
0.325714 0.16263 0.0744689
0.326212 0.162569 0.0743565
0.32671 0.162508 0.0742441
0.327208 0.162447 0.0741317
0.327657 0.162414 0.0739133
0.328155 0.162353 0.0738009
0.328554 0.162346 0.0734765
0.329052 0.162285 0.0733641
0.3295 0.162251 0.0731457
0.329948 0.162217 0.0729273
0.330397 0.162183 0.0727088
0.330846 0.162149 0.0724905
0.331294 0.162115 0.0722721
0.331743 0.162081 0.0720536
0.332191 0.162047 0.0718353
0.33264 0.162014 0.0716168
0.333088 0.16198 0.0713984
0.333537 0.161946 0.07118
0.333936 0.161939 0.0708556
0.334384 0.161905 0.0706373
0.334783 0.161898 0.0703128
0.335182 0.161891 0.0699885
0.335581 0.161885 0.069664
0.33598 0.161878 0.0693397
0.336329 0.161898 0.0689092
0.336728 0.161891 0.0685848
0.337127 0.161884 0.0682605
0.337526 0.161877 0.0679361
0.337875 0.161898 0.0675057
0.338274 0.161891 0.0671813
0.338624 0.161911 0.0667509
0.338973 0.161931 0.0663205
0.339273 0.161978 0.0657841
0.339622 0.161998 0.0653538
0.339972 0.162019 0.0649233
0.340271 0.162066 0.064387
0.340521 0.16214 0.0637446
0.340821 0.162188 0.0632082
0.341121 0.162235 0.0626719
0.341421 0.162282 0.0621355
0.341721 0.162329 0.0615991
0.34207 0.16235 0.0611687
0.342469 0.162343 0.0608443
0.342868 0.162336 0.0605199
0.343217 0.162356 0.0600895
0.343616 0.162349 0.0597651
0.343966 0.162369 0.0593347
0.344364 0.162363 0.0590104
0.344763 0.162356 0.058686
0.345113 0.162376 0.0582556
0.345561 0.162342 0.0580371
0.345911 0.162362 0.0576068
0.34631 0.162355 0.0572823
0.346758 0.162321 0.057064
0.347107 0.162342 0.0566336
0.347457 0.162362 0.0562032
0.347856 0.162355 0.0558789
0.348205 0.162375 0.0554484
0.348505 0.162422 0.0549121
0.348805 0.16247 0.0543757
0.349055 0.162544 0.0537333
0.349348 0.162592 0.0531831
0.349585 0.162668 0.0525133
0.34998 0.162661 0.052182
0.350323 0.162682 0.0517379
0.350666 0.162703 0.0512937
0.350903 0.162779 0.0506238
0.351193 0.162827 0.0500668
0.351271 0.162985 0.0490583
0.351402 0.163115 0.0481626
0.351533 0.163246 0.047267
0.351876 0.163267 0.0468229
0.352271 0.16326 0.0464915
0.352667 0.163254 0.0461603
0.35301 0.163274 0.0457161
0.353353 0.163295 0.045272
0.353695 0.163316 0.0448278
0.354038 0.163337 0.0443837
0.354275 0.163413 0.0437138
0.354512 0.163488 0.0430439
0.354696 0.163591 0.0422611
0.35488 0.163694 0.0414784
0.355117 0.16377 0.0408084
0.355195 0.163928 0.0397999
0.355379 0.164031 0.0390171
0.355616 0.164107 0.0383473
0.355853 0.164182 0.0376774
0.356037 0.164285 0.0368946
0.356274 0.164361 0.0362247
0.356564 0.164409 0.0356677
0.356695 0.16454 0.0347721
0.356932 0.164615 0.0341021
0.35701 0.164773 0.0330936
0.357247 0.164849 0.0324237
0.35706 0.165144 0.0308509
0.357086 0.165329 0.0297295
0.357111 0.165514 0.0286081
0.357348 0.16559 0.0279382
0.357532 0.165693 0.0271554
0.357505 0.165906 0.0259212
0.357371 0.166173 0.0244612
0.357079 0.166522 0.0226626
0.357052 0.166735 0.0214283
0.356548 0.167194 0.0191782
0.352977 0.169242 0.0103815
0.237417 0.177168 0.0757561
0.238341 0.176887 0.0765536
0.239424 0.176524 0.0776897
0.240085 0.17638 0.0779227
0.242807 0.175167 0.082558
0.24352 0.174996 0.0829039
0.244498 0.174687 0.0838142
0.245317 0.174461 0.0843859
0.246082 0.174263 0.0848448
0.246848 0.174064 0.0853036
0.247614 0.173866 0.0857624
0.24838 0.173667 0.0862213
0.249093 0.173496 0.0865672
0.249806 0.173325 0.0869132
0.250519 0.173154 0.0872592
0.251232 0.172983 0.0876051
0.251892 0.172839 0.0878383
0.252552 0.172696 0.0880713
0.253159 0.172579 0.0881916
0.253766 0.172463 0.0883117
0.25432 0.172374 0.0883191
0.254981 0.172231 0.0885521
0.255535 0.172142 0.0885595
0.256142 0.172026 0.0886797
0.256749 0.17191 0.0888
0.257356 0.171793 0.0889202
0.257858 0.171732 0.0888146
0.258465 0.171616 0.0889348
0.259072 0.1715 0.0890551
0.259626 0.171411 0.0890624
0.260181 0.171322 0.0890697
0.260735 0.171233 0.0890771
0.261342 0.171117 0.0891973
0.261949 0.171001 0.0893176
0.262556 0.170885 0.0894378
0.263111 0.170796 0.0894451
0.263718 0.17068 0.0895653
0.264272 0.170591 0.0895727
0.264826 0.170502 0.0895799
0.265381 0.170413 0.0895873
0.265935 0.170325 0.0895947
0.266489 0.170236 0.089602
0.266991 0.170175 0.0894965
0.267492 0.170113 0.089391
0.267941 0.170079 0.0891726
0.268442 0.170018 0.089067
0.268838 0.170012 0.0887358
0.269286 0.169978 0.0885174
0.269735 0.169944 0.0882989
0.270183 0.16991 0.0880805
0.270579 0.169903 0.0877492
0.270974 0.169897 0.087418
0.271423 0.169863 0.0871996
0.271818 0.169857 0.0868683
0.272214 0.16985 0.086537
0.272663 0.169816 0.0863186
0.273164 0.169755 0.0862131
0.273665 0.169693 0.0861076
0.274167 0.169632 0.086002
0.274668 0.169571 0.0858965
0.275275 0.169455 0.0860167
0.275777 0.169393 0.0859111
0.276331 0.169304 0.0859185
0.276832 0.169243 0.085813
0.277281 0.169209 0.0855946
0.277729 0.169175 0.0853762
0.278231 0.169114 0.0852706
0.278679 0.16908 0.0850522
0.279128 0.169046 0.0848338
0.279576 0.169012 0.0846154
0.280025 0.168978 0.084397
0.280473 0.168944 0.0841786
0.280922 0.168911 0.0839602
0.28137 0.168877 0.0837418
0.281819 0.168843 0.0835234
0.282214 0.168836 0.0831922
0.28261 0.16883 0.0828608
0.283005 0.168823 0.0825296
0.283454 0.16879 0.0823112
0.28385 0.168783 0.0819798
0.284192 0.168804 0.0815358
0.284535 0.168825 0.0810916
0.284825 0.168873 0.0805346
0.285115 0.168922 0.0799775
0.285457 0.168943 0.0795334
0.285853 0.168936 0.0792021
0.286301 0.168902 0.0789837
0.286644 0.168923 0.0785395
0.286934 0.168972 0.0779825
0.28733 0.168965 0.0776513
0.287831 0.168904 0.0775457
0.288385 0.168815 0.0775531
0.288993 0.168699 0.0776733
0.289547 0.16861 0.0776807
0.290048 0.168549 0.0775751
0.29055 0.168487 0.0774696
0.291051 0.168426 0.077364
0.291552 0.168365 0.0772585
0.292001 0.168331 0.0770402
0.292396 0.168324 0.0767088
0.292845 0.168291 0.0764904
0.293188 0.168311 0.0760463
0.293583 0.168305 0.075715
0.293873 0.168353 0.075158
0.294216 0.168374 0.0747138
0.294559 0.168395 0.0742697
0.294848 0.168444 0.0737127
0.295191 0.168465 0.0732685
0.29564 0.168431 0.0730501
0.296141 0.168369 0.0729445
0.296643 0.168308 0.0728391
0.297144 0.168247 0.0727335
0.297751 0.168131 0.0728537
0.298517 0.167932 0.0733125
0.299388 0.167679 0.0739971
0.30026 0.167425 0.0746816
0.301079 0.167199 0.0752534
0.302162 0.166836 0.0763895
0.303113 0.166531 0.0772445
0.303908 0.166307 0.077768
0.304505 0.166191 0.0778674
0.305301 0.165968 0.0783908
0.306145 0.165717 0.0790201
0.30704 0.165439 0.0797555
0.307687 0.165296 0.0799609
0.308383 0.165126 0.0802723
0.30898 0.165011 0.0803718
0.309577 0.164896 0.0804713
0.310174 0.164781 0.0805708
0.310771 0.164665 0.0806703
0.311319 0.164577 0.0806639
0.311867 0.164489 0.0806574
0.312365 0.164428 0.0805449
0.312912 0.16434 0.0805384
0.31346 0.164252 0.080532
0.314008 0.164164 0.0805255
0.314506 0.164102 0.0804131
0.314954 0.164069 0.0801947
0.315452 0.164007 0.0800822
0.315851 0.164001 0.0797578
0.31625 0.163994 0.0794335
0.316649 0.163987 0.0791091
0.317048 0.16398 0.0787847
0.317546 0.163919 0.0786723
0.318044 0.163858 0.0785599
0.318542 0.163797 0.0784474
0.318991 0.163763 0.078229
0.319489 0.163702 0.0781166
0.319888 0.163696 0.0777922
0.320386 0.163635 0.0776798
0.320834 0.163601 0.0774614
0.321283 0.163567 0.0772429
0.321731 0.163533 0.0770246
0.32218 0.163499 0.0768061
0.322678 0.163438 0.0766937
0.323126 0.163404 0.0764753
0.323575 0.16337 0.0762569
0.323974 0.163363 0.0759325
0.324373 0.163356 0.0756082
0.324722 0.163377 0.0751779
0.325171 0.163343 0.0749594
0.325619 0.163309 0.0747411
0.326117 0.163248 0.0746286
0.326615 0.163187 0.0745161
0.327064 0.163153 0.0742977
0.327512 0.163119 0.0740793
0.327961 0.163085 0.073861
0.328409 0.163051 0.0736425
0.328858 0.163018 0.0734241
0.329356 0.162957 0.0733117
0.329804 0.162923 0.0730933
0.330253 0.162889 0.0728748
0.330701 0.162855 0.0726565
0.33115 0.162821 0.0724381
0.331598 0.162787 0.0722197
0.332047 0.162753 0.0720013
0.332495 0.162719 0.0717829
0.332944 0.162685 0.0715645
0.333392 0.162651 0.071346
0.333791 0.162645 0.0710217
0.33424 0.162611 0.0708033
0.334688 0.162577 0.0705849
0.335087 0.16257 0.0702605
0.335486 0.162563 0.0699362
0.335885 0.162557 0.0696118
0.336284 0.16255 0.0692874
0.336683 0.162543 0.0689629
0.337082 0.162536 0.0686386
0.337431 0.162557 0.0682083
0.33783 0.16255 0.067884
0.338229 0.162543 0.0675596
0.338578 0.162563 0.0671292
0.338928 0.162584 0.0666989
0.339277 0.162604 0.0662685
0.339577 0.162652 0.0657323
0.339976 0.162645 0.0654079
0.340276 0.162692 0.0648716
0.340576 0.16274 0.0643353
0.340876 0.162787 0.063799
0.341175 0.162835 0.0632627
0.341475 0.162882 0.0627263
0.341725 0.162957 0.0620841
0.342025 0.163004 0.0615477
0.342375 0.163025 0.0611174
0.342774 0.163018 0.0607931
0.343123 0.163038 0.0603627
0.343473 0.163059 0.0599323
0.343822 0.163079 0.059502
0.344171 0.163099 0.0590717
0.34457 0.163093 0.0587473
0.344969 0.163086 0.058423
0.345368 0.163079 0.0580986
0.345767 0.163072 0.0577742
0.346166 0.163066 0.0574498
0.346565 0.163059 0.0571255
0.346964 0.163052 0.0568011
0.347363 0.163045 0.0564768
0.347663 0.163093 0.0559405
0.348062 0.163086 0.055616
0.348361 0.163133 0.0550798
0.348612 0.163208 0.0544375
0.348912 0.163256 0.0539012
0.349254 0.163277 0.0534571
0.349597 0.163297 0.0530129
0.34994 0.163318 0.0525688
0.350335 0.163312 0.0522375
0.350625 0.16336 0.0516805
0.350968 0.163381 0.0512363
0.351152 0.163485 0.0504535
0.351283 0.163615 0.0495579
0.35152 0.163691 0.048888
0.351492 0.163904 0.0476537
0.351835 0.163925 0.0472095
0.352178 0.163946 0.0467654
0.352574 0.16394 0.0464341
0.352969 0.163933 0.0461029
0.353365 0.163927 0.0457715
0.353708 0.163948 0.0453275
0.353997 0.163996 0.0447704
0.354287 0.164044 0.0442134
0.354577 0.164093 0.0436563
0.354761 0.164196 0.0428736
0.354945 0.164299 0.0420908
0.355129 0.164403 0.041308
0.355366 0.164479 0.0406381
0.355391 0.164664 0.0395168
0.355628 0.16474 0.0388468
0.355865 0.164816 0.038177
0.356049 0.164919 0.0373941
0.356233 0.165022 0.0366114
0.356523 0.165071 0.0360544
0.35676 0.165147 0.0353845
0.356891 0.165277 0.0344888
0.357075 0.165381 0.0337061
0.357206 0.165511 0.0328105
0.357285 0.165669 0.0318019
0.357363 0.165828 0.0307934
0.357124 0.16615 0.0291077
0.357361 0.166226 0.0284378
0.357598 0.166302 0.0277678
0.357729 0.166433 0.0268722
0.357543 0.166728 0.0252993
0.357356 0.167023 0.0237265
0.35717 0.167319 0.0221536
0.356667 0.167779 0.0199034
0.237271 0.17789 0.0759171
0.237878 0.177773 0.0760372
0.239173 0.1773 0.0776248
0.240415 0.176854 0.0790995
0.242609 0.175913 0.082606
0.243321 0.175742 0.0829519
0.244299 0.175433 0.0838623
0.24517 0.175179 0.0845468
0.245936 0.174981 0.0850057
0.246755 0.174754 0.0855774
0.247415 0.174611 0.0858105
0.248181 0.174412 0.0862693
0.249 0.174186 0.086841
0.249713 0.174014 0.087187
0.250373 0.17387 0.0874201
0.251139 0.173672 0.0878789
0.251746 0.173555 0.0879992
0.252458 0.173384 0.0883451
0.253066 0.173268 0.0884653
0.253673 0.173151 0.0885855
0.25428 0.173035 0.0887057
0.254887 0.172919 0.0888261
0.255494 0.172802 0.0889462
0.256101 0.172686 0.0890664
0.256656 0.172597 0.0890738
0.25721 0.172508 0.0890811
0.257817 0.172392 0.0892014
0.258424 0.172276 0.0893216
0.258979 0.172187 0.0893289
0.259533 0.172098 0.0893362
0.260087 0.172009 0.0893436
0.260694 0.171893 0.0894638
0.261301 0.171776 0.089584
0.261856 0.171687 0.0895914
0.262463 0.171571 0.0897116
0.263017 0.171482 0.0897189
0.263624 0.171366 0.0898392
0.264179 0.171277 0.0898465
0.264786 0.171161 0.0899668
0.26534 0.171072 0.089974
0.265842 0.171011 0.0898685
0.266396 0.170922 0.0898758
0.26695 0.170833 0.0898832
0.267399 0.170799 0.0896648
0.2679 0.170738 0.0895593
0.268349 0.170704 0.0893409
0.268797 0.17067 0.0891225
0.269298 0.170608 0.0890169
0.269747 0.170574 0.0887986
0.270142 0.170568 0.0884673
0.270591 0.170534 0.0882489
0.270987 0.170528 0.0879176
0.271435 0.170494 0.0876992
0.271831 0.170487 0.0873678
0.272279 0.170454 0.0871494
0.272675 0.170447 0.0868182
0.273123 0.170413 0.0865998
0.273572 0.170379 0.0863814
0.274073 0.170318 0.0862759
0.274575 0.170257 0.0861704
0.275076 0.170195 0.0860649
0.27563 0.170106 0.0860722
0.276184 0.170017 0.0860795
0.276686 0.169956 0.0859739
0.277187 0.169895 0.0858685
0.277689 0.169833 0.0857629
0.278137 0.169799 0.0855445
0.278639 0.169738 0.085439
0.279087 0.169704 0.0852206
0.279588 0.169643 0.085115
0.280037 0.169609 0.0848966
0.280485 0.169575 0.0846782
0.280881 0.169568 0.084347
0.28133 0.169535 0.0841285
0.281778 0.169501 0.0839101
0.282227 0.169467 0.0836918
0.282622 0.169461 0.0833604
0.283018 0.169454 0.0830292
0.283413 0.169447 0.0826979
0.283809 0.169441 0.0823667
0.284152 0.169462 0.0819225
0.284495 0.169483 0.0814783
0.284837 0.169504 0.0810341
0.285127 0.169553 0.0804771
0.28547 0.169574 0.080033
0.285865 0.169567 0.0797018
0.286261 0.169561 0.0793705
0.286604 0.169582 0.0789263
0.286946 0.169603 0.0784822
0.287236 0.169652 0.0779251
0.287685 0.169618 0.0777067
0.288239 0.169529 0.077714
0.288793 0.16944 0.0777214
0.2894 0.169324 0.0778416
0.289902 0.169262 0.0777362
0.290456 0.169173 0.0777434
0.290957 0.169112 0.0776379
0.291406 0.169078 0.0774195
0.291907 0.169017 0.077314
0.292356 0.168983 0.0770956
0.292751 0.168976 0.0767643
0.293147 0.16897 0.076433
0.29349 0.168991 0.0759889
0.293833 0.169012 0.0755447
0.294122 0.169061 0.0749877
0.294518 0.169054 0.0746564
0.294861 0.169075 0.0742122
0.295203 0.169096 0.0737681
0.295599 0.16909 0.0734368
0.296048 0.169056 0.0732184
0.296602 0.168967 0.0732258
0.297156 0.168878 0.0732331
0.297711 0.168789 0.0732404
0.298318 0.168673 0.0733606
0.299031 0.168502 0.0737066
0.299902 0.168248 0.0743912
0.300721 0.168022 0.074963
0.301698 0.167713 0.0758732
0.302722 0.167378 0.0768826
0.303616 0.167099 0.0776177
0.304263 0.166956 0.077823
0.304909 0.166813 0.0780284
0.305754 0.166562 0.0786575
0.306599 0.16631 0.0792867
0.307394 0.166086 0.0798099
0.308041 0.165943 0.0800152
0.308687 0.1658 0.0802206
0.309334 0.165658 0.080426
0.309931 0.165542 0.0805254
0.310528 0.165427 0.0806248
0.311076 0.165338 0.0806182
0.311623 0.16525 0.0806118
0.312171 0.165161 0.0806052
0.312718 0.165073 0.0805987
0.313216 0.165012 0.0804863
0.313764 0.164924 0.0804798
0.314262 0.164863 0.0803673
0.31476 0.164802 0.0802548
0.315209 0.164768 0.0800364
0.315707 0.164707 0.0799239
0.316155 0.164673 0.0797055
0.316554 0.164666 0.0793812
0.317003 0.164632 0.0791628
0.317451 0.164598 0.0789444
0.317949 0.164537 0.0788318
0.318398 0.164503 0.0786135
0.318896 0.164442 0.0785011
0.319344 0.164408 0.0782827
0.319793 0.164374 0.0780643
0.320192 0.164367 0.0777399
0.32064 0.164334 0.0775215
0.321089 0.1643 0.077303
0.321537 0.164266 0.0770847
0.322035 0.164205 0.0769723
0.322484 0.164171 0.0767538
0.322982 0.16411 0.0766413
0.32343 0.164076 0.0764229
0.323879 0.164042 0.0762045
0.324278 0.164035 0.0758803
0.324627 0.164056 0.0754499
0.325076 0.164022 0.0752315
0.325524 0.163988 0.0750132
0.326022 0.163927 0.0749006
0.32652 0.163866 0.0747883
0.326969 0.163832 0.0745698
0.327417 0.163798 0.0743514
0.327866 0.163764 0.074133
0.328265 0.163757 0.0738086
0.328713 0.163723 0.0735902
0.329162 0.163689 0.0733718
0.32961 0.163656 0.0731534
0.330059 0.163622 0.072935
0.330507 0.163588 0.0727166
0.330956 0.163554 0.0724982
0.331404 0.16352 0.0722798
0.331902 0.163459 0.0721674
0.332351 0.163425 0.071949
0.332799 0.163391 0.0717306
0.333248 0.163357 0.0715122
0.333696 0.163323 0.0712938
0.334095 0.163317 0.0709694
0.334544 0.163283 0.0707509
0.334943 0.163276 0.0704266
0.335391 0.163242 0.0702082
0.33579 0.163235 0.0698839
0.336189 0.163229 0.0695595
0.336588 0.163222 0.0692352
0.336987 0.163215 0.0689109
0.337386 0.163209 0.0685865
0.337735 0.163229 0.0681562
0.338134 0.163222 0.0678319
0.338484 0.163243 0.0674016
0.338883 0.163236 0.0670772
0.339232 0.163257 0.0666469
0.339582 0.163277 0.0662166
0.339881 0.163325 0.0656804
0.34028 0.163318 0.0653561
0.34058 0.163366 0.0648199
0.34093 0.163386 0.0643896
0.34123 0.163434 0.0638533
0.341529 0.163482 0.0633171
0.34173 0.163584 0.062569
0.34203 0.163632 0.0620328
0.34233 0.16368 0.0614964
0.34268 0.1637 0.0610662
0.342979 0.163748 0.06053
0.343329 0.163768 0.0600997
0.343678 0.163789 0.0596695
0.343978 0.163837 0.0591331
0.344377 0.16383 0.0588088
0.344776 0.163823 0.0584845
0.345175 0.163816 0.0581602
0.345574 0.16381 0.0578358
0.345973 0.163803 0.0575115
0.346372 0.163796 0.0571871
0.346771 0.16379 0.0568628
0.34717 0.163783 0.0565385
0.347519 0.163804 0.0561082
0.347869 0.163824 0.0556779
0.348169 0.163872 0.0551416
0.348518 0.163892 0.0547113
0.348868 0.163913 0.054281
0.349214 0.163934 0.0538439
0.349556 0.163955 0.0533996
0.349952 0.163948 0.0530684
0.350295 0.163969 0.0526242
0.350637 0.16399 0.0521801
0.350927 0.164039 0.051623
0.351164 0.164115 0.0509532
0.351348 0.164218 0.0501703
0.351426 0.164377 0.0491619
0.351664 0.164453 0.0484919
0.351795 0.164584 0.0475964
0.352137 0.164605 0.0471521
0.35248 0.164626 0.046708
0.352929 0.164592 0.0464896
0.353324 0.164586 0.0461584
0.35372 0.164579 0.045827
0.354063 0.1646 0.0453829
0.354352 0.164649 0.0448259
0.354642 0.164697 0.0442688
0.354879 0.164773 0.0435989
0.35501 0.164904 0.0427033
0.355194 0.165008 0.0419205
0.355378 0.165111 0.0411377
0.355563 0.165215 0.0403549
0.355641 0.165373 0.0393464
0.355878 0.165449 0.0386765
0.356062 0.165553 0.0378937
0.356246 0.165656 0.037111
0.356536 0.165705 0.0365539
0.356773 0.165781 0.0358841
0.356851 0.165939 0.0348755
0.357141 0.165988 0.0343185
0.357272 0.166119 0.0334228
0.357456 0.166222 0.0326401
0.357481 0.166408 0.0315186
0.357348 0.166676 0.0300587
0.357321 0.16689 0.0288244
0.357663 0.166911 0.0283803
0.357742 0.167069 0.0273717
0.357714 0.167283 0.0261374
0.357475 0.167606 0.0244516
0.357342 0.167874 0.0229917
0.35705 0.168225 0.021193
0.35324 0.170603 0.0107104
0.237627 0.17855 0.0759723
0.24019 0.177416 0.0802689
0.240745 0.177327 0.0802762
0.242304 0.176715 0.0824282
0.243123 0.176488 0.083
0.2441 0.176179 0.0839103
0.244866 0.17598 0.0843691
0.245737 0.175726 0.0850537
0.246503 0.175527 0.0855125
0.247322 0.175301 0.0860843
0.248035 0.175129 0.0864303
0.248748 0.174958 0.0867762
0.249514 0.174758 0.0872351
0.250226 0.174587 0.087581
0.250992 0.174388 0.0880398
0.251652 0.174244 0.088273
0.252312 0.1741 0.0885062
0.252972 0.173956 0.0887391
0.253579 0.17384 0.0888594
0.254187 0.173723 0.0889796
0.254847 0.173579 0.0892127
0.255454 0.173463 0.0893329
0.256008 0.173374 0.0893403
0.256615 0.173257 0.0894605
0.25717 0.173168 0.0894678
0.257777 0.173052 0.0895881
0.258331 0.172963 0.0895954
0.258885 0.172874 0.0896028
0.259439 0.172785 0.0896101
0.260047 0.172668 0.0897303
0.260601 0.17258 0.0897377
0.261208 0.172463 0.0898579
0.261762 0.172374 0.0898652
0.26237 0.172258 0.0899854
0.262924 0.172169 0.0899928
0.263531 0.172052 0.090113
0.264085 0.171963 0.0901204
0.264692 0.171847 0.0902405
0.265247 0.171758 0.0902479
0.265801 0.171669 0.0902553
0.266302 0.171608 0.0901497
0.266857 0.171519 0.0901571
0.267358 0.171457 0.0900515
0.267859 0.171396 0.089946
0.268308 0.171362 0.0897276
0.268756 0.171328 0.0895093
0.269258 0.171266 0.0894037
0.269706 0.171233 0.0891853
0.270155 0.171199 0.0889669
0.270603 0.171165 0.0887485
0.271052 0.171131 0.0885301
0.2715 0.171097 0.0883117
0.271896 0.171091 0.0879804
0.272291 0.171084 0.0876491
0.27274 0.17105 0.0874307
0.273136 0.171044 0.0870995
0.273584 0.17101 0.0868811
0.274033 0.170976 0.0866627
0.274534 0.170915 0.0865571
0.274982 0.170881 0.0863387
0.275484 0.170819 0.0862332
0.276038 0.170731 0.0862405
0.27654 0.170669 0.086135
0.277041 0.170608 0.0860294
0.277542 0.170546 0.0859239
0.278044 0.170485 0.0858184
0.278545 0.170423 0.0857129
0.278994 0.170389 0.0854944
0.279442 0.170356 0.085276
0.279943 0.170294 0.0851705
0.280392 0.17026 0.0849521
0.28084 0.170226 0.0847337
0.281236 0.17022 0.0844024
0.281737 0.170158 0.0842969
0.282186 0.170125 0.0840785
0.282582 0.170118 0.0837471
0.282977 0.170112 0.083416
0.283373 0.170105 0.0830846
0.283768 0.170099 0.0827534
0.284111 0.17012 0.0823092
0.284454 0.170141 0.0818651
0.284849 0.170135 0.0815338
0.285139 0.170184 0.0809768
0.285482 0.170205 0.0805326
0.285878 0.170198 0.0802013
0.28622 0.17022 0.0797572
0.286563 0.170241 0.079313
0.286906 0.170262 0.0788689
0.287249 0.170283 0.0784247
0.287591 0.170304 0.0779806
0.288093 0.170243 0.077875
0.288647 0.170154 0.0778824
0.289201 0.170065 0.0778897
0.289756 0.169976 0.077897
0.29031 0.169887 0.0779044
0.290811 0.169825 0.0777989
0.291313 0.169764 0.0776934
0.291814 0.169703 0.0775879
0.292262 0.169669 0.0773694
0.292658 0.169662 0.0770382
0.293053 0.169656 0.0767069
0.293396 0.169677 0.0762627
0.293686 0.169726 0.0757057
0.294029 0.169747 0.0752616
0.294425 0.169741 0.0749303
0.29482 0.169734 0.0745989
0.295163 0.169755 0.0741548
0.295611 0.169721 0.0739364
0.29606 0.169688 0.073718
0.296561 0.169626 0.0736125
0.297063 0.169565 0.0735069
0.29767 0.169448 0.0736271
0.298277 0.169332 0.0737474
0.298884 0.169215 0.0738676
0.299597 0.169044 0.0742136
0.300257 0.1689 0.0744467
0.301129 0.168646 0.0751312
0.302159 0.168309 0.0761544
0.303126 0.168001 0.077044
0.30402 0.167721 0.0777788
0.304617 0.167605 0.0778782
0.305511 0.167326 0.078613
0.306207 0.167156 0.0789242
0.307003 0.166931 0.0794472
0.307748 0.166733 0.0798644
0.308345 0.166617 0.0799637
0.308992 0.166474 0.080169
0.309639 0.166331 0.0803742
0.310236 0.166215 0.0804736
0.310783 0.166127 0.080467
0.31138 0.166011 0.0805664
0.311927 0.165923 0.0805598
0.312475 0.165834 0.0805532
0.312973 0.165773 0.0804407
0.313521 0.165685 0.0804342
0.314019 0.165623 0.0803217
0.314517 0.165562 0.0802092
0.315015 0.165501 0.0800967
0.315463 0.165467 0.0798783
0.315961 0.165406 0.0797658
0.31641 0.165372 0.0795474
0.316858 0.165338 0.079329
0.317307 0.165304 0.0791106
0.317805 0.165243 0.0789981
0.318253 0.165209 0.0787797
0.318702 0.165175 0.0785613
0.3192 0.165114 0.0784488
0.319698 0.165053 0.0783363
0.320097 0.165046 0.078012
0.320496 0.16504 0.0776877
0.320895 0.165033 0.0773634
0.321343 0.164999 0.077145
0.321841 0.164938 0.0770324
0.322339 0.164877 0.07692
0.322837 0.164816 0.0768075
0.323335 0.164754 0.076695
0.323734 0.164748 0.0763707
0.324183 0.164714 0.0761523
0.324582 0.164707 0.0758279
0.32503 0.164673 0.0756095
0.325479 0.164639 0.0753911
0.325927 0.164606 0.0751727
0.326376 0.164572 0.0749543
0.326824 0.164538 0.0747359
0.327273 0.164504 0.0745175
0.327721 0.16447 0.0742991
0.32812 0.164463 0.0739748
0.328569 0.164429 0.0737564
0.329017 0.164395 0.073538
0.329466 0.164362 0.0733196
0.329865 0.164355 0.0729952
0.330313 0.164321 0.0727768
0.330762 0.164287 0.0725585
0.33121 0.164253 0.07234
0.331708 0.164192 0.0722276
0.332157 0.164158 0.0720092
0.332556 0.164152 0.0716848
0.333004 0.164118 0.0714665
0.333502 0.164056 0.0713539
0.333951 0.164023 0.0711355
0.334399 0.163989 0.0709172
0.334798 0.163982 0.0705928
0.335247 0.163948 0.0703744
0.335646 0.163942 0.0700501
0.336045 0.163935 0.0697258
0.336444 0.163928 0.0694014
0.336843 0.163922 0.0690771
0.337242 0.163915 0.0687528
0.337641 0.163909 0.0684285
0.33804 0.163902 0.0681042
0.338439 0.163895 0.0677799
0.338788 0.163916 0.0673496
0.339137 0.163937 0.0669193
0.339487 0.163957 0.0664891
0.339836 0.163978 0.0660589
0.340235 0.163971 0.0657346
0.340585 0.163992 0.0653043
0.340934 0.164013 0.0648741
0.341234 0.164061 0.064338
0.341534 0.164109 0.0638018
0.341834 0.164156 0.0632656
0.342085 0.164232 0.0626236
0.342285 0.164334 0.0618755
0.342635 0.164355 0.0614453
0.342935 0.164403 0.0609091
0.343284 0.164424 0.0604789
0.343584 0.164471 0.0599427
0.343884 0.164519 0.0594065
0.344234 0.16454 0.0589763
0.344583 0.164561 0.0585461
0.344933 0.164581 0.0581159
0.345332 0.164575 0.0577915
0.34583 0.164514 0.0576791
0.346229 0.164507 0.0573547
0.346578 0.164528 0.0569245
0.347027 0.164494 0.0567061
0.347376 0.164515 0.0562759
0.347725 0.164535 0.0558456
0.348075 0.164556 0.0554153
0.348474 0.164549 0.055091
0.348824 0.16457 0.0546608
0.349173 0.164591 0.0542305
0.349569 0.164584 0.0538993
0.349911 0.164605 0.0534551
0.350254 0.164626 0.053011
0.350597 0.164648 0.0525668
0.350887 0.164696 0.0520098
0.351176 0.164745 0.0514528
0.351308 0.164876 0.0505571
0.351439 0.165007 0.0496615
0.351623 0.165111 0.0488787
0.351807 0.165215 0.0480959
0.352097 0.165263 0.0475389
0.35244 0.165285 0.0470947
0.352888 0.165251 0.0468763
0.353284 0.165244 0.046545
0.353679 0.165238 0.0462138
0.354075 0.165231 0.0458825
0.354418 0.165253 0.0454384
0.354707 0.165301 0.0448813
0.354944 0.165377 0.0442114
0.355181 0.165454 0.0435415
0.355365 0.165557 0.0427587
0.355497 0.165689 0.041863
0.355681 0.165792 0.0410803
0.355759 0.165951 0.0400718
0.355943 0.166055 0.039289
0.356127 0.166158 0.0385062
0.356311 0.166262 0.0377235
0.356495 0.166366 0.0369407
0.356732 0.166442 0.0362707
0.356863 0.166573 0.0353751
0.3571 0.166649 0.0347052
0.357284 0.166753 0.0339224
0.357468 0.166857 0.0331396
0.357547 0.167016 0.0321311
0.357572 0.167202 0.0310097
0.357333 0.167526 0.0293239
0.357623 0.167574 0.0287669
0.357807 0.167678 0.027984
0.357885 0.167837 0.0269756
0.357646 0.168161 0.0252899
0.357566 0.168402 0.0239427
0.357433 0.168671 0.0224826
0.356718 0.169242 0.019781
0.240203 0.178053 0.0807684
0.24081 0.177937 0.0808887
0.241206 0.17793 0.0805573
0.242818 0.17729 0.0828222
0.243689 0.177036 0.0835068
0.244561 0.176781 0.0841914
0.245538 0.176472 0.0851018
0.246304 0.176272 0.0855606
0.24707 0.176073 0.0860195
0.247836 0.175874 0.0864783
0.248549 0.175702 0.0868243
0.249314 0.175503 0.0872831
0.25008 0.175304 0.087742
0.250793 0.175132 0.088088
0.251506 0.17496 0.088434
0.252166 0.174816 0.0886669
0.252826 0.174672 0.0889001
0.253486 0.174528 0.0891333
0.254093 0.174411 0.0892534
0.254753 0.174267 0.0894866
0.25536 0.17415 0.0896067
0.255915 0.174061 0.0896141
0.256469 0.173972 0.0896214
0.257076 0.173856 0.0897417
0.257683 0.173739 0.0898619
0.258238 0.17365 0.0898693
0.258845 0.173533 0.0899895
0.259399 0.173444 0.0899969
0.260006 0.173328 0.0901171
0.260508 0.173266 0.0900116
0.261115 0.17315 0.0901317
0.261616 0.173088 0.0900262
0.262223 0.172972 0.0901464
0.26283 0.172855 0.0902666
0.263385 0.172766 0.090274
0.263992 0.172649 0.0903942
0.264546 0.17256 0.0904016
0.265153 0.172444 0.0905218
0.265707 0.172355 0.0905292
0.266209 0.172293 0.0904236
0.266763 0.172204 0.090431
0.267264 0.172143 0.0903255
0.267766 0.172081 0.0902199
0.268267 0.17202 0.0901144
0.268716 0.171986 0.0898959
0.269217 0.171925 0.0897904
0.269719 0.171863 0.0896849
0.270167 0.171829 0.0894665
0.270615 0.171795 0.0892481
0.271064 0.171761 0.0890297
0.271565 0.1717 0.0889241
0.271961 0.171694 0.0885929
0.272357 0.171687 0.0882616
0.272805 0.171653 0.0880432
0.273201 0.171647 0.0877119
0.273596 0.171641 0.0873806
0.273992 0.171634 0.0870494
0.27444 0.1716 0.086831
0.274889 0.171567 0.0866126
0.27539 0.171505 0.086507
0.275892 0.171444 0.0864015
0.276393 0.171382 0.086296
0.276895 0.171321 0.0861905
0.277396 0.171259 0.0860849
0.277897 0.171198 0.0859794
0.278399 0.171136 0.0858739
0.2789 0.171075 0.0857683
0.279349 0.171041 0.0855499
0.279797 0.171007 0.0853315
0.280246 0.170973 0.0851131
0.280747 0.170912 0.0850076
0.281143 0.170905 0.0846763
0.281591 0.170871 0.0844579
0.282092 0.17081 0.0843524
0.282488 0.170804 0.0840211
0.282884 0.170797 0.0836898
0.283332 0.170763 0.0834714
0.283728 0.170757 0.0831401
0.28407 0.170778 0.082696
0.284413 0.170799 0.0822518
0.284809 0.170793 0.0819205
0.285099 0.170842 0.0813635
0.285441 0.170863 0.0809194
0.285837 0.170857 0.0805881
0.28618 0.170878 0.0801439
0.286522 0.170899 0.0796998
0.286812 0.170948 0.0791427
0.287155 0.170969 0.0786986
0.287498 0.170991 0.0782544
0.287946 0.170957 0.078036
0.288448 0.170895 0.0779305
0.289055 0.170779 0.0780507
0.289556 0.170717 0.0779452
0.29011 0.170628 0.0779525
0.290612 0.170567 0.077847
0.291166 0.170477 0.0778543
0.291667 0.170416 0.0777488
0.292116 0.170382 0.0775304
0.292512 0.170376 0.0771991
0.292907 0.17037 0.0768678
0.293197 0.170418 0.0763108
0.29354 0.170439 0.0758666
0.293883 0.170461 0.0754225
0.294331 0.170427 0.0752041
0.29478 0.170393 0.0749857
0.295175 0.170387 0.0746544
0.295677 0.170325 0.0745489
0.296125 0.170291 0.0743305
0.296626 0.17023 0.074225
0.297181 0.170141 0.0742323
0.297682 0.170079 0.0741268
0.298236 0.16999 0.0741342
0.298843 0.169874 0.0742544
0.299398 0.169785 0.0742617
0.300058 0.16964 0.0744948
0.300876 0.169414 0.0750665
0.301642 0.169214 0.0755254
0.302672 0.168877 0.0765486
0.30358 0.168596 0.0773112
0.304375 0.168371 0.0778341
0.304972 0.168255 0.0779333
0.305965 0.16792 0.0788797
0.306611 0.167777 0.0790849
0.307406 0.167551 0.0796077
0.308102 0.16738 0.0799188
0.308699 0.167264 0.0800181
0.309247 0.167176 0.0800115
0.309943 0.167005 0.0803225
0.31054 0.166889 0.0804217
0.311087 0.1668 0.0804151
0.311635 0.166712 0.0804085
0.312182 0.166623 0.0804019
0.31273 0.166535 0.0803953
0.313277 0.166446 0.0803887
0.313775 0.166385 0.0802761
0.314273 0.166323 0.0801637
0.314771 0.166262 0.0800512
0.315269 0.166201 0.0799387
0.315767 0.16614 0.0798262
0.316216 0.166106 0.0796077
0.316714 0.166044 0.0794952
0.317162 0.166011 0.0792769
0.317611 0.165977 0.0790585
0.318109 0.165915 0.0789458
0.318607 0.165854 0.0788334
0.319055 0.16582 0.078615
0.319553 0.165759 0.0785024
0.319952 0.165752 0.0781782
0.320351 0.165746 0.0778538
0.32075 0.165739 0.0775296
0.321149 0.165733 0.0772053
0.321647 0.165671 0.0770928
0.322195 0.165583 0.0770862
0.322693 0.165522 0.0769736
0.323191 0.16546 0.0768611
0.323639 0.165426 0.0766427
0.324088 0.165393 0.0764243
0.324536 0.165359 0.0762059
0.324935 0.165352 0.0758816
0.325384 0.165318 0.0756631
0.325832 0.165284 0.0754447
0.326281 0.16525 0.0752263
0.326729 0.165216 0.0750079
0.327128 0.16521 0.0746837
0.327577 0.165176 0.0744654
0.327976 0.16517 0.0741409
0.328424 0.165136 0.0739226
0.328873 0.165102 0.0737042
0.329321 0.165068 0.0734857
0.32972 0.165061 0.0731615
0.330169 0.165027 0.0729431
0.330617 0.164994 0.0727247
0.331066 0.16496 0.0725063
0.331514 0.164926 0.0722879
0.331963 0.164892 0.0720695
0.332411 0.164858 0.0718511
0.33281 0.164851 0.0715268
0.333259 0.164817 0.0713084
0.333757 0.164756 0.0711959
0.334205 0.164722 0.0709775
0.334604 0.164716 0.0706532
0.335053 0.164682 0.0704348
0.335501 0.164648 0.0702164
0.335851 0.164669 0.0697862
0.336299 0.164635 0.0695678
0.336698 0.164628 0.0692435
0.337097 0.164622 0.0689192
0.337496 0.164615 0.0685949
0.337895 0.164609 0.0682705
0.338294 0.164602 0.0679463
0.338644 0.164623 0.0675161
0.339043 0.164616 0.0671917
0.339392 0.164637 0.0667616
0.339791 0.164631 0.0664373
0.340141 0.164651 0.0660071
0.34049 0.164672 0.0655769
0.34084 0.164693 0.0651468
0.341189 0.164714 0.0647165
0.341539 0.164735 0.0642864
0.341839 0.164783 0.0637502
0.342089 0.164858 0.0631083
0.34229 0.164961 0.0623604
0.34259 0.16501 0.0618243
0.34294 0.16503 0.0613942
0.343289 0.165051 0.060964
0.343589 0.1651 0.0604279
0.34384 0.165175 0.0597859
0.34414 0.165223 0.0592498
0.34439 0.165299 0.0586078
0.34474 0.16532 0.0581777
0.345139 0.165313 0.0578533
0.345587 0.165279 0.0576349
0.346036 0.165245 0.0574165
0.346435 0.165239 0.0570922
0.346883 0.165205 0.0568739
0.347282 0.165198 0.0565496
0.347632 0.165219 0.0561194
0.348031 0.165212 0.0557951
0.34843 0.165206 0.0554707
0.348779 0.165227 0.0550406
0.349178 0.16522 0.0547162
0.349528 0.165241 0.0542861
0.349871 0.165262 0.0538419
0.35016 0.165311 0.0532848
0.350503 0.165332 0.0528407
0.350793 0.165381 0.0522837
0.351083 0.16543 0.0517267
0.351267 0.165534 0.0509439
0.351451 0.165638 0.0501611
0.351635 0.165742 0.0493783
0.351819 0.165846 0.0485956
0.352109 0.165894 0.0480385
0.352399 0.165943 0.0474815
0.352794 0.165937 0.0471502
0.353243 0.165903 0.0469318
0.353586 0.165924 0.0464877
0.354034 0.16589 0.0462693
0.35443 0.165884 0.0459379
0.354773 0.165905 0.0454938
0.355062 0.165954 0.0449368
0.355247 0.166058 0.044154
0.355431 0.166162 0.0433712
0.355615 0.166266 0.0425884
0.355799 0.16637 0.0418057
0.35593 0.166501 0.04091
0.356061 0.166632 0.0400143
0.356192 0.166764 0.0391187
0.356324 0.166895 0.038223
0.356455 0.167027 0.0373274
0.356745 0.167076 0.0367703
0.356929 0.16718 0.0359875
0.357113 0.167284 0.0352047
0.35735 0.16736 0.0345348
0.357428 0.167519 0.0335263
0.357559 0.167651 0.0326306
0.357585 0.167837 0.0315092
0.357451 0.168106 0.0300492
0.35753 0.168265 0.0290406
0.357873 0.168287 0.0285965
0.357898 0.168473 0.0274752
0.357765 0.168743 0.0260151
0.357632 0.169012 0.0245551
0.35771 0.169171 0.0235464
0.357524 0.169468 0.0219736
0.353185 0.172129 0.0103621
0.237891 0.179504 0.0786571
0.238604 0.179332 0.079003
0.24011 0.178746 0.0810422
0.24077 0.178602 0.0812753
0.241377 0.178485 0.0813954
0.242778 0.177954 0.0832088
0.243438 0.17781 0.083442
0.244309 0.177555 0.0841266
0.245287 0.177245 0.0850369
0.246105 0.177018 0.0856086
0.246871 0.176819 0.0860675
0.247637 0.176619 0.0865264
0.24835 0.176447 0.0868723
0.249063 0.176275 0.0872183
0.249828 0.176076 0.0876772
0.250541 0.175904 0.0880232
0.251254 0.175732 0.0883691
0.25202 0.175532 0.0888279
0.25268 0.175388 0.0890611
0.25334 0.175243 0.0892942
0.253947 0.175127 0.0894144
0.254607 0.174982 0.0896475
0.255214 0.174866 0.0897677
0.255821 0.174749 0.0898879
0.256376 0.17466 0.0898953
0.256983 0.174543 0.0900155
0.25759 0.174426 0.0901358
0.258144 0.174337 0.0901431
0.258751 0.174221 0.0902634
0.259306 0.174131 0.0902706
0.25986 0.174042 0.090278
0.260467 0.173926 0.0903982
0.260968 0.173864 0.0902927
0.261523 0.173775 0.0903001
0.262077 0.173686 0.0903074
0.262631 0.173597 0.0903147
0.263238 0.17348 0.090435
0.263846 0.173363 0.0905551
0.264452 0.173247 0.0906754
0.264954 0.173185 0.0905699
0.265508 0.173096 0.0905773
0.266115 0.172979 0.0906974
0.26667 0.17289 0.0907048
0.267171 0.172829 0.0905993
0.267672 0.172767 0.0904937
0.268174 0.172706 0.0903882
0.268675 0.172644 0.0902827
0.269124 0.17261 0.0900643
0.269678 0.172521 0.0900717
0.270126 0.172487 0.0898533
0.270575 0.172453 0.0896349
0.271076 0.172392 0.0895294
0.271525 0.172358 0.089311
0.271973 0.172324 0.0890925
0.272369 0.172318 0.0887612
0.272817 0.172284 0.0885428
0.273266 0.17225 0.0883245
0.273609 0.172271 0.0878803
0.273951 0.172292 0.0874361
0.274347 0.172286 0.0871048
0.274795 0.172252 0.0868864
0.275244 0.172218 0.086668
0.275745 0.172157 0.0865625
0.276247 0.172095 0.086457
0.276748 0.172034 0.0863514
0.277249 0.171972 0.0862459
0.277751 0.171911 0.0861404
0.278199 0.171877 0.085922
0.278701 0.171815 0.0858165
0.279202 0.171754 0.0857109
0.279651 0.17172 0.0854925
0.280152 0.171658 0.085387
0.2806 0.171625 0.0851686
0.281049 0.171591 0.0849502
0.281498 0.171557 0.0847317
0.281946 0.171523 0.0845133
0.282394 0.171489 0.084295
0.28279 0.171483 0.0839636
0.283238 0.171449 0.0837452
0.283634 0.171442 0.0834141
0.28403 0.171436 0.0830827
0.284372 0.171457 0.0826386
0.284715 0.171479 0.0821944
0.285058 0.1715 0.0817503
0.285401 0.171521 0.081306
0.285744 0.171543 0.0808619
0.286086 0.171564 0.0804178
0.286429 0.171585 0.0799736
0.286719 0.171634 0.0794165
0.287009 0.171683 0.0788596
0.287404 0.171677 0.0785283
0.287853 0.171643 0.0783099
0.288301 0.171609 0.0780915
0.288856 0.17152 0.0780988
0.28941 0.171431 0.0781062
0.289911 0.171369 0.0780006
0.290466 0.17128 0.0780079
0.29102 0.171191 0.0780154
0.291521 0.17113 0.0779098
0.29197 0.171096 0.0776914
0.292418 0.171062 0.077473
0.292708 0.171111 0.076916
0.293051 0.171132 0.0764718
0.293446 0.171126 0.0761405
0.293895 0.171092 0.0759221
0.294291 0.171085 0.0755909
0.294792 0.171024 0.0754853
0.29524 0.17099 0.0752669
0.295742 0.170929 0.0751613
0.296243 0.170867 0.0750559
0.296797 0.170778 0.0750632
0.297352 0.170689 0.0750706
0.2978 0.170655 0.0748522
0.298248 0.170621 0.0746338
0.29875 0.170559 0.0745282
0.299251 0.170498 0.0744228
0.299911 0.170354 0.0746557
0.300466 0.170265 0.0746631
0.301337 0.17001 0.0753477
0.302209 0.169755 0.0760324
0.30308 0.1695 0.0767169
0.303935 0.169246 0.0773665
0.30468 0.169048 0.0777834
0.305426 0.168849 0.0782001
0.30627 0.168596 0.0788287
0.307015 0.168397 0.0792455
0.307711 0.168226 0.0795565
0.308407 0.168055 0.0798674
0.308955 0.167966 0.0798607
0.309552 0.16785 0.0799599
0.310198 0.167706 0.080165
0.310795 0.16759 0.0802642
0.311342 0.167501 0.0802575
0.31189 0.167413 0.0802509
0.312487 0.167296 0.0803501
0.312985 0.167235 0.0802375
0.313532 0.167146 0.0802309
0.31403 0.167085 0.0801183
0.314528 0.167024 0.0800058
0.315026 0.166962 0.0798933
0.315574 0.166874 0.0798866
0.316072 0.166812 0.079774
0.31652 0.166778 0.0795555
0.317018 0.166717 0.0794431
0.317516 0.166656 0.0793305
0.317964 0.166622 0.0791121
0.318462 0.16656 0.0789996
0.31896 0.166499 0.0788871
0.319409 0.166465 0.0786687
0.319907 0.166404 0.0785561
0.320256 0.166425 0.078126
0.320606 0.166446 0.0776958
0.321005 0.166439 0.0773716
0.321503 0.166378 0.077259
0.322001 0.166317 0.0771465
0.322548 0.166228 0.0771398
0.323046 0.166166 0.0770273
0.323544 0.166105 0.0769148
0.323993 0.166071 0.0766964
0.324441 0.166037 0.076478
0.32484 0.166031 0.0761537
0.325289 0.165997 0.0759353
0.325737 0.165963 0.0757169
0.326186 0.165929 0.0754985
0.326585 0.165923 0.0751742
0.326984 0.165916 0.0748499
0.327432 0.165882 0.0746315
0.327881 0.165848 0.0744131
0.32828 0.165842 0.0740888
0.328728 0.165808 0.0738704
0.329177 0.165774 0.073652
0.329625 0.16574 0.0734336
0.330024 0.165734 0.0731094
0.330473 0.1657 0.0728909
0.330922 0.165666 0.0726725
0.33132 0.165659 0.0723483
0.331769 0.165626 0.0721298
0.332217 0.165592 0.0719114
0.332617 0.165585 0.0715872
0.333065 0.165551 0.0713688
0.333514 0.165517 0.0711504
0.333962 0.165484 0.070932
0.33441 0.16545 0.0707136
0.334859 0.165416 0.0704952
0.335258 0.165409 0.0701709
0.335657 0.165403 0.0698466
0.336106 0.165369 0.0696282
0.336505 0.165363 0.069304
0.336903 0.165356 0.0689797
0.337303 0.16535 0.0686554
0.337702 0.165343 0.0683311
0.338101 0.165337 0.0680069
0.3385 0.16533 0.0676826
0.338899 0.165324 0.0673584
0.339248 0.165345 0.0669282
0.339647 0.165338 0.0666039
0.339997 0.165359 0.0661737
0.340396 0.165353 0.0658495
0.340795 0.165346 0.0655252
0.341144 0.165367 0.0650951
0.341494 0.165388 0.064665
0.341794 0.165437 0.0641289
0.342144 0.165458 0.0636987
0.342345 0.165561 0.0629511
0.342546 0.165664 0.0622032
0.342895 0.165685 0.0617732
0.343245 0.165706 0.061343
0.343594 0.165727 0.0609129
0.343845 0.165803 0.060271
0.344145 0.165851 0.059735
0.344247 0.166009 0.0587755
0.344597 0.166031 0.0583454
0.344946 0.166051 0.0579152
0.345395 0.166018 0.0576968
0.345843 0.165984 0.0574784
0.346292 0.16595 0.05726
0.346691 0.165943 0.0569357
0.347139 0.165909 0.0567173
0.347588 0.165875 0.0564989
0.347987 0.165869 0.0561746
0.348386 0.165862 0.0558503
0.348735 0.165884 0.0554202
0.349085 0.165905 0.0549901
0.349484 0.165898 0.0546658
0.34983 0.165919 0.0542286
0.35012 0.165968 0.0536717
0.350463 0.165989 0.0532275
0.350699 0.166066 0.0525576
0.350989 0.166115 0.0520005
0.351226 0.166191 0.0513306
0.351357 0.166323 0.050435
0.351647 0.166372 0.049878
0.351831 0.166476 0.0490951
0.352069 0.166553 0.0484253
0.352411 0.166574 0.0479811
0.352754 0.166595 0.0475369
0.35315 0.166589 0.0472056
0.353545 0.166583 0.0468744
0.353941 0.166576 0.0465431
0.354389 0.166543 0.0463247
0.354732 0.166564 0.0458805
0.355075 0.166585 0.0454363
0.355312 0.166662 0.0447664
0.355549 0.166738 0.0440966
0.355733 0.166842 0.0433137
0.355864 0.166974 0.0424181
0.356048 0.167078 0.0416353
0.356179 0.16721 0.0407396
0.356311 0.167342 0.0398439
0.356389 0.167501 0.0388355
0.35652 0.167633 0.0379397
0.356757 0.167709 0.0372699
0.356941 0.167814 0.0364871
0.357125 0.167918 0.0357043
0.357309 0.168022 0.0349215
0.357441 0.168154 0.0340258
0.357572 0.168285 0.0331302
0.35765 0.168445 0.0321216
0.357676 0.168631 0.0310002
0.357437 0.168957 0.0293145
0.357779 0.168978 0.0288702
0.357911 0.16911 0.0279746
0.35783 0.169352 0.0266274
0.357803 0.169566 0.0253932
0.357775 0.169781 0.0241589
