ply
format ascii 1.0
element vertex 1214
property float x
property float y
property float z
property uchar diffuse_red
property uchar diffuse_green
property uchar diffuse_blue
end_header
0.29083 0.0911291 0.0238204 70 10 6
0.290627 0.0912338 0.0243192 68 10 6
0.290981 0.0911286 0.0242055 70 10 6
0.290273 0.0913541 0.024435 70 10 6
0.28991 0.0914813 0.0245488 71 10 6
0.289573 0.0916153 0.0246759 70 10 6
0.289213 0.0917067 0.0247635 70 9 6
0.288862 0.0917779 0.0248354 66 9 6
0.288524 0.0918269 0.0249317 66 8 5
0.288737 0.0916523 0.0244785 62 8 5
0.288953 0.0914856 0.0240298 67 9 6
0.289175 0.0913251 0.0235638 66 8 5
0.289381 0.0911765 0.0230964 63 8 5
0.289598 0.0910459 0.0226212 63 8 6
0.289729 0.091151 0.0229904 66 9 7
0.289866 0.0912329 0.0233673 71 9 6
0.290015 0.0912952 0.023737 70 9 6
0.290132 0.0913206 0.0240658 69 10 6
0.289518 0.0912788 0.0234615 67 9 6
0.289657 0.0913613 0.0238434 70 9 6
0.289305 0.0914364 0.0239295 68 9 6
0.289433 0.0915341 0.0243072 67 9 6
0.289799 0.0914326 0.0242317 69 9 5
0.289082 0.0916054 0.0243952 68 9 5
0.290324 0.0908474 0.0215382 61 8 6
0.290469 0.0909317 0.0219139 65 9 6
0.290616 0.0909999 0.0222948 68 10 7
0.290778 0.0910388 0.0226857 70 11 7
0.290935 0.0910615 0.023083 71 11 7
0.291281 0.0910119 0.0229884 71 11 7
0.291717 0.0909615 0.0230758 71 12 7
0.29442 0.0905908 0.0246776 79 11 6
0.294254 0.0907015 0.0243355 79 12 7
0.293936 0.0906716 0.0244702 79 12 7
0.293771 0.090763 0.0241217 78 12 7
0.293445 0.0907396 0.0242688 77 11 7
0.293315 0.0908011 0.0239793 77 12 7
0.293129 0.090726 0.024421 76 11 6
0.292983 0.0907908 0.0241183 76 12 7
0.292642 0.0908218 0.0242229 75 12 7
0.29215 0.0908869 0.0240516 73 11 7
0.291805 0.0909381 0.0242105 69 11 7
0.291339 0.0910393 0.0240692 68 10 6
0.293613 0.090651 0.0246211 77 11 7
0.293604 0.0908362 0.0237683 78 12 7
0.293143 0.0908677 0.0236172 77 13 8
0.292817 0.090862 0.023764 76 12 7
0.292486 0.0908627 0.0239033 73 11 7
0.292326 0.0908979 0.0235485 73 12 7
0.291993 0.0909298 0.0236847 72 12 7
0.292227 0.0909201 0.0233293 72 12 7
0.291885 0.0909395 0.0234486 70 11 7
0.292654 0.0909038 0.0234044 75 12 8
0.292978 0.090909 0.0232613 75 13 8
0.293305 0.0909389 0.0231166 77 13 8
0.29347 0.0908824 0.0234716 78 12 7
0.295718 0.0904407 0.0249308 78 10 4
0.295545 0.0905852 0.0245952 80 12 5
0.295379 0.0907107 0.0242567 81 12 6
0.295213 0.0908194 0.0239059 80 13 6
0.294726 0.0908719 0.023702 81 13 7
0.295867 0.0906253 0.0244545 81 11 6
0.2957 0.0907485 0.0241137 81 12 6
0.295526 0.0908536 0.0237645 81 12 7
0.295041 0.0909139 0.0235574 80 12 7
0.294559 0.090957 0.0233418 79 12 7
0.296018 0.0907755 0.0239687 81 12 7
0.29585 0.0908983 0.0236208 80 11 6
0.295363 0.0909528 0.0234173 80 12 7
0.29488 0.0910015 0.0232004 80 12 7
0.294427 0.0910202 0.0230685 80 13 7
0.294267 0.0910808 0.0227072 79 13 8
0.294272 0.089435 0.0274792 66 7 1
0.293955 0.0894978 0.0276907 64 6 1
0.29411 0.0896837 0.0272103 68 7 1
0.2938 0.0897474 0.0274181 68 7 1
0.293632 0.0899594 0.0271233 70 7 2
0.320558 0.0853919 0.0212393 181 184 153
0.320512 0.0857482 0.0212624 181 183 151
0.320464 0.086108 0.0212899 178 180 148
0.32056 0.0862247 0.0208788 179 178 145
0.320386 0.0864842 0.0212955 177 179 147
0.320418 0.0865905 0.0209224 176 178 146
0.320288 0.0868542 0.0213083 179 180 150
0.320247 0.0869604 0.0209874 182 181 149
0.320151 0.0872464 0.0212889 179 181 149
0.320093 0.087328 0.0210352 184 181 149
0.320014 0.0875606 0.0215026 186 183 151
0.319939 0.0876925 0.021078 180 175 143
0.319751 0.0880391 0.021147 175 172 139
0.319494 0.0884482 0.0211527 180 169 135
0.319253 0.0888482 0.0211659 184 167 130
0.319096 0.0892053 0.0212384 185 157 118
0.31896 0.0895501 0.0213148 187 154 115
0.318872 0.0899151 0.0213656 188 145 104
0.318982 0.0900118 0.0209961 184 138 96
0.318944 0.0903624 0.0210846 183 135 95
0.319086 0.0901225 0.0206238 183 135 95
0.319069 0.090464 0.0207114 184 131 93
0.319197 0.0905648 0.0203403 180 126 88
0.319174 0.0909084 0.0204352 178 125 87
0.319309 0.090669 0.019973 182 128 90
0.319289 0.0910127 0.0200573 180 125 87
0.319391 0.0907748 0.0195986 182 130 93
0.319362 0.0911206 0.0196791 178 123 87
0.31945 0.0908871 0.0192194 182 135 98
0.319398 0.0912372 0.019295 182 129 92
0.319481 0.0910083 0.0188177 179 136 99
0.319412 0.0913513 0.0188987 177 132 98
0.319576 0.091125 0.0184384 183 142 108
0.319464 0.0914695 0.0185157 179 136 104
0.319604 0.091563 0.0181598 180 141 109
0.319471 0.0919347 0.0182218 175 136 107
0.31966 0.0920143 0.0178703 180 145 117
0.319517 0.0923744 0.0179254 178 142 119
0.319684 0.0924543 0.0175592 181 153 128
0.319549 0.092821 0.0176118 175 149 126
0.319766 0.0925795 0.0171729 181 161 132
0.319649 0.0929344 0.0172394 177 156 128
0.31972 0.092704 0.0167498 182 164 133
0.319609 0.093056 0.0168426 175 157 128
0.31985 0.092347 0.0167057 185 168 136
0.319971 0.0919678 0.0166879 183 167 133
0.320096 0.091608 0.0166332 180 163 131
0.320188 0.0912602 0.0165196 179 161 129
0.320271 0.0909019 0.016461 180 162 131
0.320348 0.0905481 0.0163817 178 158 125
0.320424 0.0902002 0.0163134 180 158 125
0.320477 0.0898541 0.0162207 180 154 121
0.320533 0.0895025 0.0161447 177 151 116
0.320542 0.0891612 0.0160472 169 140 106
0.319899 0.0922117 0.0171204 186 168 136
0.32002 0.0918445 0.0170775 188 170 138
0.32016 0.091485 0.0170212 187 168 136
0.320288 0.0911112 0.0169713 187 169 136
0.320387 0.0907557 0.0168827 185 168 137
0.320485 0.0904046 0.0168151 184 164 130
0.320569 0.0900494 0.0167466 186 167 133
0.320636 0.0897035 0.0166709 183 165 128
0.320679 0.0893574 0.0165792 179 161 125
0.320718 0.08901 0.0164952 178 156 118
0.319829 0.0921096 0.0174984 187 165 135
0.319974 0.0917292 0.0174711 190 167 136
0.320134 0.091359 0.0174132 191 167 136
0.320285 0.0909913 0.0173412 198 174 140
0.320424 0.090632 0.0172898 196 174 142
0.320557 0.0902662 0.0172378 199 179 142
0.320647 0.0899277 0.0171478 197 175 138
0.320722 0.0895741 0.0170782 187 171 137
0.320794 0.089217 0.0170117 189 170 139
0.320803 0.0888764 0.0169249 183 163 128
0.320807 0.0885418 0.0168164 182 159 128
0.320883 0.0884038 0.0172524 187 169 135
0.320843 0.0880688 0.0171401 186 167 132
0.320839 0.0882996 0.017615 188 171 139
0.320813 0.08796 0.017518 190 172 138
0.32075 0.0881851 0.0180042 191 178 144
0.320752 0.0878473 0.0179098 191 176 143
0.320646 0.0877461 0.0182871 193 182 148
0.320738 0.0875081 0.0178179 186 173 138
0.320655 0.0873982 0.018201 187 177 142
0.320723 0.087173 0.017722 178 164 131
0.320659 0.0870565 0.0181042 178 166 135
0.320776 0.0876274 0.0174205 183 164 131
0.319823 0.0916444 0.0178092 187 159 131
0.31999 0.0912577 0.0177601 195 168 134
0.320189 0.0908847 0.0176963 197 172 137
0.319753 0.0912014 0.0181032 187 152 123
0.319955 0.0908123 0.0180391 192 163 130
0.320157 0.0904275 0.0179968 198 171 136
0.320351 0.0905159 0.0176576 201 176 142
0.320346 0.0900623 0.0179537 198 177 142
0.320489 0.0901525 0.0176199 202 178 143
0.320523 0.0896985 0.0179302 195 179 144
0.320643 0.0897976 0.0175536 198 181 145
0.320682 0.0893381 0.0178666 196 182 147
0.320769 0.089439 0.0174922 194 179 143
0.320845 0.089088 0.0174292 190 174 141
0.319719 0.0907379 0.0183874 186 150 118
0.319907 0.0903648 0.0183618 187 158 122
0.320146 0.0899835 0.0183086 195 172 137
0.320368 0.0896006 0.0182687 195 175 141
0.320554 0.0892264 0.018231 195 180 147
0.320783 0.0889679 0.0178126 192 179 145
0.320884 0.0887378 0.0173523 186 166 133
0.31959 0.0906472 0.0187513 181 142 105
0.319718 0.0902794 0.0187019 185 150 113
0.319514 0.0905355 0.0191383 184 142 104
0.319613 0.0901777 0.0190636 184 142 104
0.319486 0.0900841 0.0194391 184 142 104
0.319563 0.0897327 0.0193631 185 145 108
0.31938 0.089642 0.0197232 189 150 110
0.319453 0.0892942 0.0196474 192 162 116
0.319296 0.0892005 0.0200053 192 167 124
0.319367 0.0888454 0.0199447 193 170 128
0.319212 0.0890793 0.0204023 191 162 119
0.319319 0.0887257 0.0203047 191 173 132
0.319216 0.0889667 0.0207811 189 164 126
0.319354 0.0885987 0.0207091 185 167 129
0.319116 0.0893162 0.0208567 187 159 121
0.319039 0.0896731 0.020918 187 149 106
0.319158 0.0894343 0.0204626 192 159 116
0.319121 0.0897749 0.020543 186 141 99
0.319249 0.0895445 0.0200819 191 151 108
0.319229 0.0898788 0.0201699 186 140 100
0.319215 0.090222 0.0202579 184 131 93
0.319335 0.0903218 0.0198873 183 132 94
0.319433 0.0904353 0.0195141 182 135 98
0.319347 0.0899806 0.0198013 185 140 102
0.319932 0.089909 0.0186671 188 159 124
0.320169 0.0895205 0.0186289 193 172 137
0.320372 0.0891416 0.0185833 193 176 144
0.320513 0.0887764 0.0185196 192 179 145
0.320674 0.0888699 0.0181689 192 177 145
0.320596 0.0884226 0.0184552 192 181 147
0.320737 0.0885277 0.0180933 191 178 144
0.320837 0.0886341 0.0177147 191 174 141
0.320489 0.0863518 0.020441 168 171 143
0.320287 0.086722 0.0205061 180 178 147
0.320101 0.0871046 0.0205527 182 177 145
0.319934 0.0874735 0.0206151 179 175 143
0.319771 0.0878274 0.020665 180 171 139
0.319559 0.0882027 0.0206691 184 169 134
0.320355 0.0864749 0.0200273 172 173 144
0.320115 0.0868841 0.0200449 183 178 148
0.319951 0.0872513 0.0200956 187 181 149
0.319773 0.0876529 0.0201267 190 182 148
0.319629 0.0879866 0.0202207 192 179 143
0.319466 0.0883545 0.0202459 191 178 141
0.320258 0.0866401 0.0195886 181 179 149
0.320077 0.0870036 0.0196876 188 185 153
0.31995 0.0873788 0.0197267 193 188 153
0.319832 0.0877446 0.0197601 192 184 150
0.319703 0.0881006 0.0198159 196 185 146
0.319916 0.0881818 0.0194701 193 184 149
0.319751 0.0885519 0.0195221 196 179 138
0.32006 0.0886051 0.0191772 192 175 140
0.319871 0.0889868 0.0192379 193 171 132
0.320154 0.0890618 0.0189172 192 174 140
0.319945 0.0894382 0.0189592 187 161 123
0.32031 0.0886856 0.0188655 191 175 143
0.320422 0.0883375 0.0187943 193 182 147
0.32048 0.0879899 0.0187269 190 185 151
0.320627 0.0880853 0.0183763 193 181 147
0.320514 0.0876435 0.0186461 190 185 150
0.320532 0.0872999 0.0185583 190 183 149
0.320573 0.0869551 0.0184803 186 178 146
0.320434 0.0868545 0.0188431 187 182 150
0.320365 0.0872085 0.0189121 187 186 152
0.320202 0.0871135 0.0192837 189 186 155
0.320333 0.0875549 0.018992 187 183 149
0.320127 0.0874676 0.0193378 191 186 153
0.320288 0.0879022 0.0190706 188 183 150
0.320041 0.0878296 0.0194094 193 185 151
0.320202 0.0882509 0.0191239 192 183 147
0.320291 0.086741 0.0192643 186 184 152
0.317326 0.081561 0.0196709 177 168 133
0.317578 0.0818004 0.0194491 178 167 133
0.317814 0.0820321 0.0192087 178 164 130
0.31796 0.0822104 0.0191259 174 160 127
0.31813 0.0825273 0.0192835 171 161 131
0.318188 0.0824147 0.0188737 170 159 128
0.318409 0.0826812 0.0190803 167 159 130
0.318604 0.0827709 0.0189126 163 155 129
0.318694 0.0828194 0.0188822 163 155 129
0.318886 0.0828945 0.0186242 157 151 128
0.318998 0.0829469 0.0187065 158 151 128
0.319187 0.0831936 0.0183133 151 145 123
0.319273 0.0831374 0.0185079 153 149 128
0.319464 0.0834257 0.0181352 139 135 118
0.319643 0.083263 0.018555 138 141 124
0.319946 0.083424 0.0183911 124 127 118
0.319755 0.0832008 0.0187912 135 140 125
0.320135 0.0833087 0.0188055 132 136 126
0.319955 0.0831336 0.0192242 143 145 129
0.320252 0.0832842 0.0190511 128 136 126
0.320434 0.083293 0.0194435 136 138 124
0.320626 0.0834639 0.0190538 118 124 114
0.320778 0.0834418 0.0192809 142 139 117
0.320995 0.083696 0.0190439 131 128 111
0.321101 0.0838388 0.0194052 150 141 114
0.321307 0.0841475 0.0191137 154 146 117
0.321288 0.0841029 0.0192147 156 147 117
0.321435 0.0845341 0.018939 153 142 115
0.321354 0.0844285 0.019325 167 155 123
0.321456 0.0848654 0.0190434 158 145 116
0.321359 0.0847602 0.0194195 165 156 125
0.321323 0.0851103 0.019499 161 156 126
0.321206 0.0850066 0.0198667 163 158 129
0.321124 0.0853526 0.0199379 162 162 134
0.321074 0.084909 0.020235 167 165 135
0.321014 0.0852575 0.0203137 169 167 138
0.320909 0.0848198 0.020587 175 171 141
0.320879 0.0851581 0.020674 171 170 141
0.32072 0.0847343 0.0209289 176 177 145
0.321158 0.0854484 0.0195461 151 150 125
0.321147 0.0855472 0.0191542 154 156 131
0.32113 0.0856619 0.0187479 139 138 116
0.321138 0.0857811 0.0183554 131 125 101
0.321056 0.0859311 0.0179235 128 119 98
0.320853 0.0861071 0.0174752 108 95 78
0.320668 0.0862856 0.0170268 113 99 80
0.320568 0.0867447 0.0167071 123 109 90
0.320558 0.0872268 0.0163996 127 109 86
0.320664 0.0875473 0.0165042 153 134 106
0.320538 0.0876906 0.016057 133 112 88
0.320614 0.0880223 0.0161714 154 127 95
0.32046 0.0881624 0.0157493 144 112 79
0.321369 0.0852056 0.0191154 151 148 122
0.321346 0.0853281 0.0187052 141 137 113
0.321278 0.085425 0.0182931 110 100 81
0.32116 0.0855106 0.0178749 91 80 61
0.320883 0.085768 0.0174147 89 77 64
0.321462 0.0849911 0.0186373 144 137 111
0.32134 0.085119 0.0182179 124 115 94
0.321093 0.0854557 0.0178747 110 99 77
0.321411 0.084468 0.0187563 155 143 116
0.321406 0.0848091 0.01838 120 107 84
0.321295 0.084355 0.0184296 130 122 102
0.32118 0.0843955 0.0180655 103 105 98
0.320945 0.0840585 0.0182333 98 105 100
0.320716 0.084305 0.0178039 98 101 96
0.320481 0.0839688 0.0179586 107 110 105
0.320403 0.0840671 0.0178584 108 111 103
0.320116 0.0838137 0.017938 128 126 116
0.31997 0.0840326 0.017729 124 121 111
0.319743 0.0836966 0.0179322 128 125 112
0.319632 0.0838424 0.0177453 130 126 111
0.319377 0.0836004 0.0178322 139 133 115
0.319362 0.083848 0.0175873 136 129 114
0.319204 0.0835522 0.0177682 139 133 115
0.319112 0.0838613 0.0173539 134 128 109
0.318901 0.08351 0.0175242 145 136 114
0.318841 0.0837799 0.0171522 131 125 106
0.318666 0.0835099 0.0172585 139 129 110
0.3186 0.0837665 0.0168762 128 122 104
0.318449 0.0834173 0.017033 130 123 104
0.318271 0.0835209 0.0166929 117 112 97
0.318226 0.0833486 0.0167881 121 117 100
0.317996 0.0833195 0.0165112 116 112 97
0.318118 0.0830317 0.0169052 126 120 102
0.317898 0.0829613 0.0166392 118 116 99
0.318022 0.0826799 0.0170449 130 121 105
0.317803 0.0826199 0.016778 123 118 102
0.317902 0.0822817 0.0172021 135 128 111
0.317714 0.0822175 0.0169039 126 122 107
0.317603 0.0818787 0.0170592 132 128 110
0.3175 0.0821049 0.0166463 116 114 101
0.317375 0.0816936 0.0168144 126 123 108
0.317277 0.0820244 0.0163816 114 112 101
0.317166 0.0815975 0.0165412 121 120 108
0.317057 0.0819445 0.016116 103 103 95
0.317232 0.0813337 0.0170037 134 130 111
0.317259 0.0811267 0.0174894 150 141 117
0.317243 0.0810005 0.0180061 160 148 121
0.317323 0.0810903 0.0184097 162 150 121
0.317425 0.0814478 0.0172893 142 136 114
0.317432 0.0812839 0.0177891 153 144 118
0.317403 0.081182 0.0183197 162 150 122
0.317539 0.0813922 0.0186401 167 155 124
0.317507 0.0814937 0.0191484 171 160 127
0.317746 0.0817556 0.0189141 170 157 126
0.317763 0.081918 0.017383 140 134 114
0.317607 0.0815792 0.017578 145 138 116
0.317787 0.0817451 0.0178801 156 145 119
0.317598 0.0814533 0.0180977 160 150 122
0.31775 0.0816361 0.0184106 165 154 124
0.317868 0.0818687 0.018739 169 154 122
0.318076 0.0821253 0.0185149 167 154 124
0.318282 0.0823951 0.0182922 162 151 124
0.318431 0.0826107 0.0186134 165 154 126
0.318476 0.0826682 0.0180767 158 146 121
0.318659 0.0828127 0.0183667 162 153 126
0.318642 0.0829677 0.0178711 154 142 119
0.318881 0.0830573 0.0181322 158 150 124
0.318771 0.0832082 0.0177362 148 138 116
0.319049 0.0833355 0.0179104 149 141 121
0.319301 0.0833343 0.0181442 138 135 118
0.317956 0.0820545 0.0176743 152 143 118
0.317944 0.0819083 0.0181899 163 151 123
0.31813 0.0822114 0.017975 159 149 123
0.318285 0.0825273 0.0177801 150 139 116
0.318411 0.0828134 0.0176337 151 140 117
0.318541 0.0831618 0.0174532 143 134 113
0.318101 0.0823953 0.0174862 145 133 114
0.318228 0.0827827 0.0173221 141 131 109
0.318327 0.0831055 0.017163 138 130 109
0.321179 0.0839759 0.0187205 130 121 99
0.32108 0.0839517 0.0185045 119 117 103
0.320712 0.083718 0.0184454 114 120 114
0.320614 0.0837742 0.0182352 114 120 114
0.320426 0.0835002 0.018625 123 129 122
0.320219 0.0836534 0.0181738 117 120 113
0.320899 0.0836751 0.0188524 114 118 107
0.318552 0.0827771 0.0194648 165 157 130
0.319029 0.0828933 0.0197148 161 158 135
0.3192 0.082934 0.0201287 164 164 143
0.319511 0.0829878 0.0199757 157 157 138
0.319665 0.0830751 0.0203687 160 160 138
0.319977 0.0831487 0.0202056 154 154 133
0.320049 0.0832186 0.020401 156 154 131
0.32033 0.0833309 0.0201881 157 153 128
0.320418 0.0835728 0.0204901 164 158 128
0.320611 0.0834826 0.0199709 158 150 124
0.320688 0.0837706 0.0202899 175 164 134
0.32094 0.0839661 0.0200084 166 155 128
0.320749 0.084117 0.0205374 178 170 138
0.320852 0.0841558 0.0203854 174 166 136
0.32069 0.0844012 0.0208244 182 178 145
0.320904 0.0844804 0.0204947 176 169 139
0.320531 0.0843558 0.0210205 181 181 149
0.320276 0.0843034 0.0212898 186 187 153
0.320486 0.0839051 0.020758 178 176 145
0.318856 0.0828689 0.0192989 164 157 131
0.319339 0.0829644 0.0195599 157 156 136
0.319828 0.0830732 0.0198308 150 149 132
0.320286 0.0832446 0.0200291 151 148 125
0.319158 0.0829478 0.0191283 154 154 133
0.319651 0.0830323 0.0194038 150 151 133
0.320131 0.0831686 0.0196549 144 144 127
0.320478 0.0833219 0.0195824 146 144 125
0.320875 0.0836591 0.0197102 157 149 122
0.321136 0.0840078 0.0195748 154 147 120
0.321213 0.0843302 0.0196885 163 156 126
0.319465 0.0830605 0.0189472 144 146 129
0.317534 0.08287 0.0207019 179 177 146
0.31721 0.0828484 0.0208175 180 179 148
0.316882 0.0827865 0.0209487 188 191 156
0.317302 0.0831104 0.0211017 180 181 152
0.31695 0.0831471 0.0211883 183 183 152
0.317419 0.083342 0.0214308 184 184 156
0.317055 0.083424 0.0214855 187 191 159
0.317517 0.0835699 0.0217332 188 193 160
0.317161 0.0836415 0.0218099 183 189 157
0.317603 0.0838194 0.0220256 192 197 163
0.317251 0.0838587 0.0221234 183 190 160
0.317671 0.0840691 0.0223184 195 203 168
0.317323 0.0841229 0.022414 189 200 164
0.317734 0.0843382 0.0226077 201 203 170
0.317377 0.08437 0.022692 198 201 168
0.317744 0.0844421 0.022707 201 202 170
0.317411 0.0845525 0.0228711 197 204 168
0.317758 0.0845516 0.0227891 202 204 171
0.317473 0.0848884 0.0231134 200 202 167
0.317891 0.0847876 0.0229204 202 205 169
0.317567 0.085089 0.0232333 199 201 166
0.317996 0.0850945 0.0230751 201 205 167
0.317656 0.0853902 0.0233906 201 204 168
0.31807 0.0853953 0.0232437 200 199 165
0.317748 0.0856999 0.0235406 199 199 164
0.318127 0.0857123 0.023379 203 203 168
0.317802 0.0860187 0.0236747 201 202 167
0.318166 0.0860334 0.0234986 204 201 166
0.31786 0.0863409 0.0237878 197 196 162
0.318205 0.0863672 0.0236079 200 196 161
0.318226 0.0867003 0.0236998 197 194 159
0.318571 0.0867327 0.0234845 196 193 159
0.318568 0.0870736 0.0235489 195 191 157
0.318888 0.0871146 0.0233212 194 188 156
0.318865 0.0874601 0.0233677 187 182 149
0.319177 0.0871673 0.0230611 193 190 157
0.319147 0.0875228 0.0230961 189 185 152
0.319453 0.0872242 0.0227823 188 187 155
0.319402 0.0875819 0.0228021 188 183 151
0.31969 0.0872954 0.0224644 191 188 155
0.31962 0.0876661 0.0224757 190 188 153
0.319784 0.0877732 0.0220788 190 184 151
0.319736 0.0869379 0.0224379 195 194 160
0.319753 0.0865847 0.0223741 191 190 155
0.319756 0.0862444 0.0223034 193 194 160
0.319741 0.0859036 0.022214 195 195 160
0.319734 0.0855636 0.0221346 194 195 162
0.319429 0.0855147 0.0223921 194 198 163
0.319402 0.0851809 0.0222975 194 199 165
0.319107 0.0854731 0.0226327 199 201 167
0.319074 0.0851449 0.0225269 199 202 169
0.318779 0.0854354 0.0228598 201 201 168
0.318734 0.0851157 0.0227335 202 202 168
0.318441 0.0854049 0.0230716 204 202 167
0.318374 0.085098 0.0229206 202 201 168
0.318486 0.0857307 0.0231939 202 200 167
0.318526 0.0860607 0.0233013 201 200 166
0.318554 0.0863908 0.0233977 198 195 161
0.318869 0.0864335 0.023165 194 193 159
0.318875 0.0867759 0.0232395 192 189 157
0.319184 0.0868194 0.0229939 193 190 158
0.319732 0.0852202 0.0220624 193 196 160
0.319377 0.084846 0.0221934 194 199 165
0.319474 0.0868771 0.0227253 190 189 157
0.319469 0.0865309 0.022649 193 190 158
0.319467 0.086189 0.0225744 193 193 159
0.319154 0.0861489 0.0228214 197 196 162
0.319133 0.0858062 0.0227262 198 201 165
0.318817 0.0857676 0.0229679 198 199 166
0.319443 0.0858519 0.0224798 193 193 159
0.31917 0.0864823 0.0229062 193 193 158
0.318848 0.0860985 0.0230726 196 197 165
0.316568 0.0827185 0.0210981 194 193 158
0.316252 0.0826417 0.0212366 196 200 162
0.316594 0.0831447 0.0212718 191 193 157
0.316256 0.083126 0.0213879 196 198 162
0.315919 0.0831044 0.0215156 200 203 164
0.31596 0.0835344 0.0217003 196 197 160
0.315611 0.0835057 0.0218167 204 201 158
0.316071 0.0838945 0.0219613 184 182 154
0.315683 0.0839942 0.0220388 197 190 145
0.316177 0.0841927 0.02226 166 175 155
0.315773 0.0842866 0.0223546 181 176 148
0.31625 0.0844239 0.0225766 162 174 152
0.315868 0.0844668 0.02273 179 178 148
0.316259 0.084599 0.0229134 171 179 152
0.3159 0.0845911 0.0230224 176 179 149
0.316021 0.0847321 0.0232396 176 179 148
0.315646 0.0845382 0.023262 172 171 143
0.315711 0.0846632 0.0235146 178 177 146
0.315336 0.0843104 0.0233699 176 177 147
0.315501 0.084584 0.0238418 175 177 146
0.315197 0.0842524 0.0238754 175 174 144
0.31522 0.0843399 0.0240554 178 178 146
0.314838 0.0839681 0.0242549 178 177 146
0.314946 0.0842109 0.0245051 184 181 149
0.314541 0.0838547 0.0246553 182 182 150
0.314631 0.0841283 0.0249091 185 183 151
0.314497 0.0839469 0.024855 184 183 151
0.314343 0.0840697 0.0251669 183 184 152
0.314236 0.0838998 0.025083 183 184 152
0.314309 0.0843034 0.0254072 182 182 150
0.313947 0.0838477 0.0252691 181 182 149
0.31401 0.0842441 0.025563 179 180 149
0.313633 0.0837994 0.0254135 181 182 150
0.313687 0.0841974 0.0256879 180 182 150
0.313362 0.0841485 0.0257838 178 178 147
0.313386 0.0845291 0.0259766 172 173 143
0.313034 0.0844806 0.0260071 171 171 144
0.313027 0.0848697 0.0261421 165 164 139
0.312645 0.0848125 0.026111 160 161 136
0.312606 0.0852007 0.0261757 159 157 135
0.312234 0.0848885 0.0260549 156 155 134
0.312193 0.0852885 0.0260609 156 152 131
0.311785 0.0850785 0.0259005 156 153 131
0.312026 0.0854941 0.0259891 158 151 131
0.311612 0.0852174 0.0258034 158 152 130
0.311679 0.085581 0.0257948 160 153 131
0.311268 0.0853194 0.0255684 158 150 128
0.311343 0.0856819 0.0255468 157 148 127
0.310935 0.0854195 0.0253358 157 148 125
0.311002 0.0857957 0.0252824 160 150 125
0.310591 0.0855342 0.0250827 156 146 119
0.310672 0.0859195 0.0250083 159 145 120
0.310231 0.0856163 0.0249168 157 146 119
0.310323 0.0859979 0.0248158 157 142 116
0.309922 0.0860435 0.0247732 160 147 118
0.310033 0.0864407 0.0246566 156 137 109
0.309601 0.0864618 0.0247015 158 141 116
0.309682 0.0868551 0.0245932 159 137 111
0.309239 0.0868574 0.0246993 155 135 110
0.309329 0.0872471 0.024609 152 127 100
0.308888 0.0872588 0.0246824 150 133 108
0.308981 0.0876444 0.024609 148 128 100
0.308575 0.0876783 0.0246415 148 129 101
0.308633 0.0880502 0.0245976 144 124 96
0.308223 0.0880798 0.024598 136 123 98
0.308506 0.0884321 0.02459 139 122 95
0.308087 0.0884719 0.0245836 140 126 99
0.308546 0.0887804 0.0246411 137 118 92
0.308103 0.0888357 0.024586 137 122 96
0.308567 0.0891247 0.0247343 137 113 88
0.308136 0.0891965 0.0246058 141 120 92
0.308599 0.0894618 0.0248474 140 114 88
0.308156 0.0895366 0.024681 142 121 92
0.308198 0.0898807 0.0247668 145 117 89
0.307704 0.0896039 0.0245932 146 132 100
0.307744 0.0899563 0.0246489 154 130 97
0.307289 0.0896408 0.0246095 145 138 110
0.307296 0.0900087 0.0246141 151 137 103
0.306881 0.089645 0.024705 130 128 110
0.306884 0.0900319 0.0246696 133 130 107
0.306588 0.0896071 0.024734 124 127 113
0.306512 0.0900259 0.024729 130 133 116
0.306205 0.0895528 0.0247358 112 121 111
0.306137 0.089946 0.0247156 119 124 112
0.305789 0.089491 0.0246255 104 117 109
0.305705 0.0898879 0.024594 102 115 108
0.305326 0.0894323 0.0244304 84 101 95
0.306041 0.0903404 0.0246537 122 129 115
0.30642 0.0904381 0.0246724 131 134 119
0.306685 0.0908973 0.0245725 146 139 111
0.306864 0.0911889 0.0245305 149 140 113
0.307311 0.0914907 0.0245805 156 136 102
0.307789 0.0917432 0.0247746 158 123 91
0.307995 0.0920636 0.0248866 159 125 92
0.308411 0.0923478 0.025044 162 120 88
0.308838 0.0926265 0.0252136 161 121 90
0.309279 0.0928972 0.0253197 161 124 91
0.309657 0.0928484 0.0254215 163 123 90
0.309733 0.0931999 0.0254193 158 124 95
0.310047 0.0927833 0.0254917 164 121 88
0.310112 0.0931554 0.025475 156 120 95
0.310457 0.0927416 0.0255307 159 115 84
0.310532 0.0931172 0.0254744 154 117 91
0.310881 0.0927044 0.0255232 161 115 84
0.310957 0.0930946 0.0254534 155 116 90
0.311297 0.0926966 0.0254799 161 111 80
0.311407 0.0930878 0.0253536 155 112 85
0.311722 0.0926714 0.0254781 162 109 78
0.311836 0.0930697 0.0253152 161 114 85
0.31211 0.0925875 0.0255333 154 105 78
0.312225 0.0930102 0.0253402 155 108 81
0.312551 0.0925735 0.0254699 142 101 73
0.312648 0.092956 0.0253582 148 103 75
0.312953 0.0925271 0.0254663 140 98 70
0.313043 0.0928956 0.0254054 140 98 71
0.313343 0.092482 0.025469 137 95 66
0.313415 0.0928475 0.0254399 139 94 67
0.31378 0.092423 0.0254986 139 94 63
0.313821 0.0927949 0.0254972 139 92 63
0.314179 0.0927288 0.0256044 143 92 62
0.31424 0.0930856 0.0256152 143 93 63
0.314616 0.0930048 0.0257612 153 99 67
0.314601 0.0933794 0.0257593 153 100 68
0.314768 0.0929729 0.0258218 158 102 70
0.315274 0.0932644 0.0259565 176 118 80
0.315411 0.0928647 0.0260302 175 115 77
0.315749 0.0932421 0.0258731 175 116 82
0.315897 0.0928327 0.0259644 176 115 79
0.316006 0.093305 0.0256242 175 117 85
0.316218 0.0928812 0.0257038 158 106 77
0.316371 0.0929889 0.0253549 149 101 75
0.316572 0.0925701 0.0254817 153 104 75
0.31668 0.0927082 0.0250334 150 99 69
0.31689 0.0922703 0.0251658 147 98 69
0.316951 0.0924211 0.0246773 155 101 70
0.317152 0.0919939 0.024809 155 102 69
0.317185 0.092146 0.0242871 166 106 73
0.317359 0.0917271 0.0243948 166 108 74
0.317427 0.0918642 0.0239083 173 112 76
0.317544 0.091469 0.0239568 171 113 78
0.317633 0.0916107 0.0234641 177 117 80
0.317703 0.0912339 0.0234697 178 121 83
0.317831 0.0913529 0.0230386 181 120 84
0.317861 0.0909889 0.0229998 180 123 86
0.318052 0.0910743 0.0226581 182 125 89
0.318069 0.0907229 0.0226049 176 126 90
0.318326 0.09079 0.0223018 181 129 91
0.318335 0.0904388 0.0222337 178 132 95
0.318299 0.0911392 0.0223439 177 124 87
0.318032 0.0914303 0.0226984 176 119 83
0.317781 0.0917172 0.0230567 180 118 82
0.317526 0.0919962 0.0234378 176 114 76
0.317283 0.0922709 0.0238259 172 111 77
0.31702 0.0925566 0.0241919 164 105 72
0.316752 0.0928412 0.0245522 160 105 73
0.316485 0.0931234 0.0249138 160 108 77
0.316197 0.0933934 0.0252687 172 118 86
0.315942 0.0936894 0.0255857 167 116 88
0.315618 0.0936287 0.025843 175 117 83
0.31583 0.0940575 0.0255977 178 128 96
0.315475 0.0940193 0.025834 181 123 89
0.315725 0.0944176 0.0255863 181 129 95
0.315378 0.0944034 0.0257637 176 121 86
0.315674 0.094786 0.0255954 182 129 94
0.315304 0.0947843 0.0257421 169 116 82
0.315644 0.0951463 0.0256232 174 122 88
0.315275 0.0951588 0.0257527 171 118 83
0.315663 0.0955187 0.0256988 173 122 90
0.315335 0.0955724 0.0258004 176 124 89
0.315677 0.0958693 0.0258003 183 132 100
0.31534 0.0958566 0.0259518 179 130 97
0.31526 0.095953 0.0259988 180 131 97
0.314955 0.0957153 0.0259242 180 128 92
0.314715 0.0959643 0.0260553 183 135 98
0.314595 0.0954981 0.0258332 174 122 86
0.31435 0.0957524 0.0259406 178 131 95
0.314097 0.0952321 0.0257181 165 117 84
0.314008 0.0955542 0.0258332 172 128 93
0.313694 0.0953538 0.0257504 166 123 89
0.313571 0.0955742 0.0259264 170 131 97
0.313262 0.0953279 0.0258595 164 127 97
0.313375 0.095698 0.0261786 180 147 107
0.313083 0.0954334 0.0261306 173 141 108
0.313239 0.0957735 0.0265093 178 151 117
0.312935 0.0955075 0.0264701 174 148 118
0.3131 0.0958109 0.0268889 178 153 119
0.312807 0.0955487 0.0268452 177 153 122
0.312953 0.0958733 0.0272602 185 165 133
0.312647 0.0956251 0.0271991 178 160 134
0.312771 0.0959988 0.0275588 189 174 143
0.31245 0.0957702 0.0274846 181 170 140
0.312257 0.095943 0.0277208 181 174 146
0.311931 0.0957279 0.0276183 173 169 145
0.31213 0.0955297 0.0273998 171 165 139
0.312329 0.0953711 0.027135 166 156 133
0.312496 0.0952889 0.026801 170 153 124
0.31264 0.0952374 0.026426 167 147 118
0.312777 0.0951713 0.0260759 168 140 109
0.312947 0.095062 0.0257909 164 128 97
0.313075 0.0951177 0.0257694 164 128 97
0.313437 0.0951915 0.0256963 160 120 91
0.313131 0.0950547 0.0256954 162 125 95
0.313633 0.0950043 0.0256143 152 108 78
0.313328 0.09471 0.025488 144 104 75
0.313732 0.0946414 0.0255434 139 95 67
0.313614 0.0942992 0.0254948 131 92 66
0.314018 0.0942351 0.0255885 140 95 67
0.313593 0.093931 0.0254911 132 91 66
0.313974 0.093876 0.0255816 138 95 66
0.313915 0.0935171 0.0255381 133 89 62
0.314351 0.0937947 0.0256807 144 98 67
0.314297 0.0934463 0.0256518 144 95 65
0.312941 0.0947374 0.0255509 150 114 86
0.313233 0.094363 0.025446 134 96 69
0.313206 0.0940012 0.0254014 131 93 68
0.313537 0.0935735 0.0254584 132 91 66
0.313864 0.0931536 0.02551 135 89 62
0.314073 0.0949304 0.0256481 150 103 72
0.314345 0.0951269 0.0257115 161 113 80
0.314398 0.0948851 0.0256908 154 105 73
0.314695 0.0951289 0.0257267 167 117 82
0.314868 0.0948278 0.0257249 159 110 77
0.314633 0.0952393 0.0257473 167 117 82
0.315068 0.0954264 0.0257898 173 121 87
0.314089 0.0946009 0.0256309 142 96 66
0.31445 0.0945278 0.0256949 144 96 67
0.314923 0.0944456 0.0257672 156 106 73
0.318273 0.0914997 0.0223864 176 119 82
0.317985 0.0917897 0.0227263 176 116 80
0.3177 0.0920889 0.0230568 179 116 76
0.317405 0.0923955 0.0233605 176 115 78
0.317112 0.0926781 0.0237356 170 109 75
0.316843 0.0929691 0.0240911 166 108 75
0.316573 0.0932436 0.0244519 170 114 81
0.316337 0.0935133 0.0248442 172 120 85
0.316113 0.0937784 0.0252404 162 117 90
0.318222 0.0918624 0.0224115 171 112 77
0.31794 0.0921492 0.0227532 177 112 79
0.317616 0.0924544 0.0230541 175 113 76
0.31727 0.0927819 0.0233336 174 113 77
0.316959 0.0930939 0.0236559 172 112 77
0.316679 0.0933795 0.0239967 175 117 82
0.316447 0.0936398 0.0243957 181 123 89
0.316261 0.0938888 0.0248293 174 124 94
0.316036 0.0941502 0.0252508 186 132 100
0.318174 0.0922233 0.0224379 166 108 75
0.317873 0.0925104 0.0227585 176 112 75
0.317514 0.0928321 0.023027 176 114 75
0.317121 0.0931936 0.0232692 177 115 79
0.31681 0.0934892 0.0235857 181 121 83
0.316569 0.0937674 0.0239576 188 126 88
0.316363 0.0940172 0.0243858 188 131 98
0.316196 0.0942488 0.02487 192 137 102
0.31598 0.09451 0.0252778 186 132 99
0.318118 0.0925902 0.0224487 177 108 78
0.31777 0.0929212 0.0227328 178 112 76
0.317339 0.0932872 0.022934 181 116 79
0.316977 0.093603 0.0231848 183 122 85
0.3167 0.0938814 0.0235326 188 126 88
0.316491 0.0941311 0.0239589 194 133 98
0.316339 0.0943597 0.0244468 194 137 102
0.316183 0.0946035 0.0249115 187 133 103
0.315956 0.0948658 0.0253264 185 131 97
0.318016 0.0929927 0.0224174 179 109 80
0.317598 0.0933329 0.0226634 184 117 79
0.317179 0.0936903 0.0228276 187 122 86
0.316877 0.0939756 0.0231559 191 127 91
0.316641 0.094239 0.023549 193 135 97
0.316675 0.0945691 0.0236599 193 142 104
0.31649 0.0944668 0.0240569 197 140 105
0.316795 0.0948689 0.0238492 193 148 115
0.316563 0.0947918 0.0241802 195 146 115
0.316942 0.0951525 0.0240662 195 152 119
0.316662 0.0950955 0.0243386 197 151 120
0.316813 0.0953862 0.0245539 193 153 120
0.316418 0.0950221 0.0246604 194 142 114
0.316504 0.095333 0.0248096 190 147 117
0.316195 0.0949417 0.0250008 191 137 108
0.316245 0.0952731 0.0251182 187 138 110
0.315958 0.0952105 0.0254016 183 129 99
0.316 0.0955609 0.0254867 181 129 100
0.315989 0.0958312 0.0256141 184 134 105
0.31578 0.096004 0.0258501 181 132 100
0.315566 0.0961993 0.0260677 180 135 100
0.315035 0.0962057 0.0261505 185 138 98
0.315362 0.0964155 0.0262664 182 137 100
0.314833 0.0964441 0.0263144 186 140 100
0.315154 0.0966566 0.0264173 187 141 103
0.314631 0.0966616 0.026488 183 142 104
0.314964 0.0968561 0.0266073 185 143 105
0.314452 0.0968075 0.0267374 182 145 105
0.314806 0.0970778 0.0268481 191 150 110
0.314595 0.0971756 0.0271091 191 156 114
0.314949 0.0973966 0.0272453 194 158 121
0.314435 0.097285 0.0274198 195 166 127
0.314761 0.0974957 0.0275318 195 166 128
0.314526 0.0975041 0.0278621 197 172 133
0.314853 0.0976152 0.0280323 191 169 132
0.314599 0.0974478 0.028488 192 171 134
0.315144 0.0976578 0.0282597 192 172 134
0.314914 0.0974722 0.0287437 189 171 136
0.31545 0.0976266 0.0285463 196 176 140
0.315187 0.0973769 0.0290629 181 165 133
0.315751 0.0975382 0.0288862 182 168 135
0.315475 0.0973178 0.0293514 174 160 129
0.316043 0.0974352 0.0291999 177 165 134
0.315823 0.0972936 0.0296622 171 159 131
0.316336 0.0973804 0.0295104 175 164 132
0.31617 0.0972901 0.0299435 175 165 134
0.316695 0.0973798 0.0297993 177 168 137
0.316514 0.0973509 0.0301861 173 167 136
0.317038 0.0974305 0.0300458 176 169 140
0.316872 0.0974606 0.0303973 177 174 144
0.317304 0.0975302 0.0302562 177 174 145
0.317204 0.0976245 0.0305604 177 175 146
0.317673 0.0976984 0.0303517 179 177 146
0.317546 0.0978739 0.0307011 180 179 148
0.31802 0.097997 0.0305105 180 180 147
0.317856 0.0981385 0.0307784 183 180 148
0.318141 0.0983568 0.0307886 175 175 146
0.317892 0.0984849 0.0310265 179 176 146
0.318157 0.0987371 0.0310148 174 172 145
0.317952 0.0989509 0.0312189 178 174 143
0.31839 0.0990444 0.0309756 167 168 141
0.318194 0.0992559 0.0311899 169 168 138
0.318431 0.0991609 0.0309897 168 169 141
0.318118 0.0994676 0.031291 162 157 130
0.318409 0.0995446 0.0311125 162 156 129
0.318101 0.0996686 0.0313272 160 152 124
0.318365 0.099986 0.0311737 152 144 117
0.318069 0.0998972 0.0313528 158 151 122
0.317996 0.100373 0.0313484 146 132 105
0.317689 0.10029 0.0315107 151 138 109
0.317604 0.100727 0.0314802 139 122 96
0.317292 0.100684 0.0316113 142 126 102
0.317501 0.101118 0.0313919 129 103 75
0.317204 0.101077 0.0315529 127 101 74
0.317386 0.101465 0.0312626 116 81 55
0.317094 0.101434 0.0314278 114 84 60
0.316948 0.101765 0.0312537 104 62 40
0.316658 0.101732 0.0314188 99 60 43
0.316812 0.102095 0.0310695 94 45 31
0.316339 0.101691 0.0315742 95 57 42
0.316464 0.101335 0.0317203 111 81 60
0.31602 0.101638 0.031708 92 57 49
0.316145 0.101277 0.0318386 104 79 62
0.315821 0.101201 0.0319449 101 75 62
0.315574 0.100716 0.0320367 123 108 85
0.315232 0.100604 0.0320767 120 107 88
0.314883 0.100488 0.032084 114 100 82
0.314951 0.100042 0.0320614 137 129 106
0.315313 0.10009 0.0320377 139 129 105
0.314971 0.0998852 0.0320525 137 128 104
0.315361 0.0997345 0.0320102 148 141 115
0.315646 0.100292 0.0320209 140 127 101
0.315986 0.1004 0.0319815 136 121 97
0.315913 0.10081 0.0319912 121 102 80
0.316326 0.100485 0.0319138 140 123 99
0.316246 0.100887 0.0319073 120 97 74
0.316654 0.100555 0.0318295 136 119 94
0.316566 0.100951 0.0318002 122 100 75
0.316974 0.100626 0.0317324 142 123 95
0.316884 0.101026 0.0316877 123 103 76
0.316784 0.10139 0.0315803 113 86 65
0.3145 0.0962362 0.0261988 184 138 100
0.314162 0.0960096 0.0260996 181 135 98
0.313872 0.0957932 0.0259954 178 135 97
0.31369 0.0959434 0.0262501 180 143 103
0.314318 0.0964303 0.0264032 184 141 103
0.314007 0.0961915 0.0263276 181 140 102
0.314136 0.0965642 0.026666 182 145 108
0.313842 0.096313 0.026602 182 145 109
0.313984 0.0966858 0.026954 184 151 113
0.3137 0.0963632 0.0269554 177 146 109
0.313827 0.0967452 0.0273131 193 164 127
0.31354 0.0964172 0.0273348 192 165 130
0.313678 0.0968014 0.0276944 201 177 135
0.313389 0.0964992 0.0276819 202 181 140
0.313212 0.0966398 0.0279571 204 186 147
0.313089 0.0962408 0.0276348 195 176 142
0.312892 0.0964032 0.0278815 198 183 148
0.312584 0.0961689 0.0278023 189 180 149
0.312374 0.0963681 0.0280192 189 177 149
0.313265 0.0961304 0.0273194 193 170 133
0.313399 0.0960795 0.0269377 178 150 113
0.31354 0.0960289 0.0265547 178 147 111
0.314266 0.0969541 0.0270103 188 153 113
0.314107 0.0970284 0.0273365 194 166 127
0.313962 0.0970932 0.0276963 200 171 132
0.313637 0.0970023 0.028039 208 185 144
0.313331 0.0969995 0.0283044 204 185 147
0.313027 0.0967888 0.028219 197 183 147
0.313156 0.097025 0.028645 178 167 136
0.312841 0.0969033 0.0284917 182 173 141
0.313462 0.0970213 0.0289119 174 161 132
0.313752 0.0969996 0.029194 173 158 130
0.314061 0.0968972 0.0295486 183 170 138
0.314423 0.096906 0.0298525 182 169 137
0.31427 0.0973513 0.0277486 200 172 133
0.314085 0.0973276 0.0281387 204 178 137
0.3138 0.0971275 0.0280593 208 184 142
0.313647 0.0971654 0.0284364 197 178 141
0.314256 0.0973856 0.0282378 202 175 137
0.314011 0.0972135 0.0287041 189 168 133
0.314298 0.0971482 0.0290196 188 167 134
0.31461 0.0970851 0.0293191 187 168 136
0.314944 0.097094 0.0295946 182 166 134
0.314787 0.0969763 0.030078 178 167 136
0.315306 0.0971323 0.0298701 176 162 131
0.31517 0.0970977 0.0303079 181 172 141
0.315677 0.0972044 0.0301326 176 164 135
0.315526 0.0972225 0.0305133 179 173 142
0.316028 0.0972863 0.0303554 174 167 137
0.315869 0.097368 0.0306955 179 175 144
0.316368 0.0974064 0.0305506 177 173 142
0.316204 0.0975157 0.0308638 176 175 143
0.316707 0.0975541 0.0307165 181 179 146
0.316531 0.0977298 0.0309963 183 180 148
0.317043 0.0977881 0.0308382 181 179 148
0.316852 0.0979578 0.0310952 187 184 150
0.317117 0.0981462 0.0311478 188 184 149
0.316878 0.0983222 0.0313521 183 181 148
0.317177 0.0985901 0.0313947 184 181 147
0.31693 0.0987903 0.0315762 179 176 143
0.317227 0.0990714 0.0315857 178 174 142
0.316859 0.098986 0.0316586 175 172 140
0.317172 0.0992881 0.0316571 170 166 134
0.316843 0.0992517 0.0317327 174 171 139
0.317127 0.0997267 0.031731 165 159 128
0.31679 0.099702 0.0318101 165 159 129
0.317108 0.0998806 0.0317349 163 156 125
0.316727 0.100147 0.0318381 151 140 111
0.317062 0.100175 0.0317377 156 143 115
0.316372 0.100211 0.0319038 145 133 106
0.316402 0.0999728 0.0318957 160 153 124
0.316059 0.099911 0.0319465 153 145 116
0.316461 0.0995535 0.0318508 169 164 134
0.316112 0.0994962 0.0318988 163 160 131
0.31649 0.0993017 0.0318115 170 166 137
0.316131 0.0992688 0.0318588 165 161 132
0.316517 0.0989276 0.0317203 175 172 140
0.316386 0.0987403 0.0316774 176 175 142
0.316641 0.0985281 0.0315295 181 178 145
0.316317 0.0982721 0.031455 183 181 148
0.316557 0.0980748 0.0312703 184 183 150
0.316339 0.097924 0.0312192 184 181 149
0.316019 0.100228 0.0319751 146 136 109
0.315713 0.0998499 0.0319866 153 147 120
0.315758 0.0994159 0.0319286 164 160 131
0.317357 0.0980236 0.0309625 187 182 148
0.317661 0.0982537 0.031 182 178 147
0.317396 0.0983969 0.0311963 184 180 148
0.317688 0.0986614 0.0312438 179 175 146
0.317472 0.0988608 0.0314187 181 175 143
0.317712 0.0991439 0.0314044 174 171 140
0.317496 0.0993287 0.0315487 170 164 134
0.317813 0.0993886 0.0314323 168 163 133
0.317788 0.099621 0.0314727 163 157 128
0.317454 0.0997632 0.0316164 161 153 123
0.317761 0.0998252 0.0315064 161 153 124
0.317387 0.100231 0.0316331 152 140 112
0.316362 0.0946987 0.0245346 192 139 110
0.317869 0.0933886 0.0223662 174 114 83
0.317447 0.0937401 0.0225442 188 122 86
0.317094 0.0940496 0.0228212 191 130 93
0.316849 0.0943294 0.0232061 193 133 97
0.316907 0.0946455 0.0233356 191 142 107
0.317037 0.0949485 0.0235372 190 150 116
0.317219 0.095218 0.0237894 189 150 118
0.317396 0.0955043 0.0240384 186 154 123
0.31711 0.0954503 0.0243027 190 151 122
0.317304 0.0957393 0.0245705 185 152 125
0.317006 0.0956717 0.0248288 184 146 119
0.317245 0.095949 0.0251195 181 154 125
0.316854 0.0959397 0.0252888 181 150 121
0.317092 0.0962434 0.0255615 181 153 126
0.316764 0.0961115 0.0254993 177 141 117
0.31709 0.0962805 0.0256437 179 150 123
0.316564 0.0963095 0.0257326 177 140 116
0.316891 0.0965072 0.0258474 172 145 120
0.316687 0.0967497 0.0260118 180 143 117
0.317001 0.0969004 0.0261754 184 156 129
0.316638 0.0970462 0.0262802 184 150 122
0.316997 0.097223 0.0264476 190 164 135
0.316798 0.0974358 0.0266171 196 161 127
0.317079 0.0975069 0.0267993 198 167 136
0.316879 0.0976627 0.0270364 200 170 138
0.317386 0.0975315 0.027028 196 175 142
0.317179 0.0976264 0.0273261 195 175 143
0.317677 0.0974855 0.0273291 195 179 142
0.317482 0.0975572 0.0276397 195 178 145
0.317959 0.097395 0.0276398 186 172 137
0.317755 0.0974553 0.0279601 185 172 138
0.318126 0.0973294 0.0278007 184 171 136
0.317922 0.0974023 0.0282312 179 165 133
0.31827 0.0973106 0.0281739 178 166 133
0.318074 0.0973802 0.0286455 178 169 137
0.318444 0.0973217 0.0285401 176 167 136
0.318284 0.0974196 0.0290414 177 170 140
0.318646 0.0973812 0.0289475 176 170 137
0.318485 0.0975188 0.0293644 179 177 146
0.318787 0.0975428 0.0292829 178 175 144
0.318832 0.097705 0.0295294 180 180 148
0.319127 0.0977347 0.0293603 177 177 146
0.319181 0.098019 0.0296246 177 179 148
0.319459 0.0980722 0.0294402 178 179 147
0.319505 0.0984194 0.0296439 176 176 146
0.319754 0.098183 0.0292342 182 179 148
0.319787 0.0985543 0.0294134 179 177 144
0.320037 0.0983035 0.0290071 177 176 145
0.320058 0.0986825 0.0291693 175 173 143
0.320316 0.0984253 0.028764 178 176 145
0.320321 0.0988216 0.0289145 175 173 142
0.320557 0.0985788 0.0284909 179 176 144
0.32056 0.0989657 0.0286207 174 171 141
0.320799 0.0988364 0.0282287 177 176 145
0.320768 0.0992936 0.0283437 168 163 132
0.320985 0.0991097 0.0279768 172 167 138
0.320754 0.0993798 0.028369 167 162 132
0.320956 0.099476 0.0280006 164 159 130
0.320713 0.0997469 0.0283957 163 152 123
0.320888 0.0998561 0.0279965 164 152 126
0.320647 0.100122 0.0284061 156 142 113
0.32079 0.100243 0.0279774 153 139 112
0.320572 0.100541 0.0282426 146 124 95
0.320651 0.100632 0.0279396 144 124 95
0.320366 0.100921 0.0282845 139 106 74
0.320449 0.10103 0.0279025 140 103 69
0.320016 0.101333 0.0282898 131 83 55
0.320085 0.101457 0.0279107 131 79 52
0.319623 0.101777 0.0282932 122 66 43
0.319733 0.101878 0.0279202 119 62 38
0.319516 0.102215 0.027955 117 56 33
0.319646 0.102307 0.0275858 113 50 30
0.319584 0.102637 0.027663 111 46 26
0.319736 0.10273 0.0272958 110 44 25
0.319609 0.102964 0.0277579 105 37 19
0.319773 0.103057 0.0273969 101 32 16
0.319806 0.103363 0.0275807 99 29 14
0.319977 0.10348 0.0271421 95 25 12
0.320044 0.103808 0.0272515 91 20 9
0.320108 0.10358 0.0267748 93 24 11
0.320168 0.103909 0.0268803 91 20 8
0.320257 0.104017 0.0265033 91 19 9
0.320295 0.104348 0.0266115 88 15 7
0.320353 0.104462 0.0262175 91 17 7
0.320394 0.104576 0.0258412 90 15 7
0.320432 0.104923 0.0259205 85 13 6
0.320456 0.105023 0.0255371 84 13 7
0.3205 0.105362 0.0256422 83 12 7
0.320508 0.105469 0.02525 83 12 6
0.320564 0.1058 0.0253506 81 12 6
0.320541 0.10587 0.0249238 80 11 6
0.320615 0.106243 0.0250622 80 11 7
0.320585 0.106288 0.0247176 79 11 7
0.320646 0.106662 0.0247382 79 10 7
0.320535 0.106443 0.0243564 78 10 6
0.320594 0.106828 0.0243314 78 10 6
0.320495 0.10666 0.0240008 79 10 6
0.320557 0.106942 0.0240625 79 10 6
0.3205 0.107031 0.0237802 79 11 6
0.320631 0.107221 0.0241641 76 9 6
0.320559 0.107364 0.0237679 76 10 6
0.320689 0.107595 0.0241165 76 10 6
0.320629 0.10768 0.0237823 76 10 5
0.320609 0.107873 0.023583 78 11 5
0.320509 0.107947 0.0232224 78 10 6
0.32038 0.108095 0.0228053 76 10 6
0.320491 0.108478 0.0228132 76 11 6
0.320364 0.108533 0.0224799 78 11 5
0.320503 0.108873 0.0225529 77 10 6
0.320364 0.108983 0.0222011 79 12 6
0.320513 0.109316 0.0222755 78 11 6
0.320361 0.109434 0.0219186 79 12 6
0.320511 0.109767 0.0219922 78 12 5
0.320343 0.109881 0.0216357 78 11 6
0.320506 0.110219 0.0217032 78 12 5
0.320321 0.110336 0.0213522 79 11 6
0.320496 0.110671 0.0214243 77 11 5
0.3203 0.110796 0.0210717 77 10 5
0.320491 0.111125 0.0211342 75 9 5
0.320279 0.111246 0.0207995 76 10 5
0.32047 0.111575 0.0208621 74 9 4
0.320344 0.111645 0.0206692 73 9 4
0.320655 0.111908 0.0209066 72 10 4
0.320442 0.112042 0.0205696 72 9 5
0.320668 0.112373 0.0206227 70 8 4
0.320439 0.112491 0.0202914 70 9 5
0.320665 0.11282 0.0203341 68 8 4
0.320394 0.112947 0.020015 68 9 5
0.320639 0.113275 0.0200728 67 8 4
0.320541 0.113319 0.0199571 66 9 4
0.320734 0.113688 0.0199082 64 9 4
0.320294 0.113432 0.0196684 68 9 4
0.320483 0.113805 0.0196122 64 9 5
0.320045 0.113552 0.0193712 65 10 5
0.320231 0.113919 0.0193205 62 9 5
0.319946 0.114025 0.0190629 62 9 5
0.320143 0.114393 0.0190148 59 9 4
0.31983 0.114492 0.0187807 58 8 5
0.319993 0.114852 0.0187484 58 8 5
0.31963 0.114942 0.0185435 56 7 5
0.319812 0.115312 0.0185012 56 8 4
0.319456 0.115391 0.0183451 55 7 4
0.31954 0.11576 0.018301 55 7 4
0.319162 0.115816 0.0182118 54 7 4
0.319235 0.116188 0.0181797 54 7 4
0.318836 0.116242 0.0181288 54 7 5
0.318913 0.1166 0.0180995 54 7 5
0.318504 0.116641 0.0180921 54 7 5
0.318565 0.116998 0.0181038 53 7 5
0.318135 0.117021 0.0181486 57 7 6
0.318363 0.117357 0.0181696 57 7 5
0.317973 0.117374 0.0182484 61 8 5
0.318376 0.117715 0.0182268 60 7 6
0.317988 0.117723 0.0183126 64 8 6
0.318017 0.118055 0.0183902 63 8 6
0.317633 0.118063 0.0185053 65 8 5
0.317662 0.118402 0.0185941 67 9 6
0.317292 0.118396 0.0187266 69 10 5
0.318048 0.118405 0.0184733 65 8 5
0.318429 0.118404 0.0183658 63 7 5
0.318403 0.118053 0.0182882 61 8 6
0.318816 0.118398 0.0182717 59 7 5
0.318797 0.118045 0.0181997 60 8 5
0.319154 0.118035 0.0181343 57 7 5
0.3191 0.117682 0.018098 55 7 5
0.319517 0.11766 0.0180684 53 7 5
0.319461 0.117297 0.0180762 53 7 5
0.319852 0.117254 0.0181105 54 7 4
0.319774 0.116876 0.0181549 52 6 5
0.320159 0.116825 0.018237 53 7 5
0.320072 0.116443 0.0183124 53 7 4
0.320524 0.116753 0.0183582 54 7 4
0.320436 0.116366 0.0184407 55 7 3
0.320732 0.1163 0.0185725 56 7 4
0.320551 0.115938 0.0186244 56 8 5
0.320896 0.115845 0.0188191 57 7 3
0.320708 0.115489 0.0188756 58 7 3
0.321011 0.115388 0.0190941 59 8 4
0.320818 0.115014 0.0191584 59 9 4
0.321094 0.114903 0.0194373 63 8 4
0.321339 0.114784 0.0197401 64 8 3
0.321132 0.114422 0.0197937 64 7 4
0.320931 0.114059 0.0198535 65 8 4
0.3209 0.113608 0.0201072 65 8 4
0.320896 0.113153 0.0203889 68 8 4
0.320914 0.112704 0.0206732 69 8 3
0.320893 0.112248 0.0209619 71 9 4
0.320882 0.111791 0.0212482 73 10 4
0.32086 0.111346 0.0215447 75 9 4
0.320836 0.11089 0.0218354 77 10 4
0.320819 0.110439 0.0221292 77 10 4
0.320814 0.109989 0.0224433 79 11 5
0.320904 0.109853 0.0227646 81 12 6
0.320797 0.109547 0.0227305 81 12 7
0.32066 0.109647 0.0223506 80 11 6
0.320667 0.110105 0.0220635 77 12 5
0.320646 0.109197 0.0226337 78 11 6
0.320666 0.110557 0.0217728 78 10 5
0.320671 0.11101 0.0214858 76 9 5
0.320679 0.11146 0.0212004 75 9 4
0.320684 0.114175 0.0195563 63 8 4
0.320426 0.114286 0.0192766 60 9 5
0.320327 0.114753 0.0189753 59 9 5
0.320177 0.115215 0.0187016 58 8 4
0.319997 0.115664 0.0184716 55 8 4
0.319743 0.11611 0.0182943 53 7 4
0.319617 0.116128 0.0182611 53 7 4
0.319696 0.116501 0.0182175 53 6 4
0.319307 0.116559 0.0181381 54 7 4
0.319398 0.116931 0.0180998 51 7 5
0.318985 0.116965 0.0180825 53 7 5
0.319044 0.117326 0.0180837 54 7 4
0.318617 0.11735 0.018123 55 7 5
0.318651 0.117701 0.0181704 58 8 6
0.320165 0.116025 0.0184424 55 6 3
0.320357 0.115576 0.018664 57 7 4
0.320517 0.115119 0.0189198 58 8 4
0.320619 0.114643 0.0192179 60 9 5
0.320898 0.11454 0.0194976 62 8 4
0.320244 0.117197 0.0181707 56 7 5
0.319925 0.117614 0.0180716 56 7 5
0.319567 0.118007 0.0180887 56 7 5
0.319203 0.118385 0.0181841 57 7 5
0.320684 0.107072 0.0245318 77 9 6
0.320218 0.104238 0.0269912 90 18 7
0.32009 0.104139 0.0273571 91 19 8
0.319864 0.103689 0.0276955 94 23 10
0.319612 0.103272 0.0279513 98 30 14
0.319403 0.102879 0.0281062 102 37 19
0.319423 0.102544 0.0280207 111 46 26
0.319236 0.102462 0.028381 108 45 26
0.319375 0.102135 0.0283269 119 62 38
0.319226 0.102047 0.0286878 111 53 32
0.319513 0.101673 0.0286652 128 74 47
0.319074 0.101958 0.0290502 117 60 36
0.319417 0.101555 0.0290353 124 73 47
0.319301 0.101447 0.0294094 127 80 53
0.319819 0.101132 0.0290476 134 99 67
0.319736 0.100996 0.0294135 132 103 77
0.320138 0.100714 0.0290262 136 108 79
0.319988 0.100619 0.029388 140 114 85
0.320123 0.100249 0.0293234 151 135 107
0.319893 0.100166 0.0296701 150 134 105
0.320013 0.0998778 0.029531 160 149 121
0.319735 0.100162 0.0298893 147 139 113
0.319777 0.0997377 0.0298277 159 151 124
0.319502 0.0999943 0.0301881 143 137 113
0.319534 0.0995764 0.0301036 154 151 125
0.319252 0.0998902 0.0304587 154 149 122
0.319267 0.0994599 0.0303489 162 162 136
0.318977 0.0997659 0.0306882 153 147 122
0.318994 0.09935 0.0305689 160 160 135
0.318701 0.0996446 0.0309014 158 153 126
0.318708 0.0992433 0.0307828 166 165 138
0.318654 0.100091 0.030967 149 141 116
