ply
format ascii 1.0
element vertex 1258
property float x
property float y
property float z
property uchar diffuse_red
property uchar diffuse_green
property uchar diffuse_blue
end_header
0.273369 0.06123 -0.0115148 138 111 91
0.273722 0.0612262 -0.0114867 141 117 97
0.273336 0.0612083 -0.0111118 137 117 98
0.273694 0.0612335 -0.0110822 140 126 107
0.273657 0.0612996 -0.0106917 135 125 108
0.273998 0.0613697 -0.0106598 135 128 110
0.273951 0.0614864 -0.0102794 129 121 108
0.274291 0.0615804 -0.0102647 131 124 109
0.274255 0.061661 -0.0100045 128 121 106
0.274603 0.0617609 -0.00999717 129 122 107
0.274928 0.0618921 -0.00998637 132 123 107
0.273913 0.061565 -0.01002 131 122 108
0.27361 0.0614076 -0.0102962 134 124 107
0.273307 0.0612552 -0.0107269 139 124 105
0.272987 0.0612183 -0.0111462 135 113 92
0.273011 0.0612823 -0.0115364 134 106 86
0.272973 0.0615731 -0.0119368 114 77 59
0.273521 0.0616146 -0.00967085 128 119 105
0.273578 0.06149 -0.0100466 130 121 107
0.273177 0.0615296 -0.00970304 130 121 107
0.273234 0.0614184 -0.0100752 130 121 107
0.272891 0.0613459 -0.0101022 131 119 104
0.27292 0.0612954 -0.010358 132 120 105
0.272539 0.0613009 -0.01014 129 118 103
0.27257 0.0612553 -0.0103888 132 115 101
0.272195 0.0612642 -0.0101768 128 113 98
0.272212 0.0612401 -0.0104286 129 115 100
0.271838 0.0612555 -0.0102285 127 111 97
0.271856 0.0612462 -0.0104532 125 103 84
0.271476 0.0612665 -0.0103122 127 102 82
0.27149 0.0612949 -0.0104922 126 101 80
0.27111 0.0614217 -0.0104576 112 77 60
0.271483 0.0614875 -0.010923 111 76 59
0.271045 0.0617461 -0.0108797 108 67 50
0.271412 0.0619161 -0.0113213 107 65 47
0.270995 0.0619517 -0.0110958 106 62 43
0.271005 0.0620821 -0.0114687 114 64 42
0.270639 0.0620468 -0.0112168 111 61 39
0.270688 0.0620121 -0.0116267 116 62 38
0.27035 0.0619149 -0.0116438 110 55 33
0.270719 0.0619434 -0.01192 112 56 34
0.270391 0.0618252 -0.0119318 102 46 29
0.270778 0.06182 -0.012294 103 46 28
0.270445 0.0617077 -0.0123056 100 42 26
0.270825 0.061721 -0.0126814 97 40 23
0.270496 0.0615891 -0.0126933 93 34 20
0.270869 0.0616557 -0.0130776 91 31 17
0.270536 0.0615169 -0.0130887 87 26 14
0.270573 0.0614661 -0.0134829 84 21 11
0.270247 0.0613226 -0.0134989 82 19 9
0.27028 0.0612818 -0.01389 80 17 8
0.269914 0.061188 -0.0135106 79 16 7
0.269956 0.0611307 -0.0139042 80 16 8
0.26963 0.060989 -0.0139126 78 13 6
0.26966 0.0609703 -0.0143119 79 12 6
0.269334 0.060837 -0.0143215 76 11 5
0.269672 0.0609871 -0.0145905 79 13 7
0.269354 0.0608541 -0.0147243 78 12 6
0.269689 0.061031 -0.0149792 81 14 8
0.269362 0.0608909 -0.0150049 80 14 8
0.26937 0.0609796 -0.0154092 81 15 8
0.269042 0.0608471 -0.0154317 80 13 8
0.269044 0.06093 -0.0157161 81 14 9
0.268713 0.0608087 -0.0157623 81 14 10
0.26871 0.060948 -0.0161313 81 15 10
0.268383 0.0607174 -0.0158708 80 14 10
0.268379 0.0608334 -0.0161664 80 14 10
0.273262 0.0613436 -0.010325 132 122 105
0.272956 0.0612284 -0.0107489 136 119 100
0.272603 0.0612119 -0.0107832 135 111 92
0.272633 0.0612328 -0.0111736 126 96 76
0.272267 0.0612988 -0.0111788 128 98 77
0.272641 0.0613444 -0.0115047 125 91 71
0.272251 0.0614674 -0.0114571 118 83 65
0.272627 0.0614957 -0.011647 122 87 69
0.272182 0.0618287 -0.0116506 111 71 52
0.272242 0.061237 -0.0108254 129 105 86
0.271892 0.0612883 -0.0108568 119 89 71
0.271877 0.0614385 -0.011184 111 77 61
0.271764 0.0620198 -0.0116746 110 63 43
0.271395 0.0621096 -0.0118949 117 64 39
0.271449 0.0620417 -0.0123826 112 52 32
0.271477 0.0619871 -0.0126614 106 47 30
0.271151 0.0618614 -0.012678 102 43 26
0.271517 0.0619271 -0.0130481 100 41 24
0.271196 0.0617896 -0.0130602 94 34 20
0.271227 0.0617448 -0.0134679 90 27 15
0.270902 0.0616078 -0.0134741 88 25 14
0.270608 0.0614237 -0.0138884 82 18 9
0.270619 0.061419 -0.0140996 83 18 9
0.270309 0.0612649 -0.0142918 81 16 7
0.270641 0.0614327 -0.0144976 83 17 9
0.270319 0.0612801 -0.0145247 82 15 8
0.270331 0.0613427 -0.0149238 83 15 8
0.270006 0.061186 -0.0149471 82 14 8
0.270015 0.0612774 -0.0153432 82 14 8
0.269694 0.0611196 -0.0153717 81 15 8
0.26969 0.061205 -0.0156294 81 15 8
0.269369 0.0610606 -0.0156758 81 14 9
0.269361 0.0612131 -0.0160478 82 14 10
0.269039 0.0610774 -0.0160926 81 14 10
0.269023 0.0612405 -0.0164591 80 15 10
0.268697 0.061118 -0.0164984 79 14 10
0.268683 0.0612957 -0.0168509 78 13 10
0.268352 0.061183 -0.016892 78 14 10
0.271105 0.0619501 -0.0122867 109 52 31
0.271054 0.062041 -0.011902 117 61 38
0.271552 0.061894 -0.0134527 94 34 19
0.271561 0.0618909 -0.0136059 92 30 17
0.271588 0.0618905 -0.0140064 89 25 14
0.271603 0.0619261 -0.0144059 88 22 12
0.271294 0.0618281 -0.0148244 86 18 10
0.270978 0.0617107 -0.0150362 84 17 9
0.270656 0.0616081 -0.0152799 82 15 9
0.270333 0.0615159 -0.0155259 82 15 10
0.270001 0.0615043 -0.0159481 82 14 10
0.269669 0.0615201 -0.0163653 81 14 10
0.269647 0.0617131 -0.0167187 80 13 10
0.26933 0.0615602 -0.016772 80 14 10
0.27313 0.0616498 -0.00931381 128 119 106
0.27284 0.0614633 -0.00971793 130 120 107
0.272489 0.0614121 -0.00975912 128 118 105
0.272146 0.0613604 -0.0097823 129 118 104
0.271797 0.0613176 -0.00982132 129 116 102
0.271445 0.0612954 -0.00987131 126 110 95
0.27108 0.0613285 -0.00996468 127 109 93
0.270715 0.061419 -0.0100196 116 87 70
0.27067 0.0616915 -0.0105049 106 68 51
0.270326 0.0616205 -0.0100275 99 59 47
0.270222 0.0619454 -0.0105248 99 53 38
0.26988 0.0618822 -0.0100157 95 52 39
0.269836 0.0620343 -0.0104428 99 53 37
0.269451 0.0620838 -0.0102356 95 49 35
0.269509 0.0620677 -0.0105745 102 53 35
0.269164 0.0620426 -0.0106002 96 45 29
0.269221 0.0619247 -0.0109583 93 42 27
0.268881 0.0618561 -0.0109905 86 32 20
0.269278 0.061766 -0.0113252 91 38 23
0.268941 0.0616841 -0.0113426 85 30 18
0.269 0.0615138 -0.0117021 83 25 15
0.268604 0.0616008 -0.0113599 77 22 13
0.268661 0.0614187 -0.0117187 79 22 13
0.268259 0.0615173 -0.0113908 75 19 10
0.268327 0.0613438 -0.0117404 73 15 7
0.267926 0.0614287 -0.011409 75 16 9
0.267987 0.0612443 -0.0117628 72 13 6
0.267593 0.0613378 -0.0114376 73 13 7
0.267641 0.061153 -0.0117716 70 12 5
0.267276 0.0611867 -0.0115772 70 10 4
0.267306 0.0610643 -0.0118133 68 9 4
0.266968 0.0610195 -0.0117934 67 8 3
0.267029 0.0608476 -0.0121743 66 7 2
0.266638 0.0609273 -0.0118974 67 7 2
0.266695 0.0607882 -0.0122184 65 7 3
0.266358 0.0607241 -0.0122566 64 6 2
0.266755 0.0606267 -0.0125578 64 6 2
0.266413 0.0605622 -0.0126092 64 5 1
0.266798 0.0604811 -0.0129349 64 5 2
0.266461 0.0604152 -0.0129671 63 5 1
0.266857 0.0603533 -0.0133147 67 7 3
0.266511 0.0602809 -0.0133422 66 6 2
0.266906 0.0602615 -0.0137049 69 6 2
0.266565 0.060185 -0.0137315 67 6 2
0.266938 0.0601991 -0.0140654 72 8 3
0.266605 0.0601134 -0.0140876 70 8 3
0.266635 0.0600824 -0.0144736 71 8 4
0.266262 0.0600487 -0.0141101 69 7 3
0.266299 0.0600036 -0.0145002 70 8 4
0.265923 0.0599756 -0.0141345 69 7 3
0.265957 0.0599269 -0.0145217 71 9 4
0.265581 0.0598989 -0.014156 69 7 3
0.266227 0.0601119 -0.013751 66 5 2
0.265882 0.0600495 -0.0137816 67 6 2
0.265835 0.0601467 -0.0133952 65 5 2
0.26549 0.0600787 -0.0134286 65 5 2
0.265442 0.0602066 -0.0130447 63 5 1
0.265143 0.060012 -0.0134519 65 5 1
0.265087 0.0601396 -0.0130717 64 5 1
0.264754 0.0600625 -0.0131003 64 5 1
0.26469 0.0602056 -0.0127297 63 4 1
0.264406 0.059998 -0.0131267 64 5 1
0.264354 0.0601393 -0.0127546 63 4 1
0.264017 0.0600624 -0.0127822 62 4 1
0.264293 0.0603021 -0.0124003 63 4 1
0.263952 0.0602165 -0.0124197 62 4 2
0.263928 0.0602884 -0.0122596 62 4 1
0.263618 0.0601409 -0.0124421 62 4 1
0.263554 0.0603197 -0.0120893 62 4 1
0.26327 0.060083 -0.0124774 62 5 1
0.263204 0.0602646 -0.0121285 61 4 1
0.262894 0.0601003 -0.0123808 62 4 1
0.262823 0.0603156 -0.0120389 61 4 1
0.262476 0.0602862 -0.0120974 60 4 1
0.262746 0.0605625 -0.0117265 61 4 1
0.262398 0.060533 -0.011795 61 4 1
0.262351 0.0606807 -0.0116225 60 4 0
0.262041 0.0605057 -0.0118603 60 4 0
0.261963 0.0607629 -0.0115601 60 3 1
0.261692 0.0604921 -0.0119319 60 3 0
0.261612 0.0607548 -0.0116275 60 3 1
0.261217 0.0608643 -0.011599 59 3 0
0.260787 0.0611227 -0.0114408 56 2 0
0.260336 0.0614198 -0.011294 55 1 1
0.261769 0.060242 -0.0122366 60 4 1
0.262121 0.0602558 -0.0121567 60 4 1
0.262202 0.0600207 -0.0124848 60 3 0
0.262551 0.0600464 -0.0124194 61 3 1
0.262621 0.0598837 -0.0127701 61 4 1
0.262926 0.0600385 -0.0125188 63 5 1
0.263327 0.0599416 -0.0128541 61 4 1
0.263726 0.0598678 -0.0131822 62 3 1
0.264118 0.0598063 -0.0135238 63 4 2
0.264463 0.0598719 -0.0135058 64 4 1
0.26485 0.0598292 -0.0138628 65 6 2
0.265197 0.0598952 -0.0138351 67 5 2
0.265543 0.0599683 -0.0138119 67 6 2
0.263677 0.0599933 -0.0128136 63 4 1
0.264066 0.0599346 -0.0131525 63 5 1
0.264805 0.0599364 -0.0134746 64 4 1
0.264632 0.0603817 -0.0123712 63 5 1
0.264232 0.0604687 -0.0120559 62 5 2
0.264575 0.0605597 -0.0120203 63 5 2
0.264204 0.0605664 -0.0118736 63 5 2
0.264545 0.0606485 -0.0118479 63 5 1
0.264463 0.0608381 -0.0114989 63 5 1
0.264815 0.0609062 -0.0114855 63 6 2
0.264747 0.0611075 -0.0111431 64 5 2
0.265109 0.0611414 -0.0111518 64 5 1
0.265048 0.0613307 -0.0108331 64 6 2
0.265433 0.0612283 -0.0110529 65 6 3
0.265409 0.0614216 -0.0107458 65 7 2
0.26573 0.0613052 -0.010969 67 7 3
0.265788 0.0614743 -0.0107099 66 8 3
0.266106 0.0613229 -0.0109971 66 8 3
0.266152 0.0615591 -0.0106477 67 8 4
0.266475 0.0614099 -0.0109291 68 9 4
0.266477 0.0616517 -0.0106152 70 11 6
0.266842 0.0615267 -0.0108779 71 11 5
0.266771 0.0617928 -0.0105273 73 14 7
0.267084 0.0618227 -0.0105738 76 17 8
0.267025 0.0620594 -0.0102584 76 17 10
0.267343 0.0621197 -0.0102533 79 21 12
0.267275 0.0623622 -0.00994951 81 24 14
0.267596 0.0624053 -0.00993623 83 27 18
0.267565 0.0626387 -0.00961468 84 29 19
0.267945 0.0624638 -0.00986299 87 33 22
0.267921 0.0626539 -0.00952308 89 38 28
0.268262 0.0625076 -0.00961259 90 42 30
0.268243 0.0626165 -0.0092066 88 43 35
0.268618 0.0623976 -0.00955387 88 42 32
0.268647 0.0623056 -0.00902216 88 52 47
0.269027 0.0621266 -0.00935734 87 48 44
0.269044 0.0619411 -0.00883309 94 64 60
0.269504 0.0617185 -0.00910483 101 71 65
0.269472 0.0617207 -0.00860287 115 99 88
0.269888 0.0615805 -0.00894781 115 100 88
0.269841 0.0616626 -0.0085411 122 114 103
0.270238 0.0615485 -0.008867 124 113 98
0.270191 0.061673 -0.00848196 123 116 106
0.270594 0.0615638 -0.00880555 126 117 106
0.27054 0.0617061 -0.00843994 129 123 111
0.270888 0.0617656 -0.00840841 138 130 117
0.270482 0.0618619 -0.00807763 136 130 116
0.27083 0.0619037 -0.00803901 135 130 116
0.270765 0.062088 -0.00768195 143 136 120
0.271121 0.0621152 -0.00773573 143 137 120
0.271057 0.0623043 -0.0074068 147 138 118
0.271462 0.062195 -0.00771686 146 136 118
0.271381 0.0624227 -0.00739898 151 137 117
0.271779 0.0622965 -0.00770515 152 137 116
0.270717 0.0622395 -0.00743244 145 138 122
0.27042 0.0620365 -0.00771067 140 134 120
0.270134 0.061822 -0.00811366 132 125 113
0.270371 0.0621872 -0.0074617 145 138 122
0.270072 0.0619963 -0.00775309 140 135 120
0.269785 0.061792 -0.00815976 125 118 108
0.263862 0.0604806 -0.0118879 62 4 2
0.263521 0.060408 -0.0119266 62 4 2
0.263176 0.0603522 -0.0119862 61 4 2
0.263096 0.0605761 -0.01166 60 4 1
0.264131 0.0607529 -0.0115335 63 5 1
0.263791 0.0606878 -0.0115569 62 4 1
0.264058 0.0609751 -0.0112111 63 5 1
0.263716 0.0609162 -0.0112447 63 4 1
0.263655 0.0611086 -0.011004 61 4 2
0.263317 0.0610584 -0.0110709 61 4 1
0.263234 0.0613283 -0.0107881 59 4 1
0.262937 0.0610945 -0.0110652 60 4 1
0.262886 0.0612859 -0.0108712 59 3 1
0.262537 0.0612498 -0.0109594 59 3 0
0.262454 0.0615352 -0.0106741 57 2 0
0.262095 0.0615139 -0.0107559 57 2 0
0.262201 0.0616859 -0.0105816 56 2 0
0.262005 0.0618113 -0.0105107 55 2 1
0.262166 0.0619639 -0.0103708 56 2 1
0.261774 0.0619689 -0.0104397 53 1 1
0.262137 0.0622468 -0.0101677 53 2 1
0.261738 0.0622508 -0.0102358 53 2 1
0.262106 0.0625384 -0.00997648 53 2 1
0.261705 0.0625496 -0.0100442 52 2 0
0.261682 0.062843 -0.00985326 49 1 0
0.261286 0.0628686 -0.00994011 50 1 0
0.261653 0.0631616 -0.00968655 50 1 0
0.261263 0.0631928 -0.00978054 49 2 1
0.261627 0.0634961 -0.00954273 46 2 1
0.261236 0.0635375 -0.00964889 48 2 1
0.2616 0.0638457 -0.00940252 46 2 1
0.26121 0.0638745 -0.00950329 46 1 1
0.261575 0.0641802 -0.00925512 46 2 1
0.261174 0.0642262 -0.00936986 47 1 0
0.261545 0.0645345 -0.00912984 48 1 1
0.26115 0.064595 -0.00925524 49 1 1
0.261555 0.0648994 -0.00899289 49 2 1
0.261066 0.0650074 -0.00920634 50 2 1
0.261282 0.0653724 -0.00905372 52 3 2
0.260823 0.0655166 -0.00931913 53 3 1
0.261087 0.065872 -0.00915736 55 4 2
0.260939 0.0659254 -0.00923987 54 4 1
0.260916 0.0663773 -0.00924374 56 3 1
0.260687 0.066007 -0.00938514 55 3 1
0.260547 0.0665173 -0.00947478 57 4 2
0.260272 0.0661408 -0.00960866 56 3 2
0.260105 0.0664063 -0.00971256 56 3 1
0.260206 0.0660115 -0.00964493 55 3 1
0.259851 0.0660103 -0.00983426 54 3 1
0.259885 0.0658702 -0.00981303 55 3 1
0.25957 0.0657326 -0.00999089 53 2 1
0.259593 0.0656205 -0.00997607 52 2 1
0.259256 0.0655895 -0.0101594 53 2 1
0.259345 0.0651558 -0.0101055 52 2 1
0.258935 0.0654455 -0.0103357 53 3 1
0.259062 0.0648872 -0.0102677 51 2 1
0.259102 0.0647015 -0.0102485 51 2 1
0.258818 0.0644501 -0.010409 49 2 1
0.2592 0.0642963 -0.0102192 49 3 0
0.258918 0.0640252 -0.0103897 48 2 0
0.259262 0.06404 -0.0102195 48 2 0
0.259024 0.063623 -0.0104276 47 2 0
0.259368 0.0636322 -0.0102715 47 2 0
0.259127 0.0632046 -0.0105208 46 1 0
0.259477 0.0632325 -0.0103696 48 1 1
0.25918 0.0630274 -0.010593 47 1 0
0.259543 0.062968 -0.010476 47 1 1
0.259226 0.0628358 -0.0106696 47 1 0
0.259573 0.062869 -0.0105255 48 1 1
0.25967 0.0625147 -0.010687 49 2 1
0.259966 0.062746 -0.0104404 48 2 1
0.26001 0.0625574 -0.0105345 50 2 1
0.260364 0.062594 -0.0103929 49 1 1
0.260058 0.0623977 -0.010627 50 2 1
0.260456 0.0622578 -0.0105842 51 2 1
0.260158 0.0620488 -0.0108377 51 2 1
0.260514 0.0620629 -0.0107093 53 2 1
0.260251 0.0617298 -0.0110655 53 2 1
0.260607 0.0617414 -0.0109439 54 1 1
0.260697 0.0614404 -0.0111793 56 1 1
0.261132 0.061146 -0.0113323 57 2 0
0.261578 0.0608718 -0.0115102 59 2 0
0.259763 0.0621818 -0.010861 51 2 1
0.259331 0.0624905 -0.010821 48 2 1
0.258887 0.0628125 -0.0108029 46 1 0
0.258547 0.0627802 -0.0109528 47 1 0
0.258831 0.0630038 -0.0107349 46 1 0
0.258784 0.063188 -0.0106736 46 1 0
0.258674 0.0636008 -0.0105882 47 2 0
0.258566 0.0640103 -0.0105535 49 2 0
0.258343 0.0635542 -0.0107401 46 2 0
0.258446 0.0631543 -0.0108198 46 1 0
0.260485 0.0656238 -0.00950737 54 3 1
0.260716 0.0650984 -0.00938682 51 2 1
0.260372 0.0652056 -0.00956523 52 2 1
0.260621 0.0647025 -0.00947046 49 2 1
0.260259 0.0647848 -0.00962986 50 2 2
0.260563 0.0643222 -0.00957455 47 1 1
0.260171 0.0643881 -0.00972541 48 2 0
0.260519 0.0639646 -0.00971995 46 1 0
0.260123 0.0640247 -0.00985161 46 2 0
0.260467 0.0636222 -0.00987132 46 1 0
0.260074 0.0636725 -0.00998955 46 1 0
0.260487 0.0632774 -0.0100067 47 1 1
0.260036 0.0633268 -0.0101373 48 2 1
0.260414 0.06295 -0.0101795 49 2 1
0.260012 0.0629975 -0.0102945 47 1 1
0.261006 0.0646239 -0.00931631 49 1 0
0.260943 0.0642567 -0.00944998 47 2 1
0.260816 0.0639271 -0.00962469 47 1 1
0.260845 0.0635717 -0.00975544 47 1 1
0.260871 0.0632353 -0.00989834 48 2 1
0.260895 0.062906 -0.0100393 48 2 1
0.260924 0.0625882 -0.0102204 49 1 0
0.261312 0.06256 -0.0101289 51 1 0
0.260956 0.062287 -0.0103987 51 2 1
0.261344 0.0622653 -0.0103075 51 2 1
0.260994 0.0619996 -0.0106068 54 1 1
0.261381 0.0619814 -0.0105204 53 1 1
0.261307 0.0617701 -0.0107221 55 2 1
0.261653 0.0617879 -0.0106128 55 2 1
0.261741 0.0614991 -0.0108614 56 2 1
0.260533 0.0626244 -0.0103179 50 2 1
0.260558 0.0623204 -0.0105046 50 2 1
0.260898 0.0619674 -0.0106616 54 2 1
0.260955 0.0617539 -0.0108239 54 1 1
0.261044 0.0614443 -0.011078 56 1 1
0.261485 0.0611711 -0.011229 56 2 0
0.261921 0.0609057 -0.011416 59 3 0
0.26227 0.0609455 -0.0113227 59 3 0
0.262668 0.0608141 -0.0114205 60 4 0
0.263017 0.0608365 -0.0113524 60 4 1
0.263448 0.0606267 -0.0115994 61 4 1
0.263373 0.0608637 -0.0112871 61 4 2
0.262587 0.0610744 -0.0111365 60 3 1
0.262189 0.0612146 -0.0110371 58 2 0
0.261838 0.0611841 -0.0111346 57 3 1
0.261395 0.0614712 -0.0109756 55 2 0
0.260256 0.0658162 -0.00961565 55 4 1
0.259979 0.065455 -0.00976539 54 3 1
0.259685 0.0652228 -0.00991513 51 3 1
0.259443 0.0647669 -0.0100543 51 3 1
0.259549 0.0643499 -0.0100353 49 2 0
0.259776 0.0648256 -0.00987 50 2 1
0.259887 0.0644175 -0.00985924 49 2 0
0.260116 0.0648871 -0.00969738 52 3 1
0.259995 0.0640027 -0.0099068 48 2 1
0.260017 0.0652847 -0.00974194 52 2 1
0.260365 0.0653332 -0.009568 54 3 1
0.259648 0.0639507 -0.0100659 47 1 0
0.259733 0.0636457 -0.0101302 47 2 0
0.259831 0.0632638 -0.0102344 46 2 1
0.259929 0.062908 -0.0103686 48 2 1
0.266171 0.0602147 -0.013364 65 5 1
0.265787 0.0602715 -0.0130224 64 5 1
0.265727 0.060416 -0.0126617 63 5 1
0.265388 0.0603622 -0.0126719 64 5 1
0.265659 0.0605852 -0.0123114 64 6 2
0.265318 0.0605193 -0.0123439 62 5 1
0.265292 0.0606132 -0.0121447 63 5 1
0.264985 0.0604557 -0.0123438 61 4 1
0.264915 0.0606305 -0.0120178 62 5 2
0.267096 0.0606904 -0.0125207 65 7 2
0.267377 0.0609129 -0.0121522 68 8 3
0.267438 0.0607509 -0.012511 67 7 2
0.26772 0.0609902 -0.0121332 68 10 3
0.267774 0.0608376 -0.012495 68 9 3
0.268107 0.0609283 -0.0124763 71 11 4
0.267823 0.0607112 -0.0128691 68 8 2
0.268164 0.060795 -0.0128522 70 9 3
0.268216 0.0606909 -0.0132006 70 8 2
0.268501 0.0608978 -0.0128445 72 11 3
0.268551 0.0607863 -0.0131829 72 10 2
0.268881 0.0608979 -0.0131623 73 12 4
0.268927 0.0608135 -0.0135492 74 10 4
0.269257 0.0609291 -0.0135306 75 12 5
0.269303 0.0608617 -0.0139288 76 11 5
0.269587 0.0610563 -0.0135226 76 14 6
0.269001 0.0607164 -0.014337 75 10 4
0.269023 0.0607315 -0.0147302 77 11 6
0.268694 0.0606143 -0.01475 75 11 7
0.268703 0.0606467 -0.0150615 76 12 8
0.268375 0.0605312 -0.0150853 76 12 8
0.268385 0.0606015 -0.0154796 78 13 8
0.268049 0.0604992 -0.0155048 78 12 8
0.268049 0.0605931 -0.015831 80 13 9
0.267712 0.0604122 -0.0155322 79 13 8
0.268714 0.0607203 -0.0154537 80 14 9
0.269032 0.0607696 -0.0150326 78 12 8
0.26854 0.0617819 -0.0110017 81 27 16
0.268196 0.0617035 -0.0110478 79 23 13
0.268167 0.0618193 -0.0108396 81 25 14
0.267811 0.0617625 -0.0108651 79 19 10
0.268095 0.0620161 -0.0105132 83 27 17
0.267771 0.0619884 -0.0105223 80 21 12
0.268029 0.0622385 -0.0101922 84 29 18
0.267688 0.062187 -0.0102191 83 26 16
0.267441 0.0618877 -0.0105761 78 18 9
0.267198 0.0616109 -0.0109061 74 15 7
0.267486 0.0616816 -0.0108865 77 17 8
0.267552 0.0614859 -0.0111981 74 15 8
0.267892 0.061558 -0.0112059 76 17 8
0.267194 0.061374 -0.011225 72 12 5
0.266911 0.0611912 -0.0114508 69 9 4
0.266583 0.0610838 -0.0115727 67 8 4
0.266287 0.0608968 -0.0118958 65 6 2
0.266001 0.0606692 -0.0122444 63 6 2
0.266074 0.0604949 -0.0126195 64 5 2
0.266833 0.06131 -0.0111909 68 9 4
0.266494 0.0612193 -0.0112772 67 9 4
0.266142 0.0611545 -0.0113169 66 7 3
0.265823 0.0611465 -0.0112583 64 6 3
0.265879 0.0610046 -0.0115337 65 6 2
0.265496 0.061051 -0.0113693 64 5 2
0.265553 0.0609276 -0.0116224 64 5 1
0.265164 0.0609596 -0.0114775 64 5 2
0.265231 0.0607892 -0.0118046 63 5 2
0.26489 0.0607303 -0.0118232 63 5 2
0.26561 0.0607545 -0.0119633 64 6 2
0.265936 0.0608541 -0.0118731 65 6 2
0.266222 0.0610429 -0.0115645 65 7 3
0.270616 0.0619586 -0.0108796 106 60 41
0.270246 0.0620322 -0.0108482 110 62 42
0.270289 0.0620217 -0.0112191 113 62 40
0.269899 0.0620227 -0.0108395 110 62 40
0.269962 0.0619309 -0.0112977 112 60 39
0.269567 0.0619709 -0.0109324 98 47 30
0.26962 0.0618443 -0.0113075 98 44 28
0.269342 0.0616108 -0.0116895 86 32 19
0.269056 0.061362 -0.0120699 80 21 11
0.268723 0.0612747 -0.0120883 75 17 8
0.268382 0.0611738 -0.0120989 74 14 6
0.26805 0.0610828 -0.0121189 71 11 5
0.268445 0.0610241 -0.0124691 72 12 5
0.268779 0.0611261 -0.0124588 75 15 6
0.269114 0.0612219 -0.0124483 76 16 7
0.269156 0.0611303 -0.0127656 76 15 7
0.26945 0.0613344 -0.012437 80 21 10
0.269492 0.0612467 -0.0127477 79 18 8
0.269786 0.0614444 -0.0124339 85 27 15
0.26983 0.0613569 -0.0127296 82 22 11
0.270164 0.0614651 -0.0127124 88 29 17
0.270204 0.0613872 -0.0131085 84 23 12
0.270128 0.0615463 -0.0124228 92 34 19
0.270071 0.0616772 -0.0120438 100 43 27
0.269732 0.0615652 -0.0120527 90 35 20
0.270014 0.0618153 -0.0116744 105 51 31
0.269675 0.0617132 -0.0116864 91 37 23
0.2694 0.0614476 -0.0120536 86 28 16
0.268839 0.0610016 -0.0128312 75 13 5
0.269209 0.0610154 -0.0131547 75 13 5
0.269541 0.0611409 -0.0131307 78 15 7
0.269868 0.0612691 -0.0131175 81 19 9
0.272783 0.0615846 -0.00933597 129 121 107
0.272439 0.0615302 -0.00937577 130 120 107
0.272092 0.0614825 -0.00941139 129 119 108
0.271749 0.0614338 -0.00944363 129 120 108
0.271398 0.0613969 -0.00948058 127 117 103
0.271046 0.061379 -0.00952975 130 116 101
0.270687 0.0613859 -0.00958577 124 102 86
0.270338 0.061493 -0.00970059 112 81 64
0.269904 0.061637 -0.00959183 105 72 57
0.269417 0.0619867 -0.00966568 92 48 37
0.269021 0.062206 -0.00986891 92 46 34
0.269099 0.0621408 -0.0102312 94 44 29
0.268754 0.0621646 -0.0102723 92 41 27
0.26882 0.0620092 -0.0106297 88 36 23
0.268469 0.0619792 -0.010649 85 32 19
0.268406 0.0621681 -0.010308 87 35 23
0.268341 0.0623473 -0.00995585 89 36 24
0.268671 0.0623099 -0.00992423 93 45 33
0.269912 0.0615759 -0.00934457 111 81 67
0.270288 0.0614793 -0.00926733 117 97 81
0.270642 0.0614596 -0.00920454 127 115 101
0.270998 0.0614796 -0.0091445 126 118 107
0.271346 0.0615198 -0.00910208 133 125 111
0.271689 0.061568 -0.00906907 128 120 109
0.272034 0.0616142 -0.00903166 132 123 111
0.27238 0.061668 -0.00900769 132 124 110
0.272322 0.0618352 -0.00865066 136 130 114
0.272724 0.061739 -0.00897687 131 123 108
0.271978 0.0617696 -0.00867372 136 128 113
0.270946 0.0616051 -0.00877288 133 123 111
0.271294 0.061664 -0.00874055 136 127 114
0.27123 0.0618213 -0.00837221 137 130 117
0.271639 0.0617261 -0.00870776 138 130 116
0.271579 0.0618711 -0.00833778 139 131 117
0.271913 0.0619457 -0.00831394 141 133 117
0.272478 0.0623513 -0.0127021 118 58 37
0.27281 0.0624583 -0.0126415 127 75 49
0.273176 0.0623317 -0.0124675 118 75 55
0.273148 0.062578 -0.0127621 129 79 52
0.273549 0.0623285 -0.0125733 110 69 52
0.273493 0.0626541 -0.0127515 121 75 51
0.273851 0.0626444 -0.0128292 120 76 54
0.273483 0.0627716 -0.0131251 127 71 47
0.273817 0.0628975 -0.0130848 127 76 53
0.273816 0.0630187 -0.0134812 130 74 48
0.274165 0.0629549 -0.0130975 132 92 68
0.273819 0.0631217 -0.0139016 119 57 36
0.273815 0.0632659 -0.0143107 111 46 30
0.273801 0.0634354 -0.0146791 103 37 24
0.273771 0.063637 -0.0150311 97 30 19
0.273741 0.0638679 -0.0153553 92 24 15
0.273699 0.0641156 -0.0156662 88 20 12
0.27339 0.0639187 -0.0157721 85 18 11
0.27335 0.0641731 -0.0160734 81 15 10
0.273045 0.063979 -0.016198 80 15 10
0.273003 0.0642517 -0.0164905 78 13 9
0.272741 0.0637743 -0.0163016 80 13 8
0.272688 0.0641295 -0.0166822 78 13 9
0.272387 0.0638531 -0.0167024 78 13 9
0.272367 0.0639613 -0.0168124 77 12 9
0.27208 0.0636714 -0.0168037 77 12 9
0.272633 0.0644218 -0.0169414 75 12 8
0.272942 0.0645906 -0.016806 76 12 8
0.27331 0.0644589 -0.0163716 79 14 8
0.273661 0.0643823 -0.0159638 83 16 10
0.273612 0.0646778 -0.016247 81 15 9
0.273253 0.0647721 -0.0166541 78 13 8
0.273565 0.0649534 -0.0165051 79 13 8
0.272897 0.0648964 -0.017051 75 11 8
0.27321 0.065073 -0.0169056 77 12 8
0.272584 0.0647291 -0.0171835 75 12 8
0.272524 0.0650559 -0.0174039 75 11 8
0.274231 0.0625868 -0.0129134 110 73 58
0.273946 0.0622018 -0.0126624 103 66 54
0.274349 0.0619369 -0.0127815 104 78 67
0.274036 0.0617041 -0.0125441 111 85 72
0.274422 0.0615831 -0.0126297 115 94 79
0.274106 0.061348 -0.0122015 128 102 85
0.274474 0.0613732 -0.0122753 134 110 90
0.274454 0.0612806 -0.0118178 138 115 97
0.274809 0.0613179 -0.0118064 141 125 106
0.274784 0.0613424 -0.0113997 138 129 111
0.275159 0.061357 -0.0117725 141 125 107
0.275127 0.0614152 -0.0113712 139 131 113
0.275457 0.061509 -0.01135 137 130 113
0.27508 0.0615235 -0.010988 135 128 112
0.275406 0.0616278 -0.010966 136 131 114
0.275025 0.0616477 -0.010603 133 127 111
0.275348 0.061761 -0.01059 132 127 112
0.274963 0.0617924 -0.0102393 130 123 109
0.275288 0.0619249 -0.0102287 132 125 109
0.27568 0.0618699 -0.0105706 130 125 111
0.27608 0.0618194 -0.0109231 133 129 113
0.276471 0.0617782 -0.0112771 133 129 112
0.276853 0.0617414 -0.0116425 137 131 113
0.27724 0.0617395 -0.0119958 136 130 111
0.277238 0.0617127 -0.0121143 137 128 110
0.277585 0.0617923 -0.0120965 136 131 111
0.277287 0.0616787 -0.0124833 130 120 102
0.27763 0.0617428 -0.0124851 138 128 110
0.277304 0.0617147 -0.0129218 128 113 98
0.277647 0.0617634 -0.0129248 131 119 100
0.277311 0.0617563 -0.0131183 127 114 98
0.27765 0.0618042 -0.013154 125 113 98
0.277265 0.0620213 -0.0134912 123 115 99
0.277615 0.0620594 -0.0135181 114 107 95
0.276901 0.0620277 -0.0135201 113 105 92
0.276538 0.0620035 -0.0135093 116 109 96
0.276164 0.0620021 -0.0134646 107 100 90
0.275785 0.0620977 -0.0134064 109 99 88
0.275391 0.0622198 -0.0132974 111 94 83
0.274988 0.0623779 -0.0131688 103 84 74
0.274594 0.0624976 -0.0130516 110 81 70
0.274716 0.0619106 -0.0129421 102 80 70
0.274828 0.0614592 -0.0126332 124 103 86
0.274837 0.0613635 -0.0122974 132 109 89
0.275106 0.061813 -0.0130524 105 86 75
0.27519 0.0614382 -0.0126233 131 109 90
0.275188 0.0613638 -0.0122749 138 119 101
0.275496 0.0614293 -0.0117471 140 131 114
0.275845 0.0614892 -0.0117128 139 130 113
0.275802 0.0615927 -0.0113227 138 133 115
0.276188 0.06157 -0.0116935 140 130 113
0.276139 0.0616856 -0.0112983 136 131 114
0.275746 0.0617237 -0.0109438 134 129 113
0.275505 0.0616931 -0.013117 119 105 89
0.275556 0.06146 -0.0127582 131 111 92
0.275883 0.0616201 -0.0131519 117 102 87
0.275908 0.0614749 -0.0127301 127 109 92
0.276267 0.0615298 -0.0127841 134 118 101
0.276259 0.0614996 -0.012618 135 118 101
0.276604 0.0615652 -0.0127594 130 115 100
0.276597 0.0615468 -0.0125772 136 125 105
0.276944 0.0616021 -0.0125285 136 124 105
0.276575 0.0615482 -0.0121643 140 130 111
0.276903 0.0616452 -0.0120286 138 130 111
0.276578 0.0615616 -0.0120547 140 130 111
0.276535 0.0616463 -0.0116745 138 131 113
0.276951 0.0616622 -0.0129361 128 114 99
0.276948 0.0617472 -0.0131666 116 101 86
0.276604 0.0616784 -0.0131869 121 106 90
0.27626 0.0616458 -0.0131857 126 111 94
0.275554 0.0614512 -0.0126339 128 110 93
0.275539 0.0613964 -0.0122573 140 121 103
0.275913 0.0614539 -0.0126009 136 119 101
0.275893 0.0614225 -0.0122074 140 125 105
0.276238 0.0614752 -0.0122054 139 124 105
0.277934 0.0618691 -0.01209 137 131 111
0.27827 0.0619492 -0.01207 134 128 111
0.277972 0.0617977 -0.0124696 135 127 109
0.278311 0.0618675 -0.0124626 135 127 110
0.277991 0.0618024 -0.0128926 120 113 99
0.27834 0.0618725 -0.0128721 116 109 97
0.277996 0.0618537 -0.0131795 123 112 97
0.278347 0.0619077 -0.0131825 125 116 100
0.277964 0.0621214 -0.0135452 109 103 90
0.278308 0.0621828 -0.0135668 101 95 84
0.274634 0.061688 -0.0102496 128 123 108
0.274689 0.061541 -0.0106188 132 126 110
0.274743 0.0614247 -0.0110028 138 129 113
0.274431 0.0612782 -0.01142 142 124 105
0.27408 0.0612498 -0.0114583 145 126 106
0.2741 0.0612747 -0.0118565 141 118 98
0.274342 0.061456 -0.0106429 136 129 112
0.274048 0.0612772 -0.0110508 142 129 111
0.274397 0.0613373 -0.0110251 139 127 110
0.273166 0.0626374 -0.0131884 124 64 41
0.273171 0.0626593 -0.0134255 114 53 34
0.272853 0.0625151 -0.0134822 108 48 30
0.273187 0.0627298 -0.0138434 104 44 29
0.272869 0.0625605 -0.0138897 100 39 25
0.27319 0.0627934 -0.0140983 98 38 24
0.272871 0.062652 -0.0142896 97 35 21
0.273194 0.0629046 -0.014518 97 35 22
0.272876 0.0627316 -0.0145961 95 30 18
0.273184 0.063056 -0.0148918 96 30 18
0.272868 0.0628825 -0.0149893 91 24 14
0.273155 0.063259 -0.0152355 90 23 14
0.272845 0.0630792 -0.0153361 87 20 13
0.273119 0.0634838 -0.0155655 85 19 12
0.27281 0.0632958 -0.01567 84 18 11
0.272778 0.0635301 -0.0159874 81 15 10
0.272471 0.0633399 -0.0160988 82 15 10
0.272432 0.0635823 -0.0164091 79 14 9
0.272122 0.0634027 -0.0165082 78 13 10
0.271765 0.0635012 -0.0168939 76 12 9
0.273088 0.0637266 -0.0158808 83 17 10
0.27343 0.0636796 -0.0154596 88 21 13
0.273464 0.0634516 -0.015134 93 27 16
0.273489 0.0632462 -0.0147787 98 33 20
0.273503 0.0630863 -0.0144083 104 42 26
0.273507 0.0629502 -0.0139983 107 47 31
0.273489 0.0628607 -0.0135702 116 57 36
0.270237 0.0623614 -0.0170626 77 13 9
0.270552 0.0625293 -0.0169691 77 12 9
0.270869 0.0627064 -0.016878 77 12 9
0.270823 0.0629826 -0.0171771 76 13 8
0.271181 0.0628867 -0.0167798 77 12 10
0.271137 0.0631504 -0.0170836 76 12 9
0.271496 0.0630588 -0.0166921 79 13 9
0.271454 0.0633291 -0.0169913 76 12 9
0.271805 0.0632306 -0.0166044 77 13 10
0.270563 0.0624485 -0.0168749 77 12 9
0.27059 0.0622949 -0.0166665 78 13 9
0.27091 0.062399 -0.0164802 79 13 9
0.270618 0.0620754 -0.0163274 80 13 10
0.270938 0.0621819 -0.0161393 80 13 9
0.270623 0.0620051 -0.0162056 80 13 10
0.27121 0.0626351 -0.0164695 79 14 9
0.27125 0.0623665 -0.016072 79 14 9
0.271562 0.0625773 -0.0160567 79 14 10
0.271585 0.0623739 -0.0157111 82 15 10
0.271876 0.0627426 -0.015965 81 15 10
0.271899 0.0625221 -0.0155929 83 16 10
0.272215 0.0627121 -0.015536 85 17 11
0.271918 0.0623583 -0.0152387 85 18 11
0.272236 0.0625026 -0.0151117 87 20 12
0.271923 0.0623169 -0.0151358 85 19 11
0.272241 0.0623633 -0.0147243 90 24 13
0.271601 0.0621784 -0.0152993 84 17 10
0.271273 0.0621671 -0.0157233 80 15 10
0.271534 0.0628088 -0.0163784 78 13 9
0.271848 0.062975 -0.0162896 79 14 10
0.272188 0.0629181 -0.0158754 81 16 10
0.27253 0.06291 -0.0154731 86 19 11
0.272549 0.0627176 -0.0151138 89 22 13
0.272504 0.0631081 -0.0157747 83 17 11
0.272156 0.0631485 -0.0161958 81 15 10
0.272557 0.0625746 -0.0147397 92 27 15
0.27256 0.0624709 -0.0143498 95 31 18
0.272547 0.0623981 -0.0139439 96 35 22
0.272534 0.062364 -0.0135212 101 41 26
0.272506 0.0623417 -0.013117 110 49 30
0.272828 0.0624823 -0.0130688 122 60 38
0.268364 0.0610035 -0.0165305 79 14 10
0.269993 0.061126 -0.0145584 81 14 6
0.269985 0.0611123 -0.0143021 81 15 7
0.303923 0.0786863 -0.038254 22 13 7
0.303691 0.0788346 -0.0385196 24 13 4
0.303919 0.0790717 -0.0385398 9 4 0
0.303886 0.07931 -0.038824 11 5 0
0.304182 0.0790711 -0.038258 5 3 0
0.304275 0.0788732 -0.0379626 9 5 2
0.301838 0.0755529 -0.0343329 136 124 108
0.301448 0.0755613 -0.0338325 129 101 81
0.301432 0.075496 -0.0334334 124 91 73
0.301085 0.075487 -0.0334657 122 75 55
0.301082 0.0753752 -0.0330854 116 66 47
0.300727 0.0754811 -0.0334559 121 63 45
0.300725 0.0753424 -0.0330831 114 55 38
0.300736 0.0756035 -0.0338432 131 97 76
0.301091 0.0755673 -0.033862 128 101 87
0.301426 0.0754176 -0.033043 111 59 45
0.301088 0.0752358 -0.0327146 99 41 29
0.300741 0.0751757 -0.0327318 99 40 27
0.30143 0.0753019 -0.0326621 105 49 37
0.301106 0.0750663 -0.0323444 97 37 26
0.300762 0.0749707 -0.0323656 93 31 21
0.301436 0.0751767 -0.0322784 96 39 28
0.301445 0.0750226 -0.0318976 87 28 19
0.301462 0.0748615 -0.0315136 85 24 17
0.301482 0.0746924 -0.0311271 79 17 10
0.301502 0.0744958 -0.0306817 75 11 7
0.301531 0.0742785 -0.0302633 74 11 7
0.301559 0.0740723 -0.0298279 75 11 8
0.301576 0.0738982 -0.0293929 71 10 7
0.301574 0.0737362 -0.028898 66 9 6
0.301557 0.0736752 -0.0284277 57 7 4
0.301515 0.0736784 -0.0279797 50 4 2
0.301479 0.0736814 -0.027543 48 4 2
0.301123 0.0748625 -0.0319364 85 23 15
0.300781 0.074765 -0.0320221 88 24 15
0.300808 0.0745602 -0.0316795 82 17 10
0.301152 0.0746705 -0.0315571 84 21 14
0.301169 0.0744524 -0.0310981 77 12 8
0.301194 0.0742464 -0.0306884 76 11 8
0.301227 0.0739964 -0.0302558 75 11 8
0.301261 0.073766 -0.0298027 76 12 8
0.30128 0.0735732 -0.0293608 72 10 8
0.301281 0.0734181 -0.0289053 66 9 6
0.301276 0.0733383 -0.0284962 60 7 5
0.301266 0.0733237 -0.0282993 56 5 4
0.301006 0.0729917 -0.0284771 66 9 6
0.300992 0.0729221 -0.0280689 60 6 5
0.300729 0.0726395 -0.0284509 70 9 7
0.300721 0.0725316 -0.0280293 62 7 5
0.300997 0.0731059 -0.0289048 70 10 7
0.300985 0.0732509 -0.0293291 74 10 8
0.300968 0.0734704 -0.0297883 76 11 8
0.300934 0.0736364 -0.0300893 77 11 9
0.300899 0.0738816 -0.0304734 77 11 8
0.300888 0.073976 -0.030618 76 12 7
0.30086 0.0741856 -0.0309656 76 12 7
0.300835 0.074366 -0.031324 81 16 9
0.301236 0.0732972 -0.0278576 52 5 3
0.300983 0.0728859 -0.0277236 57 5 3
0.300702 0.072456 -0.0275982 59 6 4
0.300939 0.0728522 -0.0272647 53 5 2
0.30121 0.0732779 -0.0274204 52 5 2
0.293519 0.0657071 -0.0215539 63 4 2
0.293848 0.065863 -0.0215408 61 3 2
0.293845 0.0658654 -0.0214319 61 4 2
0.294163 0.0660496 -0.0214525 60 4 1
0.294141 0.066076 -0.0210112 57 2 1
0.294485 0.0662533 -0.0214406 56 2 1
0.294453 0.0663126 -0.0209921 56 1 0
0.294765 0.0665543 -0.0210972 54 2 0
0.294713 0.0666517 -0.0206459 55 2 0
0.295 0.0669489 -0.020782 52 2 0
0.294954 0.0670346 -0.0205074 53 2 0
0.295219 0.0671372 -0.0209568 54 2 0
0.295239 0.0673779 -0.0206973 53 2 0
0.295463 0.0676018 -0.0209433 54 2 0
0.295447 0.0678627 -0.0207098 55 2 1
0.295644 0.0681052 -0.0209674 56 3 1
0.295594 0.0683767 -0.0207486 58 4 1
0.294802 0.0664795 -0.021538 54 2 1
0.295074 0.0668194 -0.0212023 54 1 0
0.295127 0.0667256 -0.02166 55 2 1
0.295397 0.0671263 -0.0214634 53 2 0
0.295445 0.0673508 -0.0211921 54 2 0
0.295667 0.067842 -0.021204 55 2 0
0.295815 0.0683474 -0.0212479 55 3 1
0.295848 0.0680851 -0.0214667 54 2 0
0.295855 0.0678289 -0.0216952 53 2 0
0.295658 0.0675896 -0.0214353 54 2 0
0.295617 0.0673181 -0.0217049 53 2 0
0.295424 0.0670076 -0.0218104 54 2 0
0.295687 0.0672789 -0.0219902 54 2 1
0.295796 0.0672999 -0.0222083 55 2 1
0.295853 0.0675725 -0.0219409 53 2 0
0.231702 0.0729744 -0.0348129 0 0 0
0.231851 0.0727498 -0.0344546 0 0 0
0.231997 0.0730072 -0.0341748 0 0 0
0.231904 0.0726691 -0.0343394 0 0 0
0.23234 0.0730941 -0.0335327 0 0 0
0.232374 0.0735301 -0.0339364 0 0 0
0.232037 0.0734643 -0.0345342 0 0 0
0.23172 0.0732428 -0.0349415 0 0 0
0.232605 0.072721 -0.0330028 0 0 0
0.232657 0.0729427 -0.0328635 0 0 0
0.288361 0.0674914 -0.0240855 78 7 3
0.288064 0.0675717 -0.023911 78 7 3
0.266004 0.0599465 -0.01525 75 10 6
0.266342 0.0600179 -0.0152367 74 11 6
0.266334 0.059997 -0.0149054 73 9 5
0.266683 0.0601035 -0.0152123 75 11 7
0.266668 0.0600747 -0.0148756 73 10 5
0.267021 0.0601805 -0.0151847 75 11 7
0.267006 0.0601596 -0.0148522 74 10 7
0.267349 0.0602275 -0.0148323 74 10 5
0.267319 0.0602419 -0.0144374 72 9 4
0.26769 0.060313 -0.0148093 74 10 6
0.267654 0.0603161 -0.0144114 73 9 5
0.268023 0.060404 -0.0147843 74 10 5
0.267999 0.0603919 -0.0143885 72 8 4
0.268338 0.0604938 -0.0143744 74 9 4
0.2683 0.0605251 -0.0139791 73 9 3
0.268638 0.0606281 -0.0139564 73 10 3
0.26826 0.0605885 -0.0135853 70 8 2
0.268596 0.0606903 -0.0135629 71 9 3
0.268972 0.0607386 -0.0139374 73 10 3
0.267037 0.0602396 -0.0155822 78 12 8
0.267367 0.0602716 -0.0152312 76 12 7
0.267378 0.0603253 -0.0155578 78 13 9
0.267705 0.0603471 -0.015205 76 12 7
0.268042 0.060427 -0.0151111 76 11 7
0.268362 0.0604961 -0.0147636 76 11 6
0.268672 0.0605991 -0.0143617 74 11 4
0.265983 0.059924 -0.0148585 72 9 5
0.304774 0.0811534 -0.0414986 0 0 0
0.305092 0.0812928 -0.0415244 0 0 0
0.304202 0.0809634 -0.0413309 0 0 0
0.304488 0.0809557 -0.0413118 0 0 0
0.304793 0.0809316 -0.0411066 0 0 0
0.305016 0.0811205 -0.0412316 0 0 0
0.304319 0.0807247 -0.0409909 0 0 0
0.304284 0.0805364 -0.0406975 0 0 0
0.304576 0.080813 -0.0410556 0 0 0
0.304681 0.0806878 -0.0407868 0 0 0
0.304898 0.0808166 -0.040818 0 0 0
0.304613 0.0804513 -0.0404171 0 0 0
0.30445 0.0805406 -0.0406814 0 0 0
0.267008 0.0631185 -0.019471 73 10 7
0.266602 0.0633708 -0.0197043 74 10 8
0.266941 0.0634623 -0.0196526 75 11 7
0.26653 0.0637379 -0.0198403 74 10 7
0.266866 0.0638171 -0.0197958 75 11 8
0.266449 0.0641136 -0.0199483 74 10 7
0.266792 0.0641912 -0.0199263 74 10 6
0.266401 0.0643493 -0.0200083 75 10 6
0.266708 0.0645829 -0.0200307 73 10 6
0.266321 0.0647355 -0.0200799 76 9 7
0.266663 0.0648058 -0.0200718 75 9 7
0.266577 0.0651921 -0.0201221 76 9 7
0.266997 0.0648914 -0.020041 74 11 8
0.266914 0.065274 -0.0201046 77 12 8
0.267049 0.0646554 -0.019992 74 11 7
0.267128 0.0642752 -0.0198782 72 11 7
0.267201 0.0639193 -0.0197354 73 10 7
0.267533 0.0640158 -0.0196674 73 10 7
0.267601 0.0636617 -0.0195036 72 10 6
0.267862 0.0641102 -0.0195916 74 11 7
0.267928 0.0637664 -0.0194186 72 9 6
0.268191 0.0642256 -0.019499 75 10 6
0.268254 0.0638765 -0.0193206 74 10 6
0.268513 0.0643393 -0.0193977 75 10 7
0.268579 0.0639903 -0.0192109 73 10 6
0.268121 0.0645835 -0.0196611 76 10 7
0.26772 0.0648433 -0.0198773 77 11 7
0.26734 0.0649688 -0.0200004 77 11 8
0.267793 0.064468 -0.0197537 77 11 7
0.267387 0.0647464 -0.019948 76 11 8
0.267464 0.0643729 -0.01982 74 11 7
0.267268 0.0635555 -0.0195772 72 10 7
0.267624 0.0635452 -0.0194378 72 10 6
0.267335 0.0632084 -0.0193878 72 10 7
0.267687 0.0632033 -0.0192439 72 10 7
0.26736 0.0630875 -0.0193158 73 10 7
0.267748 0.0628685 -0.0190245 72 9 7
0.268067 0.0629935 -0.0189419 72 9 7
0.268394 0.0631236 -0.0188507 73 10 7
0.268712 0.0632654 -0.0187557 73 10 7
0.268011 0.0633174 -0.0191615 72 9 7
0.268333 0.0634505 -0.0190747 73 10 7
0.268652 0.0635881 -0.0189755 73 10 6
0.26795 0.0636627 -0.0193682 72 9 6
0.266192 0.06366 -0.0198633 75 10 7
0.265768 0.0639644 -0.0199798 77 11 7
0.266105 0.0640488 -0.0199606 75 10 7
0.265718 0.0641965 -0.0200133 78 11 6
0.266057 0.0642754 -0.0200085 76 10 6
0.265974 0.0646622 -0.0200778 76 10 6
0.266235 0.0651201 -0.0201314 77 10 6
0.266491 0.0655851 -0.0201562 77 9 6
0.288332 0.0678195 -0.0243058 77 8 3
0.288039 0.0679064 -0.0241283 77 8 4
0.287751 0.0679941 -0.0239515 78 8 4
0.248457 0.0666625 -0.0252039 76 14 8
0.24862 0.0670273 -0.0251783 74 12 7
0.24888 0.066885 -0.024941 73 10 6
0.249036 0.067256 -0.0249058 70 8 5
0.249305 0.0671106 -0.0246637 72 8 5
0.249159 0.0675633 -0.0248774 69 8 5
0.249446 0.06747 -0.0246305 70 7 5
0.249306 0.0679566 -0.0248292 68 8 5
0.249399 0.0683434 -0.024767 67 7 4
0.248775 0.0673994 -0.0251497 71 10 7
0.248881 0.0676625 -0.0251217 71 10 7
0.249027 0.0680515 -0.0250777 69 9 6
0.249127 0.0684424 -0.0250224 68 8 5
0.249468 0.0687356 -0.0247051 65 6 4
0.269009 0.0614222 -0.0168136 78 14 10
0.269348 0.0613767 -0.0164147 81 15 10
0.269681 0.0613592 -0.0159952 81 14 10
0.270014 0.0613563 -0.0155786 83 14 9
0.270331 0.0614473 -0.0153062 82 15 9
0.270652 0.0615027 -0.0148949 84 16 8
0.270963 0.0615912 -0.01446 84 18 9
0.270945 0.0615685 -0.0140731 85 20 10
0.270933 0.0615724 -0.013871 85 21 11
0.271242 0.0617343 -0.0136441 89 25 14
0.271267 0.0617209 -0.0140425 87 22 12
0.271287 0.0617547 -0.0144341 86 20 10
0.270973 0.0616667 -0.0148581 85 17 9
0.288322 0.0681888 -0.0245182 78 8 4
0.28803 0.0682675 -0.0243296 78 8 4
0.287743 0.068353 -0.0241517 80 9 4
0.287462 0.0684135 -0.0239496 80 9 4
0.23636 0.0747055 -0.0365117 0 0 0
0.236312 0.0746995 -0.0361558 0 0 0
0.24456 0.0637842 -0.0212271 80 18 10
0.244548 0.063968 -0.0207888 82 20 11
0.244716 0.0639331 -0.0204767 75 14 7
0.24438 0.0640132 -0.0210931 83 21 12
0.244197 0.0643412 -0.0209348 82 21 12
0.243877 0.0647338 -0.02109 96 34 22
0.244035 0.0646832 -0.020779 85 23 14
0.243935 0.0649198 -0.0206757 100 35 20
0.2442 0.0646453 -0.0204698 84 21 11
0.244106 0.0648701 -0.0203737 83 19 11
0.24438 0.064617 -0.0201641 85 21 12
0.24429 0.0648204 -0.0200758 84 19 11
0.244556 0.0645852 -0.0198589 75 14 8
0.244486 0.0647752 -0.0197766 75 14 8
0.244694 0.0647413 -0.0194902 75 14 7
0.243557 0.0651276 -0.0212467 107 45 31
0.236646 0.0746664 -0.0361985 0 0 0
0.302613 0.0835893 -0.0441763 0 0 0
0.302544 0.083613 -0.0438297 0 0 0
0.302482 0.0839183 -0.0440834 0 0 0
0.302418 0.0839569 -0.0437381 0 0 0
0.302319 0.084266 -0.0438866 0 0 0
0.302321 0.0841241 -0.0435647 0 0 0
0.302204 0.08441 -0.0433742 0 0 0
0.302391 0.0837858 -0.0434171 0 0 0
0.302325 0.0838027 -0.0429657 0 0 0
0.302557 0.0832828 -0.0432066 0 0 0
0.302428 0.0833629 -0.0428339 0 0 0
0.302583 0.0829846 -0.0429899 0 0 0
0.302426 0.0831836 -0.0426816 0 0 0
0.302306 0.0834159 -0.0423505 0 0 0
0.302125 0.0832818 -0.0418771 0 0 0
0.30209 0.0828396 -0.0417337 0 0 0
0.301898 0.0830703 -0.0414971 0 0 0
0.301919 0.0826742 -0.0413653 0 0 0
0.30171 0.0828769 -0.0410936 0 0 0
0.302147 0.0825187 -0.0415483 0 0 0
0.30269 0.0830969 -0.0435121 0 0 0
0.302629 0.0833531 -0.0435973 0 0 0
0.302412 0.0841306 -0.0442895 0 0 0
0.302285 0.084449 -0.044239 0 0 0
0.302208 0.0845887 -0.043831 0 0 0
0.302177 0.0847906 -0.0441349 0 0 0
0.302121 0.0849263 -0.0436733 0 0 0
0.302086 0.0851131 -0.0440342 0 0 0
0.301995 0.0854094 -0.0437305 0 0 0
0.302012 0.0853251 -0.0442134 0 0 0
0.307691 0.0855365 -0.046545 0 0 0
0.307666 0.0860547 -0.0466351 0 0 0
0.288316 0.068479 -0.0246742 77 8 4
0.288032 0.0685766 -0.0244956 78 9 4
0.287753 0.0686656 -0.0243067 79 9 4
0.287465 0.0687629 -0.0241327 79 9 4
0.287483 0.0691331 -0.0242994 81 9 4
0.287772 0.0690404 -0.0244728 79 9 4
0.287515 0.069501 -0.0244454 81 9 5
0.287798 0.0694057 -0.0246273 80 9 4
0.287551 0.0698761 -0.0245858 82 9 4
0.287825 0.0697774 -0.024777 80 9 4
0.287597 0.0702486 -0.0247084 82 9 4
0.287871 0.0701464 -0.0249035 82 9 4
0.287933 0.0705285 -0.0250131 81 9 4
0.288195 0.070422 -0.0252181 81 8 4
0.288249 0.0708073 -0.0253341 82 8 4
0.288515 0.0706979 -0.0255417 81 8 4
0.288577 0.0710842 -0.0256484 80 8 3
0.288712 0.0708057 -0.0257302 80 8 3
0.288959 0.0712958 -0.0260109 81 8 3
0.288879 0.0716878 -0.0260266 82 8 4
0.28923 0.0717957 -0.0263554 80 8 4
0.288794 0.072074 -0.0260146 82 9 3
0.289148 0.0721758 -0.0263132 82 8 4
0.289061 0.072589 -0.0262269 79 7 3
0.289489 0.0724109 -0.0266092 78 7 3
0.289399 0.0727774 -0.0265089 79 6 3
0.289822 0.0726045 -0.0269118 75 7 3
0.289735 0.0729756 -0.0268074 78 7 3
0.290153 0.0727977 -0.027199 76 8 3
0.290066 0.0731727 -0.0270931 74 6 3
0.290481 0.0729823 -0.0274645 73 8 3
0.290395 0.0733524 -0.0273537 73 7 2
0.290816 0.0731621 -0.0277249 75 8 3
0.290719 0.0735302 -0.0276021 72 6 2
0.291055 0.0737011 -0.0278489 73 8 3
0.290973 0.074058 -0.0276983 73 6 2
0.291385 0.0738789 -0.0280935 70 6 2
0.2913 0.074233 -0.0279443 71 6 3
0.291715 0.0740473 -0.0283137 71 7 2
0.291637 0.0744128 -0.0281862 71 6 2
0.292046 0.0742175 -0.0285413 72 7 2
0.291961 0.0745846 -0.0284114 71 6 3
0.292395 0.074409 -0.0288233 72 8 2
0.292304 0.0747685 -0.0286802 71 6 2
0.292653 0.0749603 -0.0289644 70 7 2
0.292583 0.0752929 -0.0288037 69 7 3
0.29299 0.075146 -0.0292208 70 7 3
0.292899 0.0755463 -0.0290252 68 7 3
0.29329 0.0754118 -0.0294027 71 7 2
0.293217 0.0757804 -0.0292187 69 7 3
0.293416 0.0756347 -0.0294469 70 7 3
0.293356 0.0759531 -0.0292734 70 8 4
0.293671 0.0761658 -0.0294869 70 8 3
0.29332 0.0762341 -0.0290665 68 8 3
0.293629 0.0764384 -0.0292725 70 9 4
0.293296 0.0765033 -0.028833 69 8 4
0.293596 0.0767098 -0.0290408 67 9 4
0.293338 0.0767917 -0.0286213 65 8 4
0.293622 0.076994 -0.0288244 67 9 4
0.293565 0.0772085 -0.0285193 61 8 4
0.293624 0.0772547 -0.0285779 61 8 4
0.293872 0.0775179 -0.0286906 58 8 4
0.293901 0.0774553 -0.0287909 62 8 3
0.294168 0.0776627 -0.029002 60 8 4
0.294177 0.077401 -0.0292348 67 9 5
0.294453 0.0776025 -0.0294492 68 9 6
0.294479 0.0773324 -0.0296713 71 10 5
0.294753 0.0775403 -0.029891 71 10 4
0.294815 0.0772548 -0.030092 71 9 5
0.295021 0.0777493 -0.0301059 71 10 5
0.295089 0.0774675 -0.030308 71 10 4
0.29527 0.0779687 -0.0303325 72 11 6
0.295339 0.0776848 -0.0305351 71 10 5
0.295513 0.0781801 -0.0305537 72 12 6
0.295589 0.077898 -0.030755 72 11 4
0.295762 0.0783973 -0.0307807 71 13 6
0.295832 0.0781124 -0.0309803 71 12 6
0.296065 0.0783312 -0.0312155 73 14 6
0.295935 0.0778142 -0.0311634 70 10 5
0.296165 0.0780421 -0.0314177 69 13 6
0.296277 0.0777426 -0.0315833 68 11 5
0.296456 0.0779902 -0.0318588 69 15 7
0.296631 0.0776602 -0.0319982 69 12 6
0.296783 0.0779182 -0.0322926 68 16 7
0.297 0.077573 -0.0324021 71 17 7
0.297128 0.0778318 -0.0327026 82 30 16
0.297354 0.0774841 -0.0328182 84 30 15
0.297452 0.0777725 -0.0331402 91 39 23
0.297471 0.0779284 -0.0333203 95 44 26
0.29747 0.0781645 -0.0335997 112 62 41
0.297253 0.0772113 -0.0324991 74 17 5
0.296836 0.0772883 -0.0321076 69 12 2
0.296425 0.0774254 -0.0317447 64 9 3
0.296047 0.0775128 -0.0313466 67 9 3
0.295799 0.0772925 -0.0311121 69 9 4
0.295685 0.0775993 -0.0309446 72 10 4
0.29554 0.0770779 -0.030889 70 9 3
0.29542 0.0773789 -0.0307159 71 9 4
0.295281 0.0768656 -0.0306692 71 9 3
0.295175 0.0771748 -0.0304978 72 10 4
0.294995 0.0766719 -0.030466 70 8 3
0.2949 0.0769656 -0.0302814 71 9 4
0.294718 0.0764685 -0.0302626 71 10 3
0.294623 0.0767623 -0.0300781 70 10 3
0.294408 0.0762717 -0.0300684 71 9 3
0.294312 0.0765695 -0.0298894 72 9 3
0.294089 0.0760772 -0.0298795 71 8 3
0.29401 0.0763697 -0.029689 71 9 4
0.293793 0.0758831 -0.0296948 72 8 3
0.293958 0.0766596 -0.029485 71 10 3
0.294252 0.0768552 -0.0296785 71 9 3
0.294536 0.0770599 -0.0298884 71 11 4
0.294209 0.0771315 -0.0294675 69 10 5
0.293922 0.0769362 -0.0292739 68 10 5
0.293892 0.077196 -0.0290298 65 9 4
0.297117 0.0769533 -0.0322103 72 12 3
0.296907 0.0767028 -0.0319361 70 8 1
0.296622 0.0770599 -0.0318516 68 9 2
0.29665 0.0764959 -0.0316915 69 7 1
0.296365 0.0768525 -0.0316098 67 7 1
0.296367 0.0762967 -0.0314639 68 7 2
0.29613 0.0766419 -0.0313808 69 7 2
0.296106 0.0760912 -0.0312651 70 7 1
0.29587 0.07643 -0.0311767 71 7 2
0.295827 0.0758849 -0.0310798 73 7 1
0.295594 0.0762312 -0.0309676 71 8 2
0.295501 0.0756971 -0.0308785 72 7 2
0.295292 0.0760304 -0.0307692 71 8 2
0.295189 0.0755072 -0.0306937 72 7 1
0.294997 0.0758343 -0.0305734 70 8 2
0.29487 0.0753158 -0.030504 70 7 2
0.294686 0.0756482 -0.0303836 71 7 2
0.294665 0.07518 -0.0303636 70 7 2
0.294392 0.0754504 -0.0301819 71 7 2
0.294498 0.075024 -0.0302526 71 7 2
0.29416 0.0748736 -0.0300454 69 7 2
0.294581 0.0746384 -0.030279 72 6 1
0.294227 0.0745421 -0.0300868 71 7 2
0.294657 0.0742298 -0.0302345 71 6 1
0.29431 0.0741349 -0.0300538 73 7 1
0.294755 0.0738457 -0.0301747 73 6 0
0.294399 0.0737443 -0.0300161 74 6 1
0.294839 0.0734455 -0.0301242 71 5 0
0.29449 0.0733461 -0.0299678 73 6 1
0.295164 0.0736744 -0.0302952 71 5 0
0.295421 0.0741103 -0.0305008 72 5 0
0.295345 0.0744922 -0.0305764 73 6 0
0.2957 0.0745361 -0.0307282 72 5 0
0.295269 0.0748788 -0.0306383 73 7 1
0.295623 0.0749262 -0.030805 72 6 0
0.295194 0.0752241 -0.030663 72 7 1
0.295542 0.0753165 -0.0308419 72 7 1
0.294847 0.0751344 -0.0304775 71 7 2
0.294935 0.0747377 -0.0304601 72 6 1
0.295005 0.0743331 -0.0303978 73 6 1
0.295066 0.074053 -0.0303527 72 5 0
0.295985 0.0749733 -0.0309657 74 7 0
0.295903 0.0753634 -0.0310141 74 7 1
0.296274 0.0754 -0.0311854 72 6 1
0.296083 0.0755295 -0.0311363 73 7 1
0.296369 0.0757422 -0.0313181 72 7 1
0.295822 0.0757479 -0.0310566 74 7 1
0.296178 0.0771952 -0.0315052 66 9 2
0.295938 0.0769764 -0.0312637 68 8 2
0.295687 0.0767646 -0.0310424 70 8 2
0.295419 0.0765575 -0.0308334 69 8 2
0.295127 0.07635 -0.0306204 69 8 2
0.294849 0.0761513 -0.0304234 70 8 2
0.294537 0.0759641 -0.0302406 71 8 3
0.294227 0.0757692 -0.0300438 70 8 2
0.293924 0.0755693 -0.0298518 70 7 3
0.293822 0.0755022 -0.0297843 70 7 3
0.293703 0.0752334 -0.0297249 72 8 3
0.293382 0.0749899 -0.029534 72 8 2
0.293067 0.0747797 -0.0293474 70 7 2
0.292735 0.0746022 -0.0291099 71 7 2
0.292832 0.074219 -0.0292124 72 7 2
0.292491 0.0740283 -0.0289377 73 8 2
0.292918 0.0738364 -0.0292559 73 7 2
0.292584 0.0736483 -0.0290095 74 8 3
0.293004 0.0734073 -0.0292572 74 6 1
0.292662 0.0732344 -0.0290282 75 7 2
0.293093 0.0729551 -0.0292169 76 7 1
0.29274 0.0728608 -0.0290073 75 7 2
0.293442 0.073057 -0.0294204 73 7 1
0.293795 0.0731552 -0.0296186 72 6 1
0.294135 0.0732519 -0.0297952 73 6 1
0.293352 0.0734566 -0.0294603 73 7 1
0.293696 0.0735586 -0.029654 74 7 1
0.294042 0.0736608 -0.0298378 73 6 1
0.293249 0.0739823 -0.0294727 71 7 1
0.293671 0.0737055 -0.0296654 73 7 1
0.293576 0.074157 -0.0296764 72 6 2
0.293963 0.0740449 -0.0298646 73 7 2
0.293916 0.0743075 -0.0298737 72 7 2
0.293159 0.0743853 -0.0294233 72 7 1
0.293486 0.0745587 -0.0296354 72 7 1
0.293822 0.0747218 -0.029843 70 7 2
0.293732 0.0750957 -0.0297561 72 8 3
0.293933 0.0751481 -0.0298817 70 8 2
0.294241 0.0753544 -0.0300887 69 7 2
0.292143 0.0738574 -0.0286683 73 8 3
0.29181 0.0736854 -0.0284316 74 8 2
0.291487 0.0735193 -0.0282124 73 8 2
0.29115 0.0733397 -0.0279791 74 9 3
0.291248 0.0729639 -0.0280865 76 8 3
0.290901 0.0727744 -0.0278222 76 8 3
0.291326 0.072558 -0.0281395 76 8 2
0.291003 0.0723545 -0.027885 76 7 3
