ply
format ascii 1.0
element vertex 1731
property float x
property float y
property float z
end_header
0.352439 0.164152 0.0483981
0.352661 0.164253 0.0476248
0.352837 0.164383 0.0467367
0.353059 0.164484 0.0459635
0.353281 0.164584 0.0451903
0.353457 0.164715 0.0443021
0.353586 0.164875 0.043299
0.353761 0.165006 0.0424107
0.35389 0.165166 0.0414077
0.354206 0.165207 0.0408643
0.354428 0.165307 0.0400911
0.354557 0.165468 0.039088
0.354779 0.165568 0.0383147
0.354908 0.165729 0.0373116
0.355036 0.165889 0.0363085
0.355165 0.166049 0.0353054
0.355013 0.16639 0.0336128
0.355282 0.16646 0.0329545
0.355505 0.166561 0.0321811
0.355493 0.166811 0.0308333
0.355575 0.167002 0.0297152
0.35561 0.167222 0.0284823
0.355645 0.167442 0.0272492
0.351458 0.17061 0.0143242
0.232388 0.182429 0.0758641
0.233826 0.181749 0.0780787
0.234657 0.18146 0.0787994
0.235768 0.18099 0.0802096
0.236551 0.18073 0.0808153
0.237335 0.180471 0.0814212
0.238305 0.180091 0.0824866
0.238996 0.179892 0.0828627
0.239592 0.179752 0.0830088
0.240422 0.179463 0.0837295
0.2413 0.179143 0.0845651
0.241943 0.178974 0.0848261
0.242726 0.178714 0.085432
0.243463 0.178485 0.0859228
0.244107 0.178315 0.0861839
0.24489 0.178056 0.0867897
0.245533 0.177886 0.0870508
0.246224 0.177687 0.0874268
0.246914 0.177487 0.0878028
0.24765 0.177258 0.0882937
0.248294 0.177088 0.0885548
0.248984 0.176889 0.0889308
0.249627 0.17672 0.0891918
0.25027 0.17655 0.0894529
0.25082 0.176441 0.0894841
0.251463 0.176271 0.0897452
0.252013 0.176162 0.0897765
0.25261 0.176023 0.0899226
0.253206 0.175883 0.0900688
0.253756 0.175774 0.0901001
0.254353 0.175634 0.0902462
0.254902 0.175525 0.0902775
0.255452 0.175416 0.0903087
0.256002 0.175306 0.0903399
0.256505 0.175227 0.0902563
0.257008 0.175148 0.0901727
0.257511 0.175068 0.0900891
0.258061 0.174959 0.0901203
0.258657 0.17482 0.0902665
0.259254 0.17468 0.0904126
0.259803 0.174571 0.0904439
0.2604 0.174432 0.09059
0.26095 0.174322 0.0906213
0.261499 0.174213 0.0906525
0.262049 0.174103 0.0906838
0.262599 0.173994 0.090715
0.263102 0.173915 0.0906314
0.263605 0.173835 0.0905478
0.264108 0.173756 0.0904641
0.264658 0.173647 0.0904953
0.265161 0.173567 0.0904116
0.265664 0.173488 0.0903281
0.26612 0.173439 0.0901294
0.266623 0.173359 0.0900458
0.267079 0.17331 0.0898472
0.267489 0.173291 0.0895338
0.267945 0.173242 0.0893352
0.268308 0.173252 0.0889068
0.268717 0.173233 0.0885933
0.26908 0.173244 0.088165
0.269489 0.173225 0.0878515
0.269945 0.173175 0.0876529
0.270402 0.173126 0.0874543
0.270905 0.173047 0.0873707
0.271361 0.172997 0.0871722
0.271864 0.172918 0.0870885
0.27232 0.172869 0.0868899
0.272776 0.17282 0.0866914
0.273233 0.17277 0.0864928
0.273689 0.172721 0.0862942
0.274192 0.172642 0.0862105
0.274695 0.172562 0.0861269
0.275151 0.172513 0.0859283
0.275607 0.172464 0.0857298
0.27611 0.172384 0.0856461
0.276566 0.172335 0.0854475
0.277023 0.172286 0.085249
0.277479 0.172237 0.0850504
0.277888 0.172217 0.0847369
0.278345 0.172168 0.0845383
0.278754 0.172149 0.0842248
0.279163 0.172129 0.0839115
0.279573 0.17211 0.083598
0.279936 0.172121 0.0831695
0.280345 0.172102 0.0828561
0.280708 0.172113 0.0824277
0.281071 0.172123 0.0819992
0.281386 0.172164 0.081456
0.281702 0.172205 0.0809127
0.282018 0.172246 0.0803694
0.282428 0.172226 0.0800559
0.282837 0.172207 0.0797425
0.283293 0.172158 0.0795439
0.283796 0.172079 0.0794603
0.284252 0.172029 0.0792617
0.284756 0.17195 0.079178
0.285259 0.171871 0.0790944
0.285762 0.171791 0.0790107
0.286311 0.171682 0.0790419
0.286861 0.171573 0.0790732
0.287317 0.171523 0.0788747
0.287773 0.171474 0.0786761
0.288183 0.171455 0.0783626
0.288639 0.171406 0.0781641
0.289049 0.171386 0.0778506
0.289505 0.171337 0.077652
0.290008 0.171258 0.0775683
0.290464 0.171208 0.0773698
0.290967 0.171129 0.0772861
0.291564 0.17099 0.0774322
0.292067 0.17091 0.0773486
0.29257 0.170831 0.0772649
0.292979 0.170812 0.0769515
0.293435 0.170763 0.0767529
0.293892 0.170713 0.0765543
0.294301 0.170694 0.0762409
0.294757 0.170645 0.0760423
0.29526 0.170565 0.0759587
0.29581 0.170456 0.0759899
0.296407 0.170317 0.0761361
0.297143 0.170087 0.076627
0.297927 0.169828 0.0772327
0.298757 0.169538 0.0779534
0.299401 0.169369 0.0782146
0.300216 0.169081 0.0788996
0.30089 0.168883 0.0792398
0.301696 0.168596 0.0799034
0.302327 0.168427 0.0801359
0.303045 0.1682 0.080584
0.30372 0.168002 0.0809242
0.304395 0.167804 0.0812644
0.304939 0.167695 0.0812814
0.305526 0.167557 0.0814061
0.306157 0.167389 0.0816387
0.306744 0.16725 0.0817634
0.307288 0.167141 0.0817804
0.307831 0.167033 0.0817974
0.308375 0.166924 0.0818143
0.308919 0.166815 0.0818312
0.309462 0.166707 0.0818483
0.310006 0.166598 0.0818652
0.310506 0.166519 0.0817744
0.311006 0.16644 0.0816836
0.311549 0.166331 0.0817006
0.312049 0.166252 0.0816098
0.312549 0.166173 0.0815189
0.313049 0.166094 0.0814282
0.313549 0.166015 0.0813373
0.314049 0.165936 0.0812466
0.314549 0.165857 0.0811558
0.315005 0.165808 0.0809572
0.315461 0.165758 0.0807587
0.315874 0.165739 0.0804523
0.316286 0.165719 0.0801459
0.316699 0.1657 0.0798396
0.317155 0.16565 0.079641
0.317699 0.165542 0.079658
0.318199 0.165463 0.0795673
0.318698 0.165384 0.0794765
0.319155 0.165334 0.0792779
0.319655 0.165255 0.079187
0.320111 0.165206 0.0789885
0.320567 0.165157 0.0787899
0.321023 0.165108 0.0785913
0.321436 0.165088 0.078285
0.321892 0.165039 0.0780865
0.322305 0.165019 0.0777802
0.322761 0.16497 0.0775816
0.32313 0.16498 0.0771674
0.323586 0.164931 0.0769689
0.324042 0.164881 0.0767703
0.324455 0.164862 0.076464
0.324867 0.164842 0.0761576
0.325323 0.164793 0.075959
0.325823 0.164714 0.0758683
0.326192 0.164724 0.0754542
0.326648 0.164675 0.0752557
0.327061 0.164655 0.0749493
0.327517 0.164606 0.0747508
0.327973 0.164557 0.0745522
0.328386 0.164537 0.0742458
0.328842 0.164488 0.0740473
0.329255 0.164468 0.073741
0.329667 0.164449 0.0734346
0.33008 0.164429 0.0731282
0.330536 0.16438 0.0729297
0.330948 0.16436 0.0726233
0.331361 0.164341 0.0723171
0.331817 0.164291 0.0721186
0.33223 0.164272 0.0718122
0.332642 0.164252 0.0715059
0.333099 0.164203 0.0713073
0.333511 0.164183 0.0710009
0.333924 0.164164 0.0706946
0.334336 0.164144 0.0703882
0.334749 0.164125 0.070082
0.335161 0.164105 0.0697757
0.335574 0.164086 0.0694693
0.335986 0.164066 0.069163
0.336399 0.164046 0.0688566
0.336811 0.164027 0.0685502
0.33718 0.164037 0.0681362
0.337549 0.164047 0.0677221
0.337918 0.164057 0.0673079
0.338243 0.164097 0.0667861
0.338481 0.164196 0.0660488
0.33885 0.164207 0.0656346
0.339219 0.164217 0.0652205
0.339587 0.164227 0.0648064
0.339956 0.164237 0.0643924
0.340238 0.164307 0.0637627
0.340563 0.164347 0.0632408
0.340626 0.164565 0.0620723
0.340907 0.164634 0.0614428
0.341232 0.164674 0.0609209
0.341689 0.164625 0.0607223
0.342145 0.164576 0.0605237
0.342645 0.164497 0.0604329
0.343101 0.164447 0.0602344
0.343557 0.164398 0.0600358
0.344013 0.164349 0.0598372
0.344426 0.164329 0.0595309
0.344839 0.16431 0.0592246
0.345251 0.16429 0.0589183
0.34562 0.1643 0.0585042
0.345983 0.164311 0.0580758
0.346345 0.164322 0.0576474
0.346661 0.164363 0.0571041
0.347024 0.164373 0.0566757
0.347293 0.164444 0.0560175
0.347609 0.164485 0.0554742
0.347925 0.164526 0.0549309
0.348147 0.164627 0.0541578
0.34837 0.164728 0.0533847
0.348686 0.164769 0.0528414
0.349002 0.164809 0.0522981
0.349364 0.16482 0.0518697
0.349774 0.164801 0.0515562
0.350183 0.164782 0.0512427
0.350593 0.164762 0.0509293
0.351002 0.164743 0.0506158
0.351412 0.164724 0.0503023
0.351774 0.164735 0.049874
0.352137 0.164745 0.0494455
0.352359 0.164846 0.0486724
0.352675 0.164887 0.0481291
0.352898 0.164988 0.047356
0.353073 0.165119 0.046468
0.353343 0.16519 0.0458098
0.353471 0.165351 0.0448068
0.353694 0.165452 0.0440338
0.353869 0.165583 0.0431457
0.353951 0.165774 0.0420279
0.35422 0.165844 0.0413697
0.354443 0.165945 0.0405966
0.354618 0.166076 0.0397086
0.354747 0.166237 0.0387055
0.354876 0.166398 0.0377026
0.355005 0.166559 0.0366998
0.355134 0.16672 0.0356968
0.355169 0.166941 0.034464
0.355251 0.167132 0.0333462
0.355474 0.167233 0.0325731
0.355556 0.167424 0.0314551
0.355638 0.167615 0.0303373
0.355626 0.167866 0.0289897
0.355615 0.168117 0.0276421
0.355697 0.168308 0.0265241
0.35212 0.171093 0.0150957
0.232452 0.183047 0.0764876
0.233843 0.182396 0.0785868
0.234767 0.182045 0.079537
0.235784 0.181634 0.0807171
0.236521 0.181405 0.0812078
0.237351 0.181115 0.0819283
0.238134 0.180854 0.082534
0.238918 0.180594 0.0831396
0.239514 0.180455 0.0832857
0.240204 0.180255 0.0836616
0.241128 0.179904 0.0846118
0.241771 0.179735 0.0848728
0.242461 0.179535 0.0852487
0.243198 0.179305 0.0857394
0.243935 0.179075 0.0862303
0.244625 0.178875 0.086606
0.245361 0.178645 0.0870969
0.246051 0.178445 0.0874727
0.246741 0.178246 0.0878485
0.247431 0.178046 0.0882245
0.248075 0.177876 0.0884854
0.248811 0.177646 0.0889761
0.249408 0.177506 0.0891222
0.250098 0.177307 0.0894981
0.250694 0.177167 0.0896442
0.251291 0.177027 0.0897903
0.251887 0.176888 0.0899363
0.252484 0.176748 0.0900825
0.253033 0.176639 0.0901137
0.25363 0.176499 0.0902598
0.254226 0.176359 0.0904058
0.254823 0.17622 0.0905519
0.255373 0.17611 0.0905832
0.255922 0.176001 0.0906143
0.256425 0.175921 0.0905307
0.256928 0.175842 0.090447
0.257431 0.175763 0.0903633
0.257934 0.175683 0.0902796
0.258484 0.175574 0.0903109
0.25908 0.175434 0.0904569
0.25963 0.175325 0.090488
0.26018 0.175215 0.0905194
0.260776 0.175075 0.0906654
0.261326 0.174966 0.0906966
0.261876 0.174856 0.0907279
0.262472 0.174717 0.0908739
0.262975 0.174637 0.0907903
0.263478 0.174558 0.0907066
0.263981 0.174479 0.0906229
0.264531 0.174369 0.0906541
0.265034 0.17429 0.0905704
0.265537 0.17421 0.0904867
0.26604 0.174131 0.0904031
0.266496 0.174082 0.0902045
0.266999 0.174002 0.0901209
0.267455 0.173953 0.0899223
0.267865 0.173934 0.0896088
0.268274 0.173914 0.0892953
0.268684 0.173895 0.0889819
0.269093 0.173876 0.0886685
0.269503 0.173857 0.088355
0.269959 0.173808 0.0881564
0.270462 0.173728 0.0880727
0.270918 0.173679 0.0878742
0.271374 0.17363 0.0876756
0.271831 0.17358 0.0874771
0.272287 0.173531 0.0872785
0.272696 0.173512 0.086965
0.273152 0.173463 0.0867665
0.273609 0.173413 0.0865679
0.274065 0.173364 0.0863693
0.274521 0.173315 0.0861707
0.274977 0.173266 0.0859722
0.275434 0.173216 0.0857736
0.27589 0.173167 0.0855751
0.276393 0.173087 0.0854914
0.276849 0.173038 0.0852928
0.277305 0.172989 0.0850942
0.277762 0.17294 0.0848957
0.278171 0.17292 0.0845822
0.278627 0.172871 0.0843837
0.279037 0.172852 0.0840702
0.279446 0.172833 0.0837568
0.279856 0.172814 0.0834433
0.280218 0.172825 0.083015
0.280581 0.172835 0.0825866
0.280897 0.172877 0.0820434
0.28126 0.172888 0.0816151
0.281576 0.172928 0.0810718
0.281938 0.172939 0.0806435
0.282348 0.17292 0.0803301
0.282804 0.172871 0.0801315
0.28326 0.172822 0.0799329
0.283717 0.172772 0.0797344
0.284173 0.172723 0.0795358
0.284629 0.172674 0.0793372
0.285085 0.172625 0.0791387
0.285635 0.172515 0.0791698
0.286138 0.172436 0.0790862
0.286735 0.172296 0.0792322
0.287237 0.172217 0.0791486
0.287694 0.172167 0.0789501
0.28815 0.172118 0.0787515
0.288606 0.172069 0.0785529
0.289016 0.17205 0.0782395
0.289472 0.172 0.0780409
0.290022 0.171891 0.0780721
0.290478 0.171842 0.0778735
0.290981 0.171762 0.0777898
0.291577 0.171623 0.077936
0.29208 0.171543 0.0778522
0.292536 0.171494 0.0776537
0.292993 0.171445 0.0774551
0.293402 0.171425 0.0771417
0.293812 0.171406 0.0768282
0.294268 0.171357 0.0766297
0.294724 0.171308 0.0764311
0.29518 0.171258 0.0762325
0.295683 0.171179 0.0761489
0.296233 0.171069 0.0761801
0.296783 0.17096 0.0762113
0.297566 0.1707 0.0768169
0.298256 0.1705 0.0771927
0.299133 0.17018 0.0780282
0.299776 0.17001 0.0782892
0.300504 0.169781 0.0787585
0.301222 0.169553 0.0792063
0.30194 0.169325 0.0796542
0.302571 0.169156 0.0798867
0.30329 0.168928 0.0803345
0.304052 0.168671 0.0808902
0.304683 0.168502 0.0811226
0.30527 0.168363 0.0812473
0.305857 0.168225 0.0813719
0.306444 0.168086 0.0814967
0.307032 0.167947 0.0816213
0.307575 0.167838 0.0816383
0.308162 0.1677 0.081763
0.308706 0.167591 0.0817799
0.309206 0.167512 0.081689
0.309793 0.167373 0.0818136
0.310337 0.167264 0.0818306
0.310837 0.167185 0.0817398
0.31138 0.167076 0.0817567
0.31188 0.166997 0.0816659
0.31238 0.166918 0.081575
0.312924 0.166809 0.081592
0.31338 0.16676 0.0813935
0.31388 0.166681 0.0813026
0.31438 0.166602 0.0812118
0.31488 0.166523 0.0811209
0.315336 0.166473 0.0809224
0.315792 0.166424 0.0807238
0.316205 0.166405 0.0804175
0.316617 0.166385 0.0801112
0.317073 0.166336 0.0799126
0.31753 0.166287 0.079714
0.318029 0.166208 0.0796232
0.318529 0.166128 0.0795324
0.319029 0.166049 0.0794416
0.319485 0.166 0.0792431
0.319985 0.165921 0.0791522
0.320442 0.165872 0.0789537
0.320898 0.165822 0.0787551
0.32131 0.165803 0.0784488
0.321767 0.165754 0.0782502
0.322223 0.165704 0.0780516
0.322635 0.165685 0.0777453
0.323048 0.165665 0.077439
0.323504 0.165616 0.0772404
0.323917 0.165597 0.0769341
0.324373 0.165547 0.0767355
0.324785 0.165528 0.0764293
0.325242 0.165479 0.0762307
0.325654 0.165459 0.0759244
0.32611 0.16541 0.0757259
0.326523 0.16539 0.0754195
0.326979 0.165341 0.0752209
0.327436 0.165292 0.0750224
0.327848 0.165272 0.074716
0.328261 0.165253 0.0744098
0.328717 0.165203 0.0742112
0.329129 0.165184 0.073905
0.329498 0.165194 0.0734908
0.329911 0.165175 0.0731845
0.330367 0.165125 0.072986
0.330823 0.165076 0.0727874
0.331236 0.165057 0.0724811
0.331648 0.165037 0.0721747
0.332061 0.165018 0.0718685
0.332473 0.164998 0.0715622
0.33293 0.164949 0.0713636
0.333299 0.164959 0.0709495
0.333755 0.16491 0.070751
0.334167 0.16489 0.0704447
0.334536 0.164901 0.0700306
0.334992 0.164851 0.069832
0.335449 0.164802 0.0696335
0.335818 0.164812 0.0692195
0.33623 0.164793 0.0689131
0.336686 0.164744 0.0687145
0.337055 0.164754 0.0683005
0.337424 0.164764 0.0678864
0.337837 0.164745 0.0675801
0.338162 0.164785 0.0670583
0.338443 0.164855 0.0664287
0.338769 0.164895 0.065907
0.339181 0.164875 0.0656006
0.33955 0.164886 0.0651867
0.339919 0.164896 0.0647726
0.340244 0.164936 0.0642507
0.340482 0.165036 0.0635135
0.34072 0.165135 0.0627761
0.340827 0.165324 0.0617157
0.341108 0.165394 0.0610862
0.341521 0.165375 0.0607798
0.341977 0.165326 0.0605813
0.342433 0.165276 0.0603827
0.342933 0.165197 0.0602919
0.343389 0.165148 0.0600934
0.343845 0.165098 0.0598948
0.344302 0.165049 0.0596962
0.344714 0.16503 0.0593899
0.345127 0.16501 0.0590835
0.345539 0.164991 0.0587772
0.345902 0.165002 0.0583489
0.346265 0.165013 0.0579205
0.346627 0.165024 0.0574923
0.346944 0.165065 0.0569489
0.347259 0.165106 0.0564057
0.347576 0.165147 0.0558625
0.347845 0.165218 0.0552044
0.348114 0.165289 0.0545463
0.348383 0.16536 0.0538882
0.348652 0.165431 0.0532301
0.349015 0.165442 0.0528017
0.349331 0.165483 0.0522586
0.349741 0.165464 0.0519451
0.35015 0.165445 0.0516316
0.350513 0.165456 0.0512033
0.350969 0.165407 0.0510048
0.351378 0.165387 0.0506913
0.351695 0.165428 0.0501481
0.352057 0.165439 0.0497198
0.352373 0.16548 0.0491765
0.352642 0.165551 0.0485184
0.352958 0.165593 0.0479752
0.353087 0.165754 0.0469724
0.353357 0.165825 0.0463143
0.353579 0.165926 0.0455413
0.353755 0.166058 0.0446534
0.353931 0.166189 0.0437656
0.354106 0.166321 0.0428776
0.354235 0.166482 0.0418749
0.354504 0.166553 0.0412167
0.354587 0.166745 0.0400992
0.354762 0.166876 0.0392113
0.354985 0.166977 0.0384383
0.354974 0.167229 0.0370908
0.355149 0.167361 0.036203
0.355185 0.167582 0.0349704
0.355267 0.167774 0.0338528
0.35549 0.167875 0.0330798
0.355525 0.168097 0.0318472
0.35556 0.168319 0.0306148
0.355643 0.16851 0.029497
0.355678 0.168732 0.0282645
0.35562 0.169014 0.0268022
0.351951 0.171866 0.0151463
0.232469 0.183694 0.0769961
0.233533 0.183253 0.0782907
0.23469 0.182751 0.079815
0.235567 0.18243 0.0806502
0.23649 0.182078 0.0816003
0.237227 0.181848 0.0820909
0.23801 0.181587 0.0826964
0.238747 0.181357 0.0831869
0.239437 0.181157 0.0835627
0.240127 0.180957 0.0839384
0.240957 0.180666 0.0846588
0.241647 0.180466 0.0850345
0.24229 0.180296 0.0852954
0.24298 0.180096 0.0856711
0.243716 0.179865 0.0861617
0.244406 0.179665 0.0865375
0.245143 0.179435 0.0870281
0.245833 0.179234 0.0874038
0.246523 0.179034 0.0877796
0.247166 0.178864 0.0880404
0.247856 0.178664 0.0884162
0.248545 0.178464 0.0887919
0.249235 0.178264 0.0891677
0.249879 0.178094 0.0894285
0.250522 0.177923 0.0896894
0.251165 0.177753 0.0899502
0.251715 0.177644 0.0899815
0.252311 0.177504 0.0901275
0.252907 0.177364 0.0902735
0.253457 0.177255 0.0903046
0.254053 0.177115 0.0904506
0.254697 0.176945 0.0907115
0.255246 0.176835 0.0907427
0.255796 0.176725 0.0907739
0.256346 0.176616 0.090805
0.256849 0.176536 0.0907213
0.257352 0.176457 0.0906375
0.257808 0.176407 0.090439
0.258311 0.176328 0.0903553
0.258861 0.176218 0.0903864
0.259457 0.176078 0.0905325
0.260007 0.175969 0.0905637
0.260556 0.175859 0.0905948
0.261106 0.175749 0.0906259
0.261702 0.17561 0.090772
0.262252 0.1755 0.0908032
0.262802 0.17539 0.0908343
0.263305 0.175311 0.0907506
0.263854 0.175201 0.0907817
0.264357 0.175122 0.090698
0.264907 0.175012 0.0907292
0.26541 0.174933 0.0906455
0.265913 0.174853 0.0905619
0.266369 0.174804 0.0903633
0.266872 0.174724 0.0902795
0.267328 0.174675 0.090081
0.267785 0.174626 0.0898824
0.268194 0.174607 0.089569
0.26865 0.174557 0.0893705
0.269107 0.174508 0.0891719
0.269516 0.174489 0.0888584
0.270019 0.17441 0.0887747
0.270475 0.17436 0.0885762
0.270931 0.174311 0.0883776
0.271388 0.174262 0.088179
0.271844 0.174212 0.0879805
0.2723 0.174163 0.087782
0.27271 0.174144 0.0874685
0.273119 0.174125 0.087155
0.273575 0.174076 0.0869564
0.273985 0.174057 0.0866431
0.274394 0.174037 0.0863296
0.274851 0.173988 0.086131
0.275307 0.173939 0.0859325
0.275716 0.17392 0.085619
0.276219 0.17384 0.0855353
0.276629 0.173821 0.0852219
0.277085 0.173772 0.0850233
0.277541 0.173723 0.0848248
0.277998 0.173673 0.0846262
0.278454 0.173624 0.0844276
0.278863 0.173605 0.0841142
0.279273 0.173586 0.0838008
0.279682 0.173567 0.0834874
0.280045 0.173578 0.0830591
0.280361 0.173619 0.0825159
0.280724 0.17363 0.0820876
0.281087 0.173641 0.0816594
0.281449 0.173652 0.0812311
0.281859 0.173633 0.0809176
0.282315 0.173584 0.0807191
0.282724 0.173565 0.0804057
0.283227 0.173485 0.0803219
0.283637 0.173466 0.0800085
0.284093 0.173417 0.0798099
0.284549 0.173368 0.0796113
0.285006 0.173318 0.0794128
0.285462 0.173269 0.0792142
0.286012 0.173159 0.0792455
0.286561 0.17305 0.0792765
0.287111 0.17294 0.0793077
0.287614 0.172861 0.079224
0.288117 0.172781 0.0791403
0.288573 0.172732 0.0789418
0.289029 0.172683 0.0787432
0.289486 0.172633 0.0785446
0.289988 0.172554 0.0784609
0.290491 0.172474 0.0783772
0.291041 0.172365 0.0784083
0.291544 0.172285 0.0783246
0.292047 0.172206 0.078241
0.29255 0.172126 0.0781572
0.292959 0.172107 0.0778438
0.293416 0.172058 0.0776453
0.293825 0.172039 0.0773318
0.294281 0.171989 0.0771332
0.294691 0.17197 0.0768198
0.295147 0.171921 0.0766212
0.295557 0.171902 0.0763079
0.29606 0.171822 0.0762241
0.296609 0.171713 0.0762554
0.297206 0.171573 0.0764013
0.297849 0.171403 0.0766623
0.298632 0.171142 0.0772676
0.299416 0.170882 0.0778731
0.300105 0.170682 0.0782489
0.300836 0.170452 0.0787252
0.30151 0.170253 0.0790652
0.302229 0.170025 0.079513
0.302859 0.169856 0.0797453
0.303621 0.169598 0.0803009
0.304339 0.169369 0.0807486
0.30497 0.1692 0.0809809
0.305557 0.169061 0.0811055
0.306145 0.168922 0.0812302
0.306732 0.168784 0.0813547
0.307319 0.168645 0.0814794
0.307906 0.168506 0.081604
0.30845 0.168397 0.0816208
0.308993 0.168288 0.0816377
0.309537 0.168179 0.0816546
0.31008 0.16807 0.0816714
0.310668 0.167931 0.0817961
0.311168 0.167852 0.0817052
0.311711 0.167743 0.0817221
0.312211 0.167664 0.0816313
0.312711 0.167584 0.0815404
0.313211 0.167505 0.0814496
0.313711 0.167426 0.0813587
0.314211 0.167347 0.0812679
0.31471 0.167268 0.081177
0.315167 0.167219 0.0809785
0.315667 0.167139 0.0808877
0.316123 0.16709 0.0806892
0.316535 0.167071 0.0803828
0.316991 0.167021 0.0801843
0.317448 0.166972 0.0799856
0.317904 0.166923 0.0797871
0.31836 0.166873 0.0795885
0.31886 0.166794 0.0794977
0.31936 0.166715 0.0794069
0.319816 0.166666 0.0792083
0.320272 0.166617 0.0790098
0.320729 0.166567 0.0788112
0.321185 0.166518 0.0786126
0.321641 0.166469 0.0784141
0.322097 0.166419 0.0782155
0.322554 0.16637 0.0780169
0.322966 0.166351 0.0777106
0.323379 0.166331 0.0774043
0.323791 0.166312 0.077098
0.324248 0.166263 0.0768994
0.32466 0.166243 0.0765932
0.325116 0.166194 0.0763945
0.325573 0.166145 0.076196
0.325985 0.166125 0.0758898
0.326398 0.166106 0.0755835
0.326854 0.166056 0.0753849
0.32731 0.166007 0.0751864
0.327723 0.165988 0.07488
0.328135 0.165968 0.0745737
0.328548 0.165949 0.0742674
0.329004 0.1659 0.0740689
0.329373 0.16591 0.0736549
0.329786 0.165891 0.0733486
0.330242 0.165841 0.0731501
0.330654 0.165822 0.0728437
0.331067 0.165802 0.0725375
0.331479 0.165783 0.0722312
0.331892 0.165764 0.0719249
0.332305 0.165744 0.0716186
0.332717 0.165725 0.0713123
0.33313 0.165705 0.0710059
0.333542 0.165686 0.0706997
0.333955 0.165667 0.0703935
0.334367 0.165647 0.0700872
0.33478 0.165628 0.0697808
0.335193 0.165608 0.0694746
0.335649 0.165559 0.0692759
0.336061 0.16554 0.0689697
0.336474 0.16552 0.0686634
0.336887 0.165501 0.0683571
0.337299 0.165481 0.0680508
0.337668 0.165492 0.0676368
0.338037 0.165502 0.0672228
0.338362 0.165543 0.0667011
0.338688 0.165583 0.0661793
0.3391 0.165563 0.0658731
0.339469 0.165574 0.0654591
0.339838 0.165584 0.065045
0.340163 0.165625 0.0645233
0.340445 0.165695 0.0638938
0.340683 0.165795 0.0631567
0.340833 0.165955 0.062204
0.340984 0.166114 0.0612514
0.341353 0.166125 0.0608374
0.341809 0.166076 0.0606388
0.342265 0.166026 0.0604403
0.342765 0.165947 0.0603494
0.343221 0.165898 0.0601509
0.343721 0.165819 0.0600601
0.344134 0.165799 0.0597537
0.34459 0.16575 0.0595552
0.345003 0.165731 0.0592488
0.345459 0.165681 0.0590503
0.345775 0.165723 0.0585071
0.346184 0.165703 0.0581937
0.346547 0.165714 0.0577654
0.34691 0.165726 0.0573371
0.347226 0.165767 0.056794
0.347495 0.165838 0.056136
0.347811 0.165879 0.0555929
0.348081 0.165951 0.0549348
0.348397 0.165992 0.0543916
0.348666 0.166064 0.0537336
0.348982 0.166105 0.0531904
0.349345 0.166116 0.0527622
0.349708 0.166127 0.0523339
0.35007 0.166138 0.0519056
0.35048 0.166119 0.0515922
0.350889 0.1661 0.0512788
0.351252 0.166111 0.0508506
0.351615 0.166122 0.0504222
0.351931 0.166163 0.049879
0.352294 0.166175 0.0494508
0.352563 0.166246 0.0487927
0.352879 0.166287 0.0482496
0.353055 0.166419 0.0473618
0.353324 0.16649 0.0467039
0.353593 0.166562 0.0460459
0.353769 0.166694 0.0451581
0.353992 0.166795 0.0443852
0.354168 0.166927 0.0434975
0.354297 0.167089 0.042495
0.354473 0.167221 0.0416072
0.354695 0.167323 0.0408343
0.354777 0.167515 0.0397169
0.354953 0.167647 0.0388291
0.355129 0.167778 0.0379414
0.355071 0.168061 0.0364793
0.3552 0.168223 0.0354768
0.355283 0.168415 0.0343594
0.355505 0.168517 0.0335864
0.355494 0.168769 0.0322392
0.355577 0.168962 0.0311218
0.355753 0.169093 0.0302341
0.355741 0.169346 0.0288869
0.355637 0.169659 0.02731
0.355299 0.170123 0.0251587
0.352286 0.172559 0.0151133
0.232533 0.184311 0.0776193
0.233503 0.183929 0.078684
0.234613 0.183456 0.0800931
0.235583 0.183074 0.0811578
0.236367 0.182813 0.081763
0.237103 0.182582 0.0822534
0.237886 0.182321 0.0828587
0.23867 0.18206 0.083464
0.239313 0.18189 0.0837248
0.240049 0.181659 0.0842153
0.240739 0.181458 0.0845909
0.241475 0.181227 0.0850814
0.242118 0.181057 0.0853421
0.242808 0.180856 0.0857177
0.243498 0.180656 0.0860933
0.244235 0.180425 0.0865838
0.244878 0.180255 0.0868446
0.245661 0.179994 0.0874499
0.246304 0.179823 0.0877106
0.246994 0.179623 0.0880862
0.247637 0.179452 0.0883471
0.248327 0.179252 0.0887227
0.24897 0.179081 0.0889835
0.249659 0.178881 0.0893591
0.250349 0.17868 0.0897347
0.250946 0.17854 0.0898807
0.251542 0.1784 0.0900266
0.252185 0.17823 0.0902874
0.252781 0.17809 0.0904334
0.253331 0.17798 0.0904644
0.253927 0.17784 0.0906104
0.254524 0.1777 0.0907563
0.25512 0.17756 0.0909023
0.25567 0.17745 0.0909334
0.256219 0.17734 0.0909644
0.256769 0.17723 0.0909957
0.257272 0.177151 0.0909119
0.257728 0.177102 0.0907133
0.258184 0.177052 0.0905148
0.258734 0.176942 0.0905458
0.259237 0.176863 0.0904621
0.259787 0.176753 0.0904932
0.260336 0.176643 0.0905243
0.260933 0.176503 0.0906703
0.261482 0.176393 0.0907013
0.262079 0.176253 0.0908473
0.262628 0.176144 0.0908785
0.263131 0.176064 0.0907947
0.263681 0.175954 0.0908258
0.264184 0.175875 0.0907421
0.264733 0.175765 0.0907732
0.265237 0.175685 0.0906895
0.265786 0.175576 0.0907206
0.266242 0.175526 0.090522
0.266745 0.175447 0.0904383
0.267202 0.175397 0.0902397
0.267705 0.175318 0.090156
0.268161 0.175269 0.0899574
0.26857 0.17525 0.089644
0.269026 0.1752 0.0894455
0.269529 0.175121 0.0893617
0.269986 0.175072 0.0891631
0.270442 0.175022 0.0889646
0.270898 0.174973 0.088766
0.271401 0.174893 0.0886823
0.27181 0.174874 0.0883689
0.272267 0.174825 0.0881703
0.272676 0.174806 0.087857
0.273133 0.174757 0.0876584
0.273495 0.174768 0.0872301
0.273905 0.174749 0.0869167
0.274314 0.17473 0.0866033
0.274724 0.174711 0.0862899
0.275133 0.174692 0.0859765
0.275543 0.174673 0.0856631
0.275952 0.174654 0.0853497
0.276455 0.174574 0.0852659
0.276865 0.174555 0.0849526
0.277321 0.174506 0.084754
0.277777 0.174457 0.0845554
0.278234 0.174407 0.0843569
0.278643 0.174388 0.0840434
0.279053 0.174369 0.0837301
0.279462 0.17435 0.0834167
0.279871 0.174331 0.0831032
0.280188 0.174373 0.0825601
0.280597 0.174354 0.0822468
0.281007 0.174335 0.0819333
0.281416 0.174316 0.08162
0.281826 0.174296 0.0813066
0.282282 0.174247 0.081108
0.282738 0.174198 0.0809094
0.283148 0.174179 0.080596
0.283604 0.17413 0.0803975
0.284013 0.174111 0.0800841
0.284423 0.174092 0.0797707
0.284879 0.174042 0.0795721
0.285382 0.173963 0.0794884
0.285885 0.173883 0.0794046
0.286435 0.173773 0.0794358
0.286984 0.173664 0.0794669
0.287487 0.173584 0.0793831
0.28799 0.173504 0.0792994
0.28854 0.173395 0.0793305
0.288996 0.173345 0.0791319
0.289499 0.173266 0.0790482
0.290002 0.173186 0.0789645
0.290505 0.173107 0.0788807
0.291055 0.172997 0.0789118
0.291558 0.172917 0.0788281
0.292014 0.172868 0.0786296
0.292517 0.172788 0.0785459
0.292926 0.17277 0.0782325
0.293382 0.17272 0.0780339
0.293792 0.172701 0.0777204
0.294201 0.172682 0.0774071
0.294611 0.172663 0.0770937
0.295067 0.172614 0.0768951
0.295477 0.172595 0.0765817
0.295933 0.172546 0.0763832
0.296436 0.172466 0.0762994
0.296986 0.172356 0.0763305
0.297535 0.172246 0.0763617
0.298178 0.172076 0.0766224
0.298915 0.171845 0.0771128
0.299651 0.171614 0.0776034
0.300388 0.171384 0.0780937
0.301124 0.171153 0.0785842
0.301799 0.170954 0.0789242
0.302517 0.170725 0.0793718
0.303104 0.170586 0.0794964
0.303909 0.170297 0.0801594
0.304584 0.170098 0.0804994
0.305258 0.169899 0.0808393
0.305845 0.16976 0.0809638
0.306389 0.169651 0.0809806
0.306976 0.169512 0.0811052
0.307607 0.169342 0.0813374
0.308194 0.169203 0.081462
0.308694 0.169124 0.0813712
0.309237 0.169015 0.0813881
0.309781 0.168906 0.0814048
0.310368 0.168767 0.0815293
0.310911 0.168658 0.0815462
0.311455 0.168548 0.0815631
0.311998 0.168439 0.0815798
0.312498 0.16836 0.081489
0.313042 0.168251 0.0815058
0.313498 0.168201 0.0813072
0.313998 0.168122 0.0812164
0.314498 0.168043 0.0811255
0.314954 0.167994 0.080927
0.315498 0.167885 0.0809438
0.315954 0.167835 0.0807452
0.316454 0.167756 0.0806544
0.316866 0.167737 0.0803481
0.317322 0.167688 0.0801495
0.317779 0.167638 0.0799509
0.318235 0.167589 0.0797524
0.318691 0.16754 0.0795538
0.319191 0.16746 0.079463
0.319647 0.167411 0.0792644
0.320103 0.167362 0.0790658
0.32056 0.167312 0.0788673
0.321016 0.167263 0.0786687
0.321516 0.167184 0.0785779
0.321972 0.167135 0.0783793
0.322385 0.167115 0.078073
0.322841 0.167066 0.0778745
0.323297 0.167017 0.0776759
0.32371 0.166997 0.0773696
0.324122 0.166978 0.0770634
0.324535 0.166959 0.0767571
0.324991 0.166909 0.0765585
0.325447 0.16686 0.07636
0.32586 0.166841 0.0760537
0.326272 0.166821 0.0757474
0.326729 0.166772 0.0755489
0.327141 0.166753 0.0752426
0.327598 0.166703 0.075044
0.32801 0.166684 0.0747378
0.328423 0.166665 0.0744315
0.328835 0.166645 0.0741252
0.329248 0.166626 0.073819
0.329704 0.166577 0.0736204
0.330117 0.166557 0.0733142
0.330529 0.166538 0.0730079
0.330942 0.166519 0.0727016
0.331354 0.166499 0.0723953
0.331767 0.16648 0.0720891
0.332136 0.166491 0.0716751
0.332548 0.166471 0.0713688
0.332918 0.166482 0.0709548
0.33333 0.166463 0.0706485
0.333743 0.166443 0.0703422
0.334155 0.166424 0.0700361
0.334568 0.166405 0.0697298
0.33498 0.166385 0.0694235
0.335437 0.166336 0.0692249
0.335893 0.166287 0.0690264
0.336305 0.166267 0.0687201
0.336718 0.166248 0.0684138
0.33713 0.166229 0.0681076
0.337543 0.166209 0.0678013
0.337869 0.16625 0.0672795
0.338194 0.16629 0.0667579
0.338563 0.166301 0.066344
0.338975 0.166281 0.0660377
0.339388 0.166262 0.0657315
0.339713 0.166303 0.0652098
0.340082 0.166313 0.0647958
0.340364 0.166384 0.0641664
0.340602 0.166484 0.0634293
0.340753 0.166644 0.0624769
0.340903 0.166805 0.0615244
0.341225 0.166846 0.0609956
0.341635 0.166827 0.0606822
0.342091 0.166777 0.0604836
0.342594 0.166698 0.0603999
0.34305 0.166649 0.0602013
0.343553 0.166569 0.0601177
0.344009 0.16652 0.0599191
0.344466 0.16647 0.0597205
0.344875 0.166451 0.059407
0.345332 0.166402 0.0592085
0.345694 0.166413 0.0587803
0.346104 0.166394 0.0584669
0.346467 0.166405 0.0580386
0.346829 0.166417 0.0576104
0.347099 0.166488 0.0569526
0.347462 0.1665 0.0565242
0.347778 0.166541 0.0559812
0.348094 0.166583 0.0554381
0.348363 0.166654 0.0547802
0.348679 0.166696 0.0542371
0.348949 0.166768 0.0535792
0.349312 0.166779 0.053151
0.349674 0.16679 0.0527227
0.350037 0.166801 0.0522944
0.3504 0.166812 0.0518662
0.350809 0.166793 0.0515528
0.351172 0.166805 0.0511246
0.351535 0.166816 0.0506963
0.351898 0.166827 0.0502682
0.352167 0.166899 0.0496102
0.352483 0.16694 0.0490671
0.352799 0.166982 0.048524
0.353022 0.167084 0.0477513
0.353291 0.167155 0.0470934
0.353561 0.167227 0.0464355
0.353784 0.167329 0.0456627
0.353959 0.167462 0.0447752
0.354182 0.167564 0.0440023
0.354405 0.167665 0.0432296
0.354487 0.167858 0.0421124
0.354757 0.16793 0.0414545
0.354933 0.168062 0.0405668
0.355015 0.168255 0.0394496
0.355098 0.168448 0.0383323
0.35504 0.168731 0.0368705
0.355216 0.168864 0.0359829
0.355345 0.169026 0.0349805
0.355475 0.169189 0.0339781
0.355604 0.169351 0.0329756
0.355593 0.169604 0.0316287
0.355722 0.169767 0.0306264
0.355664 0.17005 0.0291646
0.355794 0.170213 0.0281622
0.355596 0.170587 0.0263559
0.352024 0.173393 0.0149344
0.232457 0.185018 0.0778979
0.233426 0.184635 0.0789622
0.23449 0.184192 0.0802563
0.235413 0.183839 0.0812058
0.236196 0.183578 0.0818109
0.236979 0.183316 0.0824161
0.237716 0.183085 0.0829064
0.238545 0.182793 0.0836263
0.239188 0.182622 0.083887
0.239925 0.182391 0.0843773
0.240614 0.18219 0.0847528
0.241304 0.181989 0.0851282
0.241947 0.181818 0.085389
0.242637 0.181617 0.0857645
0.24328 0.181447 0.0860252
0.244016 0.181216 0.0865155
0.244706 0.181015 0.086891
0.245442 0.180783 0.0873813
0.246085 0.180613 0.087642
0.246775 0.180412 0.0880174
0.247371 0.180272 0.0881633
0.248108 0.18004 0.0886537
0.248704 0.1799 0.0887995
0.24944 0.179669 0.0892899
0.250083 0.179498 0.0895505
0.250726 0.179327 0.0898112
0.251369 0.179157 0.0900719
0.252012 0.178986 0.0903326
0.252609 0.178846 0.0904784
0.253158 0.178736 0.0905095
0.253755 0.178596 0.0906554
0.254398 0.178425 0.090916
0.254947 0.178315 0.0909471
0.255544 0.178175 0.091093
0.256093 0.178065 0.0911239
0.256643 0.177955 0.0911551
0.257146 0.177875 0.0910713
0.257649 0.177796 0.0909876
0.258105 0.177746 0.0907891
0.258608 0.177667 0.0907053
0.259111 0.177587 0.0906215
0.259614 0.177508 0.0905377
0.260117 0.177428 0.090454
0.260713 0.177288 0.0905999
0.261262 0.177178 0.090631
0.261859 0.177037 0.0907768
0.262408 0.176927 0.0908079
0.262958 0.176818 0.0908389
0.263461 0.176738 0.0907551
0.26401 0.176628 0.0907862
0.264513 0.176548 0.0907024
0.265063 0.176438 0.0907336
0.265566 0.176359 0.0906498
0.266116 0.176249 0.0906809
0.266572 0.1762 0.0904823
0.267075 0.17612 0.0903986
0.267578 0.17604 0.0903148
0.268034 0.175991 0.0901162
0.26849 0.175942 0.0899176
0.268946 0.175892 0.0897191
0.269449 0.175813 0.0896353
0.269906 0.175764 0.0894367
0.270362 0.175714 0.0892381
0.270818 0.175665 0.0890396
0.271274 0.175616 0.088841
0.271777 0.175536 0.0887573
0.272187 0.175517 0.0884439
0.272643 0.175468 0.0882453
0.273052 0.175449 0.0879319
0.273415 0.17546 0.0875039
0.273825 0.175441 0.0871904
0.274188 0.175453 0.0867622
0.274597 0.175434 0.0864489
0.27496 0.175445 0.0860206
0.275369 0.175426 0.0857073
0.275826 0.175377 0.0855087
0.276282 0.175328 0.0853102
0.276738 0.175278 0.0851116
0.277194 0.175229 0.084913
0.277651 0.17518 0.0847145
0.278107 0.17513 0.0845159
0.278516 0.175111 0.0842025
0.278926 0.175092 0.0838892
0.279335 0.175074 0.0835757
0.279792 0.175024 0.0833772
0.280154 0.175036 0.082949
0.280564 0.175017 0.0826356
0.280974 0.174998 0.0823222
0.281383 0.174979 0.0820088
0.281793 0.17496 0.0816955
0.282249 0.17491 0.0814969
0.282705 0.174861 0.0812984
0.283115 0.174842 0.080985
0.283524 0.174823 0.0806717
0.283934 0.174804 0.0803582
0.284343 0.174785 0.0800448
0.284799 0.174736 0.0798462
0.285256 0.174687 0.0796476
0.285758 0.174607 0.079564
0.286308 0.174497 0.079595
0.286811 0.174418 0.0795113
0.287407 0.174277 0.0796572
0.28791 0.174198 0.0795734
0.288413 0.174118 0.0794896
0.288916 0.174038 0.0794059
0.289466 0.173929 0.0794369
0.289969 0.173849 0.0793532
0.290472 0.173769 0.0792694
0.290975 0.17369 0.0791857
0.291524 0.17358 0.0792167
0.29198 0.17353 0.0790182
0.292437 0.173481 0.0788196
0.292893 0.173432 0.078621
0.293302 0.173413 0.0783076
0.293712 0.173394 0.0779943
0.294121 0.173375 0.0776809
0.294578 0.173326 0.0774823
0.295034 0.173276 0.0772837
0.295444 0.173257 0.0769704
0.2959 0.173208 0.0767719
0.296356 0.173159 0.0765733
0.296812 0.17311 0.0763747
0.297362 0.173 0.0764057
0.297865 0.17292 0.076322
0.298461 0.17278 0.0764678
0.299104 0.172609 0.0767285
0.299887 0.172347 0.0773337
0.30067 0.172086 0.0779388
0.301407 0.171855 0.0784291
0.302087 0.171655 0.0787832
0.302805 0.171425 0.0792308
0.303349 0.171316 0.0792475
0.304066 0.171087 0.079695
0.304872 0.170797 0.080358
0.305502 0.170628 0.0805901
0.306089 0.170489 0.0807146
0.306677 0.170349 0.080839
0.307264 0.17021 0.0809634
0.307894 0.170041 0.0811956
0.308438 0.169931 0.0812124
0.308981 0.169822 0.0812293
0.309525 0.169713 0.081246
0.310025 0.169633 0.0811552
0.310655 0.169464 0.0813873
0.311199 0.169355 0.081404
0.311742 0.169245 0.0814209
0.312286 0.169136 0.0814376
0.312786 0.169057 0.0813468
0.313286 0.168977 0.0812559
0.313742 0.168928 0.0810574
0.314242 0.168849 0.0809664
0.314741 0.168769 0.0808756
0.315241 0.16869 0.0807847
0.315741 0.168611 0.0806938
0.316241 0.168532 0.0806029
0.316697 0.168482 0.0804043
0.317153 0.168433 0.0802058
0.31761 0.168384 0.0800072
0.318066 0.168334 0.0798086
0.318522 0.168285 0.0796101
0.318978 0.168236 0.0794115
0.319478 0.168157 0.0793206
0.319935 0.168107 0.0791221
0.320391 0.168058 0.0789235
0.320847 0.168009 0.078725
0.321303 0.167959 0.0785264
0.321803 0.16788 0.0784355
0.322259 0.167831 0.0782369
0.322672 0.167812 0.0779306
0.323128 0.167762 0.0777321
0.323541 0.167743 0.0774258
0.323997 0.167694 0.0772272
0.324409 0.167674 0.0769211
0.324866 0.167625 0.0767225
0.325278 0.167606 0.0764162
0.325734 0.167556 0.0762177
0.326191 0.167507 0.0760191
0.326603 0.167488 0.0757128
0.327016 0.167469 0.0754066
0.327472 0.167419 0.075208
0.327885 0.1674 0.0749019
0.328297 0.167381 0.0745956
0.32871 0.167362 0.0742893
0.329166 0.167312 0.0740907
0.329579 0.167293 0.0737845
0.329992 0.167274 0.0734783
0.330404 0.167254 0.073172
0.330817 0.167235 0.0728658
0.331229 0.167216 0.0725595
0.331598 0.167227 0.0721456
0.332011 0.167207 0.0718393
0.33238 0.167218 0.0714255
0.332749 0.167229 0.0710114
0.333118 0.16724 0.0705976
0.33353 0.16722 0.0702913
0.333943 0.167201 0.069985
0.334356 0.167182 0.0696788
0.334768 0.167162 0.0693726
0.335224 0.167113 0.069174
0.335637 0.167094 0.0688678
0.336093 0.167045 0.0686692
0.336506 0.167025 0.0683629
0.336918 0.167006 0.0680567
0.337331 0.166987 0.0677505
0.3377 0.166998 0.0673365
0.338025 0.167038 0.0668149
0.338438 0.167019 0.0665087
0.338851 0.167 0.0662024
0.33922 0.16701 0.0657885
0.339588 0.167021 0.0653746
0.339914 0.167062 0.0648529
0.340283 0.167073 0.0644391
0.340521 0.167173 0.0637021
0.340672 0.167334 0.0627498
0.340823 0.167495 0.0617974
0.341145 0.167536 0.0612687
0.341508 0.167548 0.0608405
0.341964 0.167498 0.0606419
0.34242 0.167449 0.0604433
0.342923 0.167369 0.0603596
0.343426 0.16729 0.0602759
0.343882 0.16724 0.0600774
0.344339 0.167191 0.0598788
0.344748 0.167172 0.0595654
0.345204 0.167123 0.0593668
0.345614 0.167104 0.0590534
0.345977 0.167115 0.0586252
0.34634 0.167127 0.0581971
0.346703 0.167138 0.0577688
0.347018 0.16718 0.0572258
0.347381 0.167191 0.0567977
0.347744 0.167202 0.0563694
0.34806 0.167244 0.0558264
0.348423 0.167256 0.0553983
0.348646 0.167358 0.0546256
0.348962 0.1674 0.0540827
0.349325 0.167411 0.0536544
0.349641 0.167453 0.0531115
0.349957 0.167494 0.0525684
0.350367 0.167475 0.0522551
0.350683 0.167517 0.0517121
0.351046 0.167529 0.0512839
0.351409 0.16754 0.0508556
0.351725 0.167582 0.0503127
0.352088 0.167593 0.0498845
0.352404 0.167635 0.0493415
0.35272 0.167676 0.0487984
0.352943 0.167779 0.0480258
0.353212 0.167851 0.047368
0.353528 0.167892 0.046825
0.353798 0.167965 0.0461672
0.353927 0.168128 0.045165
0.35415 0.16823 0.0443924
0.354373 0.168332 0.0436197
0.354595 0.168435 0.042847
0.354725 0.168598 0.0418448
0.354901 0.16873 0.0409573
0.355077 0.168863 0.0400699
0.35516 0.169056 0.0389529
0.355055 0.169371 0.0373766
0.355278 0.169473 0.0366039
0.355314 0.169697 0.0353721
0.355584 0.169769 0.0347142
0.355666 0.169963 0.0335972
0.355702 0.170186 0.0323653
0.355738 0.17041 0.0311334
0.355868 0.170573 0.0301312
0.355857 0.170827 0.0287844
0.355613 0.171233 0.0268637
0.232287 0.185786 0.0779469
0.23321 0.185433 0.0788962
0.234273 0.184988 0.0801899
0.235196 0.184635 0.0811392
0.236026 0.184343 0.081859
0.236809 0.18408 0.0824639
0.237638 0.183788 0.0831837
0.238328 0.183587 0.083559
0.239064 0.183355 0.0840493
0.239754 0.183154 0.0844246
0.24049 0.182922 0.0849147
0.24118 0.182721 0.0852902
0.241823 0.18255 0.0855507
0.242512 0.182348 0.0859261
0.243108 0.182208 0.0860719
0.243891 0.181946 0.0866769
0.244488 0.181805 0.0868226
0.245224 0.181574 0.0873128
0.245913 0.181372 0.0876882
0.246556 0.181201 0.0879488
0.247199 0.181031 0.0882094
0.247842 0.18086 0.08847
0.248485 0.180689 0.0887305
0.249175 0.180487 0.0891059
0.249864 0.180286 0.0894813
0.250507 0.180115 0.0897419
0.251197 0.179914 0.0901173
0.251793 0.179773 0.090263
0.252436 0.179602 0.0905236
0.253032 0.179462 0.0906694
0.253629 0.179321 0.0908152
0.254225 0.179181 0.090961
0.254774 0.179071 0.0909921
0.255371 0.17893 0.0911378
0.255967 0.17879 0.0912837
0.256517 0.17868 0.0913147
0.257019 0.1786 0.0912308
0.257569 0.17849 0.0912618
0.258025 0.178441 0.0910633
0.258528 0.178361 0.0909795
0.259031 0.178281 0.0908957
0.259487 0.178232 0.0906971
0.25999 0.178152 0.0906134
0.260493 0.178073 0.0905296
0.261043 0.177962 0.0905607
0.261639 0.177822 0.0907064
0.262188 0.177712 0.0907374
0.262738 0.177602 0.0907685
0.263288 0.177492 0.0907994
0.26379 0.177412 0.0907157
0.26434 0.177302 0.0907468
0.26489 0.177192 0.0907777
0.265393 0.177112 0.0906939
0.265895 0.177032 0.0906102
0.266445 0.176922 0.0906412
0.266948 0.176843 0.0905574
0.267451 0.176763 0.0904736
0.267907 0.176714 0.0902751
0.26841 0.176634 0.0901912
0.268866 0.176585 0.0899927
0.269322 0.176535 0.0897941
0.269825 0.176456 0.0897104
0.270235 0.176437 0.089397
0.270738 0.176357 0.0893132
0.271194 0.176308 0.0891147
0.27165 0.176259 0.0889161
0.272106 0.176209 0.0887175
0.272516 0.17619 0.0884042
0.272926 0.176172 0.0880908
0.273335 0.176153 0.0877774
0.273698 0.176164 0.0873493
0.274108 0.176145 0.087036
0.27447 0.176157 0.0866079
0.27488 0.176138 0.0862944
0.275243 0.176149 0.0858663
0.275652 0.17613 0.085553
0.276155 0.176051 0.0854692
0.276658 0.175971 0.0853855
0.277114 0.175922 0.0851869
0.277617 0.175842 0.0851031
0.278074 0.175793 0.0849045
0.27853 0.175744 0.0847059
0.278893 0.175755 0.0842778
0.279255 0.175767 0.0838497
0.279712 0.175717 0.0836511
0.280121 0.175698 0.0833378
0.280531 0.17568 0.0830244
0.28094 0.175661 0.0827111
0.28135 0.175642 0.0823977
0.281806 0.175592 0.0821991
0.282216 0.175574 0.0818858
0.282672 0.175524 0.0816873
0.283082 0.175505 0.0813738
0.283444 0.175517 0.0809457
0.283854 0.175498 0.0806324
0.28431 0.175449 0.0804338
0.28472 0.17543 0.0801204
0.285129 0.175411 0.079807
0.285632 0.175331 0.0797232
0.286135 0.175252 0.0796396
0.286685 0.175142 0.0796706
0.287234 0.175031 0.0797016
0.287784 0.174921 0.0797326
0.288334 0.174811 0.0797636
0.288836 0.174732 0.0796798
0.289386 0.174621 0.0797108
0.289889 0.174542 0.0796271
0.290392 0.174462 0.0795432
0.290941 0.174352 0.0795742
0.291398 0.174303 0.0793757
0.2919 0.174223 0.079292
0.292357 0.174174 0.0790934
0.292813 0.174124 0.0788948
0.293222 0.174105 0.0785814
0.293632 0.174087 0.0782681
0.294135 0.174007 0.0781843
0.294544 0.173988 0.077871
0.295001 0.173939 0.0776724
0.295457 0.173889 0.0774738
0.295866 0.173871 0.0771604
0.296323 0.173821 0.0769619
0.296732 0.173802 0.0766485
0.297235 0.173723 0.0765647
0.297738 0.173643 0.076481
0.298288 0.173533 0.076512
0.298837 0.173423 0.076543
0.299387 0.173313 0.076574
0.300076 0.173111 0.0769494
0.300859 0.172849 0.0775543
0.301642 0.172587 0.0781593
0.302376 0.172356 0.0786424
0.303093 0.172126 0.0790897
0.303593 0.172047 0.0789988
0.304311 0.171817 0.0794462
0.305072 0.171557 0.0800012
0.305703 0.171387 0.0802333
0.306334 0.171218 0.0804654
0.306921 0.171078 0.0805898
0.307508 0.170938 0.0807141
0.308139 0.170769 0.0809462
0.308682 0.170659 0.0809631
0.309225 0.17055 0.0809798
0.309769 0.170441 0.0809966
0.310269 0.170361 0.0809056
0.310856 0.170222 0.08103
0.311443 0.170082 0.0811545
0.311986 0.169973 0.0811712
0.31253 0.169863 0.081188
0.31303 0.169784 0.081097
0.313529 0.169704 0.0810061
0.313986 0.169655 0.0808076
0.314442 0.169606 0.0806091
0.314942 0.169526 0.0805182
0.315485 0.169417 0.0805348
0.315985 0.169338 0.080444
0.316485 0.169258 0.080353
0.316985 0.169179 0.0802621
0.317441 0.16913 0.0800635
0.317897 0.16908 0.0798649
0.318353 0.169031 0.0796663
0.318809 0.168982 0.0794678
0.319266 0.168932 0.0792692
0.319722 0.168883 0.0790707
0.320178 0.168834 0.0788721
0.320678 0.168754 0.0787812
0.321134 0.168705 0.0785827
0.32159 0.168656 0.0783841
0.322047 0.168607 0.0781855
0.322503 0.168557 0.077987
0.322959 0.168508 0.0777884
0.323372 0.168489 0.0774822
0.323828 0.168439 0.0772836
0.324284 0.16839 0.077085
0.324697 0.168371 0.0767788
0.325153 0.168322 0.0765803
0.325609 0.168272 0.0763817
0.326066 0.168223 0.0761831
0.326478 0.168204 0.0758769
0.326891 0.168185 0.0755707
0.327303 0.168166 0.0752644
0.32776 0.168116 0.0750659
0.328172 0.168097 0.0747597
0.328628 0.168048 0.0745611
0.329041 0.168029 0.0742549
0.329497 0.167979 0.0740563
0.329866 0.16799 0.0736425
0.330279 0.167971 0.0733362
0.330691 0.167952 0.07303
0.331104 0.167933 0.0727237
0.331473 0.167943 0.0723099
0.331842 0.167954 0.071896
0.332255 0.167935 0.0715898
0.33258 0.167976 0.0710683
0.332949 0.167987 0.0706543
0.333318 0.167998 0.0702405
0.333775 0.167949 0.0700419
0.334143 0.167959 0.069628
0.334556 0.16794 0.0693219
0.335012 0.167891 0.0691233
0.335425 0.167872 0.068817
0.335881 0.167822 0.0686185
0.336337 0.167773 0.0684199
0.336706 0.167784 0.068006
0.337119 0.167765 0.0676998
0.337488 0.167776 0.0672859
0.337901 0.167757 0.0669796
0.33827 0.167767 0.0665658
0.338682 0.167748 0.0662595
0.339095 0.167729 0.0659533
0.33942 0.16777 0.0654317
0.339746 0.167811 0.0649102
0.340115 0.167822 0.0644964
0.340396 0.167893 0.0638672
0.340591 0.168024 0.0630227
0.340786 0.168155 0.0621781
0.341064 0.168227 0.0615418
0.341427 0.168238 0.0611137
0.341837 0.168219 0.0608003
0.342293 0.16817 0.0606017
0.342796 0.16809 0.0605179
0.343252 0.168041 0.0603194
0.343755 0.167961 0.0602356
0.344211 0.167912 0.060037
0.344668 0.167863 0.0598385
0.345077 0.167844 0.0595252
0.345487 0.167825 0.0592118
0.345896 0.167806 0.0588984
0.346259 0.167818 0.0584702
0.346622 0.167829 0.0580422
0.346938 0.167871 0.0574992
0.347301 0.167883 0.0570711
0.347664 0.167894 0.0566429
0.34798 0.167936 0.0560999
0.348343 0.167948 0.0556718
0.348613 0.16802 0.0550141
0.348975 0.168031 0.054586
0.349245 0.168104 0.0539282
0.349561 0.168146 0.0533853
0.349924 0.168157 0.0529572
0.350287 0.168169 0.0525291
0.350603 0.168211 0.0519861
0.350919 0.168253 0.0514432
0.351282 0.168264 0.051015
0.351598 0.168306 0.0504721
0.351961 0.168318 0.050044
0.352278 0.16836 0.049501
0.35264 0.168371 0.0490729
0.352863 0.168474 0.0483004
0.353179 0.168516 0.0477574
0.353449 0.168588 0.0470997
0.353672 0.168691 0.0463273
0.353941 0.168763 0.0456696
0.354117 0.168896 0.0447822
0.35434 0.168999 0.0440097
0.35461 0.169071 0.043352
0.354739 0.169235 0.0423499
0.354916 0.169368 0.0414626
0.355092 0.169501 0.0405753
0.355221 0.169665 0.0395733
0.355024 0.170041 0.0377676
0.3552 0.170174 0.0368803
0.35547 0.170246 0.0362226
0.355599 0.17041 0.0352206
0.355682 0.170604 0.0341037
0.355811 0.170767 0.0331016
0.355754 0.171053 0.0316404
0.355931 0.171186 0.0307531
0.35592 0.171441 0.0294066
0.355863 0.171726 0.0279454
0.355386 0.172284 0.025451
0.354021 0.173421 0.0207757
0.232994 0.186231 0.0788304
0.234056 0.185786 0.0801238
0.234979 0.185432 0.0810729
0.235855 0.185108 0.0819072
0.236638 0.184845 0.0825119
0.237421 0.184583 0.0831167
0.238204 0.18432 0.0837214
0.238893 0.184118 0.0840967
0.239629 0.183886 0.0845867
0.240319 0.183685 0.084962
0.241009 0.183483 0.0853373
0.241698 0.183281 0.0857125
0.242341 0.18311 0.085973
0.24303 0.182908 0.0863482
0.24372 0.182707 0.0867234
0.244363 0.182535 0.086984
0.245052 0.182334 0.0873593
0.245742 0.182132 0.0877345
0.246338 0.181991 0.0878802
0.246981 0.18182 0.0881407
0.247624 0.181649 0.0884012
0.248266 0.181478 0.0886617
0.248909 0.181307 0.0889222
0.249599 0.181105 0.0892975
0.250288 0.180903 0.0896727
0.250931 0.180732 0.0899332
0.251621 0.18053 0.0903084
0.252264 0.180359 0.0905689
0.252813 0.180249 0.0905999
0.253456 0.180078 0.0908604
0.254052 0.179937 0.0910061
0.254648 0.179796 0.0911518
0.255244 0.179656 0.0912976
0.255794 0.179545 0.0913285
0.25639 0.179405 0.0914742
0.256893 0.179325 0.0913905
0.257443 0.179215 0.0914214
0.257946 0.179135 0.0913376
0.258448 0.179055 0.0912539
0.258951 0.178975 0.09117
0.259454 0.178896 0.0910862
0.25991 0.178846 0.0908876
0.260367 0.178797 0.090689
0.26087 0.178717 0.0906052
0.261419 0.178607 0.0906362
0.261922 0.178527 0.0905524
0.262472 0.178417 0.0905834
0.263021 0.178307 0.0906143
0.263571 0.178196 0.0906452
0.264074 0.178117 0.0905615
0.26467 0.177976 0.0907072
0.265173 0.177896 0.0906234
0.265722 0.177786 0.0906544
0.266272 0.177676 0.0906853
0.266821 0.177566 0.0907163
0.267277 0.177516 0.0905178
0.26778 0.177436 0.090434
0.268237 0.177387 0.0902354
0.268739 0.177307 0.0901516
0.269196 0.177258 0.089953
0.269652 0.177209 0.0897545
0.270108 0.17716 0.0895559
0.270611 0.17708 0.0894721
0.271067 0.17703 0.0892735
0.271477 0.177012 0.0889602
0.27198 0.176932 0.0888764
0.272389 0.176913 0.0885631
0.272799 0.176894 0.0882498
0.273208 0.176875 0.0879364
0.273618 0.176857 0.0876231
0.273981 0.176868 0.087195
0.27439 0.176849 0.0868816
0.274753 0.176861 0.0864535
0.275163 0.176842 0.0861402
0.275573 0.176823 0.0858269
0.276075 0.176744 0.0857431
0.276532 0.176695 0.0855445
0.277081 0.176584 0.0855755
0.277537 0.176535 0.085377
0.27804 0.176455 0.0852931
0.278543 0.176375 0.0852093
0.278999 0.176326 0.0850107
0.279316 0.176368 0.0844679
0.279678 0.17638 0.0840398
0.280088 0.176361 0.0837264
0.280498 0.176342 0.0834131
0.280907 0.176323 0.0830998
0.281317 0.176305 0.0827865
0.281773 0.176255 0.0825879
