ply
format ascii 1.0
element vertex 1270
property float x
property float y
property float z
property uchar diffuse_red
property uchar diffuse_green
property uchar diffuse_blue
end_header
0.324769 0.0959832 0.00205712 72 11 6
0.325112 0.0959311 0.00194131 72 10 6
0.325247 0.0960458 0.00229949 72 11 6
0.325598 0.095976 0.00218002 74 12 7
0.325735 0.0960577 0.00254149 73 11 7
0.325952 0.0958901 0.00206579 74 12 8
0.326111 0.0959779 0.00248108 73 11 7
0.326437 0.0958917 0.0023316 74 12 7
0.326599 0.0959551 0.00270727 71 10 6
0.326946 0.0958585 0.00254936 73 11 6
0.327101 0.0958708 0.00292652 70 9 5
0.327439 0.0957646 0.00277092 70 10 5
0.327549 0.0957669 0.00303901 69 8 4
0.327778 0.0956336 0.0026142 70 10 5
0.327942 0.0956133 0.00299242 67 7 3
0.328207 0.0954806 0.00264596 69 8 4
0.328366 0.0954455 0.00301572 65 6 2
0.328699 0.0953002 0.00281733 65 6 3
0.328873 0.0952244 0.00318373 64 5 2
0.3292 0.0950764 0.00299136 62 5 1
0.327279 0.0957372 0.00239905 72 11 7
0.326786 0.0957778 0.00216253 75 13 7
0.326662 0.0956874 0.00183988 74 13 9
0.326304 0.0957994 0.00194679 74 13 8
0.326174 0.095658 0.00159757 73 13 8
0.325816 0.0957701 0.00170444 74 12 7
0.325693 0.0956122 0.00135097 72 11 6
0.325334 0.0957165 0.00145607 72 11 6
0.325459 0.0958658 0.00181382 74 12 7
0.326045 0.0955064 0.00123385 73 13 7
0.326527 0.0955489 0.00148147 75 13 8
0.328545 0.0953606 0.00337367 64 6 2
0.328221 0.0954922 0.00357207 63 5 1
0.327886 0.095625 0.00374964 63 4 1
0.327569 0.0957195 0.00394351 64 3 1
0.328044 0.0955856 0.00321652 65 7 3
0.327719 0.0957248 0.00339647 67 6 3
0.327386 0.0958213 0.00359523 65 6 3
0.32689 0.0959498 0.00340058 69 8 5
0.326417 0.0960307 0.00322847 69 9 5
0.325924 0.0960836 0.00300964 72 10 6
0.325433 0.0961412 0.00277803 73 11 7
0.325106 0.0961759 0.00292305 73 11 6
0.325047 0.0961667 0.00278822 73 11 6
0.324905 0.0960876 0.00241843 73 11 6
0.327219 0.0958736 0.00321046 68 8 4
0.326752 0.0959704 0.00308159 70 9 5
0.326265 0.0960219 0.00285661 71 10 6
0.32539 0.0961195 0.00265593 74 11 7
0.317908 0.0941289 0.0118089 150 113 88
0.317857 0.0942617 0.0114412 132 83 59
0.317722 0.0944986 0.0118469 158 122 94
0.317614 0.0946493 0.0114361 150 108 83
0.317555 0.0948647 0.0118896 161 125 93
0.317386 0.0950109 0.0114799 162 120 88
0.317432 0.0952178 0.011953 165 132 98
0.317209 0.095362 0.0115214 166 134 101
0.317192 0.0956513 0.011784 167 140 109
0.316969 0.0957646 0.0114499 168 136 103
0.317096 0.0959794 0.011917 169 143 111
0.31687 0.0960999 0.0115852 170 144 113
0.316854 0.0964034 0.011808 172 147 115
0.316609 0.0965237 0.0115142 178 151 118
0.316568 0.0968342 0.0116904 183 159 127
0.316298 0.0969492 0.0113905 181 155 122
0.316262 0.0972654 0.0115656 185 163 132
0.315992 0.0973752 0.0112834 183 159 127
0.31597 0.0976899 0.0114307 188 169 135
0.315706 0.0974754 0.0110248 187 161 126
0.315698 0.0978035 0.0111683 191 168 135
0.315722 0.0971637 0.0108683 182 150 111
0.315738 0.0968386 0.0107114 179 145 107
0.316025 0.0970471 0.0111254 183 154 118
0.316056 0.0967267 0.0109707 177 143 105
0.316342 0.0966276 0.0112249 176 145 111
0.31666 0.0962064 0.01133 171 142 109
0.316691 0.095902 0.0111069 167 131 94
0.31692 0.0955422 0.0110722 166 129 96
0.317072 0.095451 0.0112992 166 132 98
0.317207 0.0951437 0.0110989 161 117 85
0.317889 0.0943322 0.012295 156 122 93
0.317759 0.0946881 0.0123553 163 136 105
0.317635 0.0950505 0.012415 165 138 107
0.31753 0.095413 0.012472 166 139 107
0.320346 0.0942342 0.00989963 72 15 7
0.307496 0.0926699 0.0245712 156 130 98
0.307925 0.0929343 0.0247678 158 125 95
0.30834 0.0932103 0.0249544 162 123 91
0.308745 0.0934987 0.0251292 158 125 97
0.308789 0.0938384 0.0252373 153 123 98
0.309147 0.0938014 0.0253509 151 123 99
0.308817 0.0941725 0.0253872 149 124 101
0.309179 0.0941202 0.0255153 144 124 101
0.308838 0.0945088 0.0255502 140 122 102
0.309197 0.0944647 0.0257029 133 122 103
0.308848 0.0948579 0.0257486 133 122 101
0.309181 0.0948342 0.0259667 126 120 104
0.308856 0.0950867 0.0259358 122 117 101
0.308852 0.095283 0.0261807 118 114 100
0.308517 0.0953351 0.0259129 123 114 96
0.308466 0.0956354 0.0264906 109 105 90
0.30811 0.095726 0.0262296 107 100 85
0.307996 0.0959102 0.0269298 99 95 83
0.308508 0.0949405 0.0255444 137 120 100
0.308489 0.0945802 0.025363 145 120 98
0.308463 0.0942481 0.0252159 153 124 98
0.308421 0.093913 0.0250918 158 124 97
0.308375 0.093561 0.0249983 160 126 94
0.288087 0.0929631 0.03473 68 10 6
0.282718 0.0907247 0.0473068 54 66 43
0.282395 0.0907194 0.0474702 40 55 34
0.289844 0.092503 0.0361229 62 4 1
0.289674 0.092652 0.0357201 62 4 1
0.289544 0.092599 0.0362695 64 5 2
0.289395 0.0927114 0.0359181 65 6 2
0.289087 0.092749 0.0360971 68 7 3
0.288946 0.0928314 0.0357901 67 8 3
0.28864 0.0928223 0.0359418 69 10 5
0.288786 0.0929042 0.0354331 66 8 4
0.288487 0.0927407 0.0364491 70 10 5
0.2888 0.0927495 0.0362989 68 8 4
0.288963 0.0926834 0.036657 66 8 2
0.289257 0.0926545 0.0364706 66 6 2
0.289415 0.0925355 0.0368228 66 6 2
0.289119 0.0925649 0.037008 68 7 3
0.288815 0.0925822 0.0371474 68 8 3
0.288664 0.0924617 0.0376472 67 8 4
0.288348 0.0924461 0.0377977 70 9 4
0.288202 0.0923196 0.0382888 71 10 4
0.2883 0.0926524 0.0368715 68 10 5
0.288658 0.0926816 0.0368122 69 9 4
0.288498 0.0925663 0.0372947 69 9 4
0.288143 0.0925431 0.0373627 72 10 5
0.288 0.0924148 0.0378603 70 11 5
0.28783 0.0924736 0.0375016 71 12 7
0.289524 0.0927789 0.0353652 63 4 1
0.289227 0.0928204 0.0355479 66 7 3
0.289098 0.0928979 0.035277 66 8 3
0.289354 0.0928857 0.0350057 64 6 2
0.288934 0.0929689 0.0349299 65 7 4
0.28919 0.0929846 0.0346454 65 6 3
0.289086 0.093027 0.0344175 66 7 3
0.317719 0.0946152 0.0110046 130 77 53
0.317353 0.0950248 0.010616 147 100 73
0.317246 0.0951703 0.010289 143 89 62
0.317083 0.0953361 0.00994827 125 60 38
0.316936 0.0954548 0.00963972 120 55 33
0.316755 0.0955462 0.00925482 116 49 30
0.316579 0.0955533 0.00975899 121 60 38
0.316418 0.0956087 0.00938898 117 55 35
0.316373 0.0956195 0.00928405 115 52 31
0.283378 0.0921042 0.0417681 151 143 123
0.283915 0.0920923 0.0416782 156 143 117
0.283684 0.0921762 0.0419692 156 148 127
0.307195 0.0930925 0.0244804 145 134 103
0.307567 0.0930236 0.024594 152 130 96
0.307608 0.0933736 0.024633 154 125 93
0.307973 0.0932868 0.0247913 156 125 91
0.308019 0.0936387 0.0248194 159 126 93
0.293895 0.100351 0.00107529 1 8 0
0.293995 0.100545 0.00148542 0 11 0
0.293742 0.100395 0.00161215 0 10 0
0.293841 0.100506 0.00190489 0 10 1
0.294324 0.100708 0.0013843 0 11 0
0.294273 0.100617 0.00120967 0 11 0
0.294597 0.100748 0.00112872 0 12 1
0.294487 0.100566 0.000801894 0 12 1
0.294872 0.100775 0.000951777 0 13 1
0.294793 0.100589 0.000628899 0 13 2
0.295066 0.100623 0.000486928 0 14 2
0.294687 0.100848 0.00142366 0 12 1
0.294166 0.10044 0.000882529 0 11 1
0.324511 0.0945001 0.00803205 67 4 0
0.324066 0.0947755 0.00798658 69 5 0
0.324367 0.0948077 0.00780943 67 5 1
0.317571 0.0947489 0.0110334 147 102 79
0.316872 0.0954642 0.0108082 159 110 75
0.316813 0.0956136 0.0109481 164 123 91
0.31658 0.0957019 0.010683 165 120 88
0.316459 0.0959946 0.0108806 166 124 87
0.316133 0.0960756 0.0105806 157 109 75
0.316391 0.0963122 0.0110555 171 137 100
0.316081 0.096419 0.0107913 171 133 94
0.29998 0.0965902 0.0138173 1 23 11
0.30042 0.0966826 0.0139144 4 30 20
0.299834 0.096966 0.0136451 1 17 5
0.299562 0.0971425 0.013545 1 17 5
0.285911 0.0910011 0.0458888 130 132 116
0.285611 0.0909986 0.0460758 128 133 118
0.285467 0.091232 0.0458382 132 134 119
0.308235 0.0983513 0.00188035 0 19 5
0.307986 0.0984854 0.00154818 0 20 6
0.307976 0.0988015 0.00171295 0 20 5
0.307746 0.0989104 0.00141583 0 21 7
0.307989 0.0991293 0.00181451 0 21 6
0.307752 0.0992435 0.00152079 0 22 7
0.308037 0.0994672 0.00192336 0 21 7
0.307758 0.0996048 0.00162925 0 23 8
0.308004 0.0998078 0.00208612 0 21 6
0.307707 0.099932 0.00181039 0 22 8
0.307909 0.100137 0.00229118 0 21 6
0.307632 0.100253 0.00202791 0 22 8
0.307481 0.100557 0.00228791 1 22 7
0.307449 0.100311 0.0019152 0 23 8
0.307099 0.100701 0.00202039 0 22 7
0.307127 0.100436 0.00165789 0 22 8
0.306755 0.100781 0.0018169 0 22 8
0.307411 0.100059 0.00157196 0 23 8
0.307738 0.0985981 0.00124869 0 22 8
0.308235 0.0986656 0.00204738 0 19 5
0.308398 0.098557 0.00234796 0 18 3
0.3084 0.0988925 0.00245831 0 19 4
0.308541 0.0987551 0.00288127 0 17 3
0.308602 0.0986234 0.00327381 0 15 2
0.308663 0.0988325 0.00376841 0 13 2
0.308636 0.0991689 0.00387423 0 13 1
0.308617 0.0995055 0.00400181 0 14 2
0.308749 0.0997277 0.00445627 0 12 1
0.308577 0.0998379 0.00411831 0 12 1
0.308391 0.0999694 0.00376439 0 12 1
0.308312 0.100043 0.00360142 0 13 1
0.308151 0.100173 0.00325536 0 16 3
0.307834 0.100633 0.00316576 1 16 3
0.307971 0.100312 0.00288358 0 19 5
0.307603 0.100758 0.00287618 0 18 5
0.307744 0.100445 0.00258328 0 22 6
0.30735 0.100875 0.0026185 0 19 4
0.307049 0.100965 0.00241336 0 20 5
0.306701 0.101034 0.00219989 0 21 8
0.306405 0.101045 0.00196137 0 21 7
0.308106 0.0999994 0.0026271 0 19 5
0.308198 0.0996641 0.00241609 0 17 3
0.308324 0.0995418 0.00278354 0 16 3
0.308384 0.0992211 0.00259072 0 18 3
0.308475 0.0990866 0.00302275 0 17 4
0.308221 0.0989996 0.00215578 0 19 5
0.308242 0.0993481 0.00224396 0 19 4
0.308243 0.0998588 0.0030137 0 16 2
0.308407 0.0994197 0.003153 0 15 2
0.308526 0.0992941 0.00351635 0 14 1
0.308571 0.0989626 0.00339707 0 15 2
0.308476 0.0996294 0.00364461 0 13 1
0.308325 0.0997634 0.00327728 0 15 2
0.306245 0.101275 0.00230491 0 20 5
0.305888 0.101335 0.00221034 0 21 6
0.305584 0.101309 0.00199413 0 22 7
0.305619 0.101446 0.00231526 0 22 8
0.305197 0.101324 0.00185592 0 23 8
0.278958 0.0917139 0.0474142 0 18 4
0.278745 0.0918375 0.0476496 0 16 4
0.278537 0.0919962 0.0478816 0 16 4
0.278294 0.0921497 0.0480986 0 15 3
0.278049 0.0923056 0.0483206 0 14 2
0.277673 0.0924812 0.0483734 0 13 1
0.277389 0.09267 0.0485216 0 13 1
0.277127 0.0928793 0.0486834 0 11 1
0.276716 0.0930755 0.0487045 0 10 1
0.279004 0.0918083 0.0478986 0 16 3
0.279066 0.0918871 0.0483965 0 13 1
0.279313 0.0917898 0.0487057 0 12 0
0.278841 0.0919998 0.0486541 0 12 0
0.279074 0.0918912 0.0489489 0 10 0
0.278818 0.092024 0.0491649 0 11 0
0.279017 0.0918593 0.0494758 0 10 0
0.27876 0.0919909 0.0496883 0 7 0
0.278964 0.0918243 0.0499911 0 6 0
0.278695 0.0919389 0.0502088 0 7 0
0.279118 0.0916269 0.0503128 0 6 0
0.278813 0.0917185 0.0505169 0 5 0
0.278851 0.0916226 0.0506263 0 5 0
0.278954 0.0915843 0.050597 0 5 0
0.27924 0.0915247 0.0504091 0 6 0
0.279415 0.0915231 0.0500909 0 7 0
0.27954 0.0914024 0.0501666 0 6 0
0.279689 0.0915033 0.0496503 0 9 0
0.279851 0.0912993 0.0499512 0 7 0
0.280145 0.0912273 0.0497274 0 10 0
0.27849 0.0921262 0.0498797 0 7 0
0.278314 0.0923039 0.0495975 0 7 0
0.278575 0.0921648 0.0493877 0 9 0
0.278382 0.0922841 0.049126 0 8 0
0.278592 0.0921159 0.0488976 0 11 0
0.278302 0.0922166 0.0485906 0 13 2
0.278518 0.0920667 0.0483598 0 14 2
0.278073 0.0923818 0.0488066 0 10 0
0.278151 0.092406 0.0493607 0 8 0
0.277844 0.0925512 0.0490232 0 11 0
0.277658 0.0927085 0.0492843 0 8 0
0.277397 0.0927719 0.0489556 0 9 0
0.277231 0.0929112 0.0492511 0 7 0
0.27697 0.093018 0.0489718 0 9 0
0.276863 0.0931071 0.049342 0 5 0
0.276716 0.0931636 0.049154 0 6 0
0.276477 0.0932688 0.0493893 0 3 0
0.276576 0.0932009 0.0490042 0 6 1
0.276268 0.0933241 0.049136 0 4 1
0.277597 0.0925778 0.0487421 0 12 1
0.277826 0.092438 0.0485722 0 12 1
0.276265 0.0932699 0.0497053 0 6 0
0.279585 0.0916319 0.0490555 0 11 0
0.279782 0.0914782 0.0493609 0 10 0
0.279994 0.0913709 0.0494172 0 10 0
0.280453 0.0911281 0.049502 0 10 0
0.280768 0.0910192 0.0492772 0 13 0
0.279512 0.0916004 0.0495634 0 9 0
0.279226 0.0917027 0.0497859 0 8 0
0.279282 0.0917341 0.0492617 0 10 0
0.27876 0.0919262 0.0481316 0 16 3
0.295302 0.0987743 0.00805693 0 16 3
0.295326 0.0992364 0.00777962 0 16 3
0.295344 0.0997139 0.00751038 0 18 5
0.295391 0.100171 0.0072326 0 19 6
0.295543 0.100631 0.00700526 0 22 9
0.295555 0.100064 0.00764162 0 18 5
0.295651 0.100473 0.00736816 0 22 9
0.295882 0.10079 0.00728641 0 23 9
0.295973 0.10098 0.00711295 0 23 10
0.29579 0.100407 0.00768752 0 20 8
0.295943 0.100677 0.00756015 0 23 9
0.275353 0.091548 0.0514845 3 19 7
0.275742 0.0914383 0.0516566 4 16 8
0.275692 0.0917421 0.0516089 0 9 1
0.276054 0.0916954 0.0516997 0 7 1
0.275875 0.0920456 0.0515196 0 7 1
0.276257 0.0920412 0.0515901 0 5 3
0.276117 0.0923341 0.0513127 0 5 1
0.276648 0.0921499 0.0514456 0 3 0
0.276456 0.0924882 0.0510925 0 1 0
0.276982 0.0922639 0.0511779 0 2 0
0.276883 0.0925231 0.050875 0 3 0
0.27737 0.0922629 0.0509729 0 1 0
0.277277 0.092503 0.0506855 0 1 0
0.277732 0.0922437 0.0507541 0 0 0
0.277609 0.0924643 0.050461 0 0 0
0.277805 0.0920134 0.0509978 0 0 0
0.277869 0.0917381 0.0512575 0 1 0
0.277451 0.0920053 0.0512401 0 0 0
0.277478 0.0917254 0.0514616 0 0 0
0.277108 0.0920097 0.0514219 0 3 0
0.277058 0.0917644 0.0515846 0 5 1
0.276037 0.0913484 0.0517543 0 11 3
0.276316 0.0913729 0.0518105 0 6 0
0.276432 0.091694 0.0517606 0 2 0
0.276671 0.0913322 0.0518303 0 3 0
0.276755 0.0917205 0.0516795 0 7 1
0.276527 0.0919448 0.0516413 0 8 1
0.316924 0.0953418 0.0104665 156 103 68
0.316778 0.0954454 0.0101511 136 75 50
0.316574 0.0956665 0.0106025 164 119 87
0.316366 0.0956803 0.010176 143 84 53
0.323575 0.0961266 0.00293345 72 10 6
0.323715 0.0961896 0.00330122 74 11 7
0.300162 0.0969735 0.0137277 2 26 13
0.300332 0.0974606 0.0135383 2 26 13
0.300952 0.0976518 0.013363 11 35 22
0.301174 0.09781 0.0131452 15 37 25
0.301471 0.097851 0.0131199 23 44 32
0.301264 0.0981776 0.0128383 13 33 22
0.301624 0.098172 0.0128032 19 40 27
0.301433 0.0985533 0.0125404 6 22 14
0.301845 0.0985348 0.0125164 20 39 29
0.301067 0.0986068 0.0126097 2 19 11
0.300948 0.0982307 0.0128671 3 22 11
0.301055 0.0979946 0.0129731 7 28 16
0.300835 0.0979257 0.0131224 5 25 15
0.300832 0.098447 0.0127977 1 21 11
0.302186 0.0986596 0.0124116 23 42 29
0.285277 0.0917779 0.0447467 141 140 124
0.327392 0.0953437 0.00519111 62 2 0
0.301003 0.100185 0.000621061 1 20 6
0.301034 0.10032 0.000876505 1 20 5
0.301158 0.100537 0.00135451 1 19 5
0.301271 0.100577 0.00142938 1 19 5
0.301728 0.100548 0.001288 1 20 5
0.301385 0.100442 0.00107838 1 19 5
0.301602 0.100344 0.000812116 1 18 5
0.301262 0.100211 0.000615037 1 19 5
0.301471 0.100116 0.000349343 1 20 6
0.275223 0.092004 0.0513547 0 13 4
0.275516 0.0919354 0.0514823 0 9 2
0.275624 0.0922768 0.0512912 0 11 4
0.275265 0.0924241 0.0511001 1 17 5
0.275827 0.0926217 0.050968 0 5 0
0.276358 0.092757 0.0507643 0 1 0
0.276823 0.0927931 0.0505321 0 1 0
0.277204 0.0927047 0.0503599 0 1 0
0.277493 0.0926657 0.0501529 0 1 0
0.322996 0.096089 0.00517487 74 10 5
0.323169 0.0960553 0.00553931 73 9 5
0.323213 0.0960329 0.00564567 73 8 5
0.298143 0.100461 0.00119851 0 17 4
0.29862 0.100501 0.00145097 1 19 5
0.298968 0.100452 0.00133703 0 18 4
0.29943 0.100584 0.00157078 0 19 5
0.299883 0.100661 0.00174567 0 19 6
0.297801 0.100519 0.00132132 0 17 4
0.297338 0.100603 0.00117482 0 16 4
0.297454 0.10059 0.00143768 0 16 4
0.297106 0.100659 0.00155636 0 16 4
0.297261 0.100695 0.00192639 0 17 5
0.296916 0.100754 0.00205444 0 17 5
0.297318 0.100718 0.00207606 0 17 5
0.29706 0.100809 0.00242347 0 18 5
0.297463 0.100795 0.00244716 0 18 6
0.297215 0.10087 0.00279334 0 20 6
0.297552 0.100836 0.0026679 0 19 7
0.297361 0.100955 0.00316728 0 21 7
0.297704 0.100922 0.00303703 0 20 7
0.297829 0.101042 0.0034016 0 21 8
0.298166 0.101012 0.00327521 0 21 8
0.298296 0.101137 0.00362876 0 20 8
0.298628 0.101111 0.00351083 1 20 7
0.298756 0.101232 0.00386604 0 18 6
0.299085 0.101211 0.00373462 0 19 7
0.299222 0.101314 0.00408606 0 18 6
0.29943 0.101205 0.00362291 0 19 7
0.299593 0.101322 0.0040278 1 18 6
0.29989 0.101275 0.00385732 0 17 5
0.300044 0.101387 0.00425607 0 16 4
0.300289 0.101342 0.00405122 0 15 4
0.300421 0.101433 0.00435489 0 14 3
0.300657 0.101344 0.00401586 1 16 4
0.300753 0.101459 0.00432527 0 15 3
0.301059 0.101453 0.00425854 0 15 2
0.300979 0.101587 0.0045732 0 13 1
0.301383 0.101588 0.00447013 0 15 2
0.301253 0.101764 0.00478944 0 14 2
0.301535 0.101877 0.00489558 1 15 3
0.301373 0.101966 0.00505592 0 14 2
0.301442 0.102137 0.0053009 0 15 3
0.301222 0.102065 0.00523894 1 15 3
0.301122 0.102172 0.00547784 1 14 4
0.30102 0.101933 0.0051146 1 14 3
0.300754 0.102034 0.00536813 1 14 3
0.300631 0.101785 0.00501051 4 14 2
0.300401 0.10187 0.00524286 1 14 2
0.30025 0.101575 0.00476122 0 12 2
0.300121 0.101724 0.00521458 0 14 1
0.299913 0.101569 0.00494858 0 13 2
0.299775 0.101697 0.0054605 0 14 3
0.299595 0.101516 0.00492898 0 13 2
0.299335 0.101557 0.00524881 0 14 2
0.299218 0.101458 0.00488298 0 16 4
0.298865 0.101457 0.00505927 0 17 5
0.29905 0.10139 0.00456904 0 17 6
0.298719 0.101402 0.00465674 0 18 7
0.298903 0.101324 0.00423251 0 18 6
0.298581 0.101323 0.00433906 0 19 7
0.298425 0.101244 0.00398079 0 20 7
0.29796 0.101155 0.00375314 0 20 7
0.297494 0.101083 0.00352322 0 21 8
0.297158 0.101098 0.00363759 0 21 8
0.297 0.10096 0.00322273 0 19 7
0.296694 0.100983 0.00341101 0 19 6
0.296566 0.100886 0.00303731 0 18 6
0.296234 0.100883 0.00317582 0 18 6
0.296407 0.10083 0.00268121 0 18 6
0.296042 0.100966 0.0036547 0 18 6
0.296385 0.100981 0.00356357 0 19 6
0.296498 0.101091 0.00391304 0 19 7
0.29683 0.101096 0.00377535 0 19 7
0.296964 0.101212 0.00414422 0 20 7
0.297287 0.101196 0.00397241 0 20 7
0.297442 0.101282 0.00435434 0 21 8
0.297634 0.101196 0.00388857 0 20 7
0.297763 0.101277 0.00422366 0 21 8
0.298087 0.101253 0.00410367 0 20 7
0.297916 0.101334 0.00456025 0 20 7
0.298238 0.101323 0.0044188 0 20 7
0.298394 0.101381 0.00480015 0 17 6
0.298504 0.101421 0.00517057 0 16 5
0.298663 0.101458 0.00555307 0 16 5
0.298215 0.1014 0.00533049 0 16 5
0.298323 0.101409 0.0057192 0 16 6
0.297947 0.101371 0.00548877 0 18 7
0.297995 0.101361 0.00581056 0 18 7
0.297569 0.101348 0.00561851 0 20 6
0.297798 0.101356 0.00600419 0 19 6
0.297596 0.101314 0.00472894 0 19 7
0.298063 0.101367 0.00495347 0 18 6
0.297742 0.101354 0.00512928 0 18 6
0.297382 0.101315 0.00522736 0 19 7
0.2971 0.101322 0.0054009 0 20 7
0.296993 0.101292 0.00504089 0 20 8
0.296667 0.101313 0.00517836 0 20 7
0.296826 0.101259 0.00465941 0 20 8
0.296473 0.101247 0.00477973 0 20 8
0.296604 0.101192 0.00427998 0 20 7
0.296293 0.101178 0.00445898 0 19 7
0.296155 0.101086 0.00407127 0 19 7
0.295975 0.10118 0.00453293 0 20 7
0.297146 0.101276 0.00451834 0 20 7
0.297284 0.101299 0.00487559 0 20 8
0.296887 0.100894 0.00291533 0 19 6
0.296726 0.100833 0.00254502 0 17 5
0.296549 0.10078 0.00208822 0 16 4
0.299397 0.101392 0.00447878 0 17 4
0.299775 0.101418 0.00447175 0 15 4
0.300628 0.101581 0.00465216 0 12 1
0.30089 0.101736 0.00484589 0 11 1
0.301535 0.101451 0.00417392 1 16 3
0.30118 0.101342 0.0039597 0 15 2
0.300853 0.101279 0.00371329 0 16 3
0.300542 0.101231 0.00360237 0 16 4
0.300866 0.101201 0.00347141 0 17 5
0.300433 0.10112 0.00324231 0 18 5
0.300768 0.101087 0.00311727 0 17 4
0.3003 0.101007 0.00287618 0 18 5
0.300632 0.100981 0.00275634 0 18 6
0.300163 0.100889 0.00251583 0 18 6
0.300504 0.100867 0.00239188 1 19 6
0.300034 0.10078 0.00214387 0 19 6
0.29956 0.100721 0.00191316 1 20 7
0.299687 0.100831 0.00227192 1 20 6
0.299219 0.100739 0.00204059 1 20 6
0.299357 0.100842 0.00240042 1 20 7
0.299028 0.100845 0.00252103 1 20 7
0.299494 0.100951 0.00276201 1 20 7
0.299171 0.100958 0.00288489 1 20 7
0.299629 0.101061 0.00312542 1 20 6
0.299301 0.101073 0.0032531 0 19 5
0.299764 0.101167 0.0034887 0 18 5
0.299829 0.100926 0.00264039 1 20 7
0.299963 0.101041 0.00299701 0 19 6
0.300096 0.101154 0.00336285 0 19 6
0.300225 0.101251 0.00373096 0 16 4
0.299091 0.100613 0.00168659 1 19 6
0.298889 0.100733 0.00215895 1 21 7
0.298561 0.100747 0.00228701 1 21 7
0.298699 0.100848 0.00265635 1 21 7
0.29823 0.100762 0.0024174 1 20 7
0.298369 0.100864 0.0027818 1 21 7
0.297896 0.100795 0.00254082 0 20 7
0.298035 0.100893 0.00290363 1 22 8
0.298504 0.100986 0.0031521 0 21 7
0.298835 0.100966 0.00301616 1 20 7
0.29897 0.101091 0.00338032 0 20 7
0.297751 0.100706 0.00218002 0 19 5
0.297609 0.100635 0.00180929 0 17 4
0.298092 0.100673 0.00205259 0 19 6
0.29803 0.100637 0.00188706 0 19 6
0.298421 0.100658 0.00192321 0 19 6
0.298285 0.100556 0.00156716 1 18 6
0.298748 0.100642 0.00180423 1 20 6
0.297876 0.100554 0.00150622 0 16 4
0.300971 0.100953 0.00263043 0 19 5
0.301162 0.100962 0.00263918 0 18 5
0.301364 0.100871 0.00235662 0 17 4
0.301482 0.101019 0.00285796 0 17 4
0.301715 0.100948 0.00257393 0 17 5
0.301812 0.101066 0.00308071 0 16 3
0.302044 0.101012 0.00279654 0 17 3
0.302092 0.101123 0.00326089 0 16 3
0.301099 0.101063 0.0029938 0 18 4
0.301256 0.101113 0.00313881 0 17 4
0.30156 0.101151 0.00333107 0 16 3
0.3019 0.101214 0.00355293 0 16 3
0.30171 0.101327 0.00386799 0 15 3
0.301364 0.101255 0.00363182 1 17 4
0.301024 0.101193 0.00340781 0 17 4
0.296754 0.100739 0.00168201 0 16 4
0.301825 0.100258 0.000541242 1 20 6
0.301949 0.100469 0.00101362 1 20 5
0.302068 0.100634 0.00150795 1 19 5
0.302392 0.100722 0.00172407 1 20 6
0.302292 0.100574 0.00122646 1 20 6
0.302618 0.100651 0.0014469 1 20 6
0.302523 0.100507 0.000957096 1 20 6
0.302175 0.10039 0.000742239 1 20 6
0.317308 0.0955744 0.0120108 168 138 104
0.317281 0.0958638 0.0122656 169 145 114
0.317227 0.0961942 0.0123946 173 151 120
0.317026 0.0963149 0.0120522 172 149 117
0.317024 0.096608 0.0123247 174 156 125
0.316804 0.0967229 0.0119913 176 154 124
0.316766 0.0970409 0.0121645 181 162 131
0.316515 0.0971529 0.0118654 181 158 128
0.316471 0.0974694 0.0120359 186 167 136
0.316234 0.0975819 0.011727 187 167 135
0.316208 0.0979023 0.0118966 192 175 142
0.315941 0.098019 0.011587 190 173 138
0.315925 0.0983344 0.0117586 198 182 148
0.31565 0.0984512 0.0114533 199 184 148
0.315644 0.0987765 0.0116035 200 185 150
0.315401 0.0988887 0.0113221 204 190 155
0.315388 0.0992093 0.0114695 206 193 159
0.315365 0.099527 0.0116351 206 194 159
0.315631 0.0991056 0.0117502 205 191 156
0.315061 0.099965 0.0114934 208 199 165
0.315901 0.098655 0.0119125 202 188 153
0.316171 0.0982237 0.0120546 195 180 147
0.316436 0.0977888 0.0122019 190 174 142
0.316719 0.0973643 0.0123423 187 169 138
0.316994 0.0969256 0.0124911 179 162 132
0.317158 0.0965385 0.0125139 175 157 127
0.317413 0.096073 0.0127266 173 151 121
0.317461 0.0957338 0.0126165 168 145 115
0.31568 0.0981282 0.011306 196 177 143
0.315749 0.0965183 0.0105636 173 128 88
0.298745 0.0984328 0.0132546 0 13 4
0.298953 0.0986965 0.0133254 0 13 5
0.298635 0.0987877 0.0131867 0 13 4
0.309518 0.0941064 0.0256204 141 119 97
0.309544 0.0944202 0.0258418 132 120 102
0.309871 0.0943856 0.0259678 132 123 106
0.309551 0.0947184 0.0261096 127 123 108
0.309859 0.0946719 0.0262672 129 127 110
0.309631 0.0949748 0.0264388 123 123 109
0.309978 0.0949194 0.0266115 129 129 114
0.30978 0.0952092 0.0267997 128 129 114
0.310151 0.0951369 0.0269774 141 141 126
0.309986 0.0954744 0.0271775 143 142 127
0.310456 0.095292 0.0272362 145 149 131
0.31033 0.0955727 0.0273897 151 153 135
0.310801 0.0954475 0.027416 152 155 136
0.310623 0.095728 0.0275745 154 155 135
0.311146 0.0956252 0.0275717 160 160 141
0.310973 0.0959141 0.0277093 163 165 141
0.311322 0.096105 0.0278551 172 170 147
0.311475 0.0964653 0.0281934 169 169 142
0.311815 0.0966061 0.0283548 171 170 142
0.311582 0.096612 0.0286398 157 156 130
0.311904 0.0966843 0.0288523 152 150 125
0.311353 0.096478 0.0290964 145 145 123
0.311659 0.0965382 0.029326 146 143 122
0.311105 0.0963464 0.0295489 147 148 127
0.311421 0.0964023 0.0297781 155 152 129
0.310999 0.0963697 0.0300986 153 154 129
0.311246 0.096385 0.0301465 152 151 126
0.311221 0.0965041 0.0305216 151 147 120
0.311557 0.0964479 0.0303665 157 154 126
0.311579 0.096553 0.0306538 160 156 128
0.311897 0.096529 0.0305927 160 157 127
0.311728 0.0966909 0.0309084 155 151 123
0.312157 0.0966471 0.0308143 165 160 128
0.312131 0.096842 0.0310874 159 155 125
0.312516 0.0967778 0.0309549 170 163 131
0.312444 0.0969669 0.0312305 160 156 125
0.312884 0.0969449 0.0311378 168 163 132
0.312736 0.0971522 0.0314068 160 158 129
0.313232 0.0971544 0.0313065 166 164 133
0.313068 0.0973888 0.0315214 161 159 128
0.31345 0.0972893 0.0313916 164 163 133
0.313242 0.0975053 0.0315867 158 157 128
0.313419 0.0974704 0.0315306 159 158 128
0.313065 0.0976686 0.0316472 159 157 129
0.313438 0.0977382 0.0316815 165 164 134
0.31304 0.0980513 0.031776 162 163 136
0.313437 0.098118 0.0318039 163 164 135
0.313032 0.0983374 0.0318418 154 152 127
0.313426 0.0983499 0.0318906 163 164 137
0.313391 0.0987293 0.0319679 159 156 129
0.313789 0.0985635 0.0319444 159 158 131
0.313757 0.0989735 0.0320437 153 151 127
0.314163 0.0986316 0.0319489 154 153 127
0.31413 0.0990103 0.0320453 149 146 121
0.314519 0.0986831 0.0319322 160 160 133
0.314496 0.0990591 0.0320348 152 151 126
0.314881 0.0987396 0.031909 159 159 131
0.314858 0.0991215 0.0320039 151 149 123
0.315244 0.098809 0.0318789 166 166 136
0.3156 0.098863 0.0318522 167 167 137
0.315601 0.0984796 0.0317045 173 173 142
0.315576 0.0982098 0.0315709 181 179 146
0.315591 0.0980601 0.031493 180 178 145
0.315306 0.0982575 0.0316438 176 174 144
0.315436 0.0979694 0.0314796 180 178 145
0.314945 0.0979779 0.0315791 179 177 144
0.315155 0.0977319 0.031392 183 179 144
0.31463 0.0977275 0.0314959 179 177 145
0.314837 0.0975138 0.0312734 183 179 145
0.314336 0.0975047 0.0313843 176 175 143
0.314499 0.0973265 0.0311423 181 180 147
0.313998 0.0973153 0.0312703 174 174 143
0.314164 0.0971325 0.030997 178 176 146
0.313663 0.097114 0.0311476 173 172 142
0.313846 0.0969693 0.030852 177 175 143
0.313627 0.0968709 0.0307802 177 174 142
0.313297 0.0967197 0.0306085 174 168 138
0.312941 0.0966035 0.0303861 174 166 137
0.312578 0.0965478 0.0301261 165 160 133
0.312262 0.0965418 0.0298518 156 151 128
0.311969 0.0965501 0.0295786 147 143 122
0.311741 0.0964298 0.0300241 157 153 130
0.31206 0.0964822 0.0302624 163 160 132
0.312404 0.0965583 0.0305255 172 166 135
0.312784 0.0966926 0.0307277 176 172 140
0.313081 0.0968007 0.0308853 176 171 140
0.313315 0.0969265 0.0309958 176 171 141
0.313774 0.0975023 0.0315009 166 167 135
0.314113 0.0977073 0.0315925 171 169 137
0.313888 0.0979804 0.0317527 164 164 134
0.314415 0.0979772 0.0316708 169 168 137
0.31417 0.0982469 0.0318393 163 162 135
0.314522 0.0983156 0.0318011 160 161 133
0.313809 0.0981846 0.0318246 160 161 132
0.313793 0.0977957 0.031676 163 163 134
0.314722 0.0982099 0.0317285 168 169 138
0.314885 0.09837 0.0317729 166 167 138
0.315244 0.0984257 0.0317317 178 176 145
0.314479 0.0992468 0.0320661 144 141 118
0.312681 0.0974325 0.0315386 154 153 126
0.312283 0.0971412 0.0313726 160 157 128
0.310062 0.0944326 0.0261037 133 124 108
0.309246 0.0951031 0.0262912 124 121 107
0.309398 0.0952953 0.0266134 120 121 108
0.309589 0.0954994 0.0269685 127 129 116
0.309734 0.0957537 0.0273312 138 140 123
0.310134 0.0958298 0.0275442 148 152 133
0.309853 0.0960125 0.0277516 147 150 130
0.310249 0.0961214 0.0279461 155 157 134
0.310028 0.0961328 0.0282714 139 143 124
0.310363 0.0962074 0.0284715 144 144 124
0.310129 0.0961635 0.0288906 138 140 123
0.310495 0.0962496 0.0289737 141 141 123
0.310385 0.0962294 0.0295752 139 144 125
0.310646 0.0962682 0.0293443 146 145 127
0.310741 0.0962869 0.0295641 144 146 128
0.310794 0.0963055 0.0292528 145 144 126
0.310657 0.0963577 0.0301061 141 143 121
0.310282 0.0963779 0.0301011 140 144 124
0.310056 0.0962604 0.0297369 132 136 120
0.309913 0.0964044 0.0300656 133 139 121
0.309713 0.0962592 0.0296675 130 135 120
0.309544 0.0964326 0.0299915 133 139 122
0.309337 0.09628 0.0295937 125 132 117
0.30917 0.0964912 0.0299239 123 128 112
0.308951 0.0962769 0.0294907 119 124 110
0.308873 0.0964299 0.0297336 124 128 113
0.308568 0.0964296 0.0295347 135 137 123
0.308691 0.0966112 0.0298088 134 137 120
0.308454 0.0966753 0.0297079 141 142 124
0.308538 0.0968547 0.0298984 146 145 126
0.308274 0.0969469 0.0297631 153 153 133
0.308591 0.0971478 0.0300632 149 148 128
0.308224 0.097263 0.0298449 153 152 131
0.308579 0.09751 0.0301156 161 158 136
0.308211 0.0976188 0.029882 166 163 139
0.30863 0.0978728 0.0301248 161 160 139
0.308294 0.097973 0.0299132 169 168 144
0.308707 0.0982441 0.0301042 167 165 142
0.308365 0.0983395 0.0298945 168 166 143
0.308773 0.0986128 0.0300701 168 164 141
0.30798 0.0980801 0.0296861 173 170 146
0.307899 0.09773 0.0296489 166 163 140
0.307875 0.0973637 0.029586 161 160 139
0.307927 0.0970429 0.0295049 157 157 138
0.308209 0.0966927 0.0295185 143 146 130
0.307567 0.097484 0.0293379 162 162 143
0.307562 0.0971666 0.0292049 159 156 136
0.307885 0.0967751 0.0292785 147 145 129
0.308233 0.0964446 0.0292889 135 136 123
0.308582 0.0962496 0.0292367 126 130 117
0.308812 0.0961455 0.0290509 117 122 110
0.30914 0.0961534 0.0291493 116 122 110
0.308927 0.0960706 0.0286998 112 118 106
0.309288 0.0960715 0.0287247 119 124 109
0.309061 0.0960302 0.0282959 121 125 111
0.309428 0.0960697 0.028303 131 135 118
0.309277 0.09603 0.0280319 126 129 113
0.309658 0.0960782 0.0280599 135 139 121
0.309398 0.0960031 0.0277785 129 132 115
0.309484 0.0959118 0.0274704 137 140 123
0.309347 0.0957349 0.0271048 126 127 114
0.30927 0.0955442 0.0267897 119 120 106
0.308957 0.0954833 0.0265492 119 117 103
0.308681 0.0957668 0.0269262 113 112 98
0.30832 0.0958461 0.0269707 107 104 89
0.308431 0.0959097 0.0273712 102 102 90
0.308101 0.0959484 0.0273982 96 95 84
0.308238 0.0959742 0.0278129 97 99 90
0.307998 0.095991 0.027792 100 101 91
0.308047 0.0960458 0.0281334 103 105 95
0.307819 0.0960327 0.0276331 102 100 89
0.307676 0.0961664 0.0281439 114 113 100
0.309824 0.0961215 0.0284222 140 143 124
0.30955 0.0960877 0.028532 131 133 116
0.309696 0.0961073 0.0288345 134 135 118
0.309495 0.0961526 0.0292158 122 127 113
0.309916 0.0961564 0.0292871 129 133 118
0.307558 0.0968809 0.02898 149 147 131
0.307911 0.0965162 0.0290362 130 129 116
0.308249 0.0962358 0.0289927 120 121 110
0.308526 0.0961338 0.0289032 115 119 108
0.308615 0.0960715 0.0286382 110 116 105
0.308737 0.096016 0.0282488 105 111 99
0.308951 0.0959836 0.0278524 118 121 107
0.307582 0.0966072 0.028753 140 138 122
0.307923 0.0962705 0.0287584 123 122 109
0.30826 0.0961057 0.0285971 108 112 102
0.307603 0.0963443 0.028491 132 129 114
0.307947 0.096135 0.0284407 112 113 102
0.308391 0.0960328 0.0282459 101 108 99
0.308571 0.0959776 0.0278208 110 110 99
0.30879 0.0959074 0.0274065 112 113 100
0.308979 0.0958119 0.0271094 118 119 105
0.309032 0.0956873 0.0268657 116 118 104
0.309131 0.095954 0.0275586 124 126 109
0.310697 0.0963092 0.0286662 144 143 123
0.31103 0.0964124 0.0288556 146 144 124
0.310926 0.0963731 0.0282926 158 158 133
0.311271 0.0964931 0.0284732 157 158 132
0.311128 0.0963094 0.0280385 167 165 142
0.310598 0.0962471 0.0281182 158 158 134
0.310815 0.0961623 0.0278832 164 164 139
0.310482 0.0959979 0.0277394 156 159 136
0.30391 0.0961445 0.0214878 156 152 133
0.303796 0.0965974 0.0212331 162 158 137
0.303686 0.0970508 0.0209563 177 171 143
0.303727 0.0973819 0.0210354 181 175 147
0.303535 0.0975004 0.0206966 178 172 143
0.303688 0.0976979 0.0211516 181 175 144
0.303528 0.0978182 0.0207993 177 172 143
0.30356 0.098026 0.0212852 176 168 138
0.303408 0.098156 0.0209317 176 171 141
0.303361 0.0983883 0.0214429 176 168 138
0.30322 0.0985075 0.0210892 173 166 137
0.303233 0.0987281 0.0215803 174 167 136
0.303098 0.098851 0.021229 175 168 137
0.303156 0.0990597 0.021718 166 157 131
0.303024 0.0991849 0.0213551 171 161 133
0.303073 0.0993934 0.0218505 160 153 127
0.302942 0.0995213 0.0214758 165 156 129
0.302976 0.0997308 0.0219707 158 149 123
0.302846 0.0998528 0.0216111 164 152 125
0.302871 0.100073 0.0221099 153 145 122
0.302747 0.100191 0.0217505 158 147 121
0.302777 0.100407 0.0222483 147 139 118
0.302631 0.100529 0.0218853 150 141 118
0.302723 0.100739 0.0223701 147 140 119
0.302576 0.100866 0.0220124 147 138 117
0.302577 0.101198 0.0221249 144 139 119
0.302457 0.101653 0.0218808 151 140 119
0.302359 0.102113 0.0216166 152 146 124
0.302311 0.102574 0.0213446 159 149 125
0.302357 0.102958 0.0212896 163 154 130
0.302309 0.103425 0.0209634 165 153 127
0.302315 0.103885 0.0206798 155 146 122
0.302347 0.104355 0.0203606 157 144 119
0.302477 0.104818 0.0200959 153 140 113
0.302685 0.105249 0.0198689 151 133 110
0.302928 0.105685 0.0196175 150 129 104
0.303307 0.106111 0.0194191 148 119 93
0.303704 0.106486 0.019199 133 95 72
0.304143 0.106869 0.0189913 122 77 56
0.304559 0.10726 0.0187923 110 57 39
0.304912 0.107622 0.0185867 101 46 32
0.305264 0.107989 0.0184241 97 41 28
0.305418 0.108267 0.0186562 95 36 23
0.305557 0.108552 0.0188598 86 26 15
0.305756 0.108641 0.0184719 85 24 15
0.305898 0.108935 0.018679 83 21 13
0.306145 0.109011 0.018336 81 21 13
0.306277 0.109301 0.0185356 81 17 10
0.306546 0.109367 0.0182271 78 17 10
0.306672 0.109668 0.0184109 76 13 7
0.3068 0.109964 0.0186122 76 13 6
0.307201 0.110316 0.0185256 76 12 6
0.307304 0.110612 0.0187414 73 10 5
0.307615 0.110656 0.0184795 74 11 6
0.307981 0.11069 0.0182235 76 12 6
0.307772 0.110956 0.0186488 75 11 6
0.308088 0.110982 0.0184179 75 10 6
0.307902 0.111252 0.0188444 72 9 4
0.308221 0.111283 0.0186034 75 10 5
0.308026 0.111555 0.019057 74 9 4
0.308336 0.11159 0.0187978 73 9 5
0.308455 0.111889 0.0189983 74 9 5
0.308671 0.111622 0.0185713 75 10 5
0.306429 0.109068 0.0180353 80 20 12
0.306004 0.108717 0.0181331 89 28 19
0.305639 0.108363 0.0182512 91 33 22
0.303185 0.0992772 0.022209 157 149 124
0.303279 0.0989414 0.0220787 160 151 125
0.30339 0.0985989 0.0219411 169 160 130
0.303536 0.0982602 0.0217885 173 164 135
0.303717 0.0979096 0.0216403 177 169 139
0.303848 0.0975864 0.0215013 179 170 141
0.303881 0.0972579 0.0213805 180 171 141
0.303871 0.0969333 0.0212948 169 164 139
0.30223 0.102238 0.0212502 158 149 125
0.302265 0.10263 0.0211713 160 152 127
0.30223 0.103094 0.0208579 156 149 124
0.302208 0.103557 0.0205389 159 151 126
0.302205 0.104022 0.0202516 153 146 123
0.302263 0.104491 0.0199315 154 144 119
0.302401 0.104943 0.019667 152 139 112
0.302593 0.105372 0.019414 147 132 107
0.302848 0.105816 0.0191998 148 126 103
0.30319 0.106241 0.0189638 147 120 96
0.303632 0.106625 0.0187671 139 105 81
0.304121 0.106988 0.0185871 126 84 64
0.304681 0.107397 0.0183743 105 57 41
0.305085 0.107733 0.0182122 99 45 31
0.305466 0.108093 0.0180681 96 40 26
0.305875 0.108437 0.0179307 92 32 21
0.306295 0.10878 0.0178332 87 27 18
0.306147 0.108502 0.0176307 90 31 20
0.305987 0.108219 0.0173912 95 38 26
0.305722 0.10817 0.0177179 95 38 27
0.305543 0.107899 0.0174773 100 48 34
0.305289 0.107821 0.017821 99 47 34
0.305075 0.107605 0.0175234 108 62 46
0.30486 0.107526 0.0179581 105 56 40
0.30444 0.107313 0.0173953 116 77 59
0.304288 0.107222 0.0178077 126 86 64
0.303798 0.106995 0.0171979 124 102 85
0.303654 0.106907 0.0176272 130 109 90
0.303357 0.106669 0.0173063 127 113 95
0.303217 0.106553 0.0177112 133 115 96
0.303092 0.10635 0.0172287 127 116 97
0.30297 0.10624 0.0175564 133 118 98
0.302921 0.106046 0.0170989 132 126 104
0.3028 0.105931 0.0174034 139 130 109
0.303161 0.106396 0.0170421 126 115 96
0.30354 0.106769 0.0169032 126 112 96
0.304001 0.107106 0.0168447 122 104 89
0.304663 0.107399 0.0170069 130 97 77
0.305334 0.107667 0.0171791 106 62 47
0.305814 0.107951 0.0171549 100 48 35
0.304111 0.107087 0.0181684 123 83 63
0.303546 0.106816 0.0179446 136 110 91
0.303155 0.106459 0.0181221 138 122 101
0.302892 0.106154 0.0179491 137 125 103
0.302833 0.106049 0.0183437 138 121 100
0.302645 0.105729 0.0181885 143 129 106
0.302606 0.105615 0.018585 144 127 105
0.30247 0.105289 0.018446 148 134 108
0.302415 0.10518 0.0188413 150 138 112
0.302314 0.104844 0.0187067 154 145 119
0.302279 0.104731 0.0191036 158 145 120
0.302176 0.104284 0.0193848 160 150 125
0.302111 0.103827 0.0196702 161 153 129
0.30209 0.103368 0.0199638 161 155 128
0.302047 0.103052 0.0198112 161 155 129
0.302071 0.102909 0.0202726 160 154 129
0.302018 0.102693 0.0197633 162 157 131
0.302031 0.102568 0.0201898 156 150 126
0.302372 0.104963 0.0183017 152 144 119
0.30251 0.1054 0.0180457 147 137 112
0.302583 0.105473 0.017688 146 136 112
0.302713 0.105827 0.0177842 141 130 106
0.303578 0.106746 0.0183387 139 108 84
0.303145 0.106351 0.0185318 144 123 100
0.302817 0.105929 0.0187442 142 125 103
0.302583 0.105499 0.0189925 147 131 107
0.302386 0.105063 0.0192421 153 139 113
0.302254 0.10462 0.0195158 161 148 121
0.302163 0.104161 0.0197983 160 151 125
0.302138 0.103694 0.0200999 159 151 126
0.302121 0.103237 0.0203998 156 151 128
0.302152 0.10277 0.0207325 159 152 126
0.302188 0.102296 0.0210698 156 146 122
0.302101 0.102438 0.0206228 160 153 125
0.315293 0.0937428 0.0259207 172 114 78
0.315139 0.0941413 0.0258611 164 108 74
0.314575 0.0942324 0.0257331 148 102 72
0.295404 0.101089 0.00595035 0 23 10
0.295743 0.101286 0.00588641 0 22 10
0.29571 0.101314 0.00545183 0 21 9
0.296062 0.101383 0.00564094 0 21 8
0.295986 0.101342 0.00526455 0 21 7
0.296294 0.101332 0.00524729 0 20 7
0.296139 0.101261 0.00487969 0 20 7
0.295808 0.101269 0.00499304 0 20 7
0.296445 0.101392 0.00565078 0 21 8
0.296805 0.101366 0.00562595 0 19 8
0.297017 0.101382 0.00595232 0 20 8
0.29721 0.101347 0.00574824 0 20 7
0.314776 0.0977822 0.0103051 185 158 120
0.314776 0.0981092 0.0104305 193 170 136
0.302477 0.0995373 0.0114914 12 26 17
0.30292 0.099385 0.01161 25 40 26
0.302848 0.0995371 0.0112744 23 38 22
0.303224 0.0994928 0.0113826 36 50 31
0.303171 0.0996044 0.0110541 27 41 22
0.303499 0.0996104 0.0111478 37 52 31
0.303438 0.0997549 0.0108025 25 44 25
0.303756 0.0996963 0.0109661 35 50 31
0.303821 0.0997798 0.0107471 31 48 32
0.304104 0.099812 0.0109946 34 52 36
0.304094 0.0998789 0.0105576 22 39 30
0.304367 0.0998682 0.010821 31 48 37
0.304463 0.0998525 0.0105342 24 43 39
0.304627 0.0999015 0.0107836 39 56 46
0.304781 0.0998743 0.0103966 26 46 41
0.304827 0.100024 0.0108491 42 60 48
0.305082 0.09997 0.010588 42 59 47
0.305134 0.100247 0.0108783 65 76 59
0.305358 0.100139 0.0106453 66 78 60
0.305438 0.100517 0.0109035 83 85 60
0.30565 0.100377 0.0106547 82 83 58
0.305768 0.100871 0.010875 108 103 74
0.305982 0.100732 0.0106217 102 100 71
0.306116 0.10123 0.0108524 113 112 83
0.30632 0.101053 0.0106217 107 104 76
0.306433 0.101507 0.0108941 130 124 90
0.306625 0.101377 0.0106094 119 115 85
0.306771 0.101805 0.0109296 138 132 99
0.307037 0.101753 0.0106864 132 129 98
0.307124 0.102091 0.0110126 151 146 112
0.307398 0.102011 0.0107662 145 142 108
0.307492 0.10229 0.0110449 157 154 119
0.307662 0.102172 0.0108663 157 154 118
0.307916 0.102387 0.0109653 157 159 126
0.307842 0.102042 0.0106305 156 154 122
0.308207 0.102276 0.010723 159 160 127
0.30834 0.10207 0.0104592 155 155 124
0.308638 0.102282 0.0105771 162 163 131
0.308881 0.102108 0.0103529 157 161 130
0.309268 0.102273 0.0104778 166 169 139
0.309733 0.102274 0.0104416 169 172 143
0.307696 0.102532 0.0112165 158 159 126
0.305187 0.100601 0.0111369 93 97 73
0.30509 0.100731 0.0113229 86 91 70
0.30494 0.100948 0.0116725 88 90 70
0.304825 0.100644 0.0114981 64 72 57
0.304654 0.100762 0.0118639 87 88 67
0.304541 0.100402 0.011579 57 67 53
0.304328 0.100562 0.0119805 72 77 56
0.304252 0.100187 0.0116726 48 61 45
0.304012 0.100349 0.012116 61 70 53
0.303933 0.100013 0.0118351 47 60 46
0.303653 0.0997959 0.0118623 45 58 45
0.303329 0.0995262 0.0117427 42 55 37
0.303569 0.0996243 0.0114918 39 54 35
0.303838 0.0997079 0.011251 40 54 36
0.303847 0.0997845 0.0115754 42 58 43
0.304119 0.0999057 0.0114069 45 59 45
0.30449 0.100054 0.011194 45 61 46
0.304892 0.100272 0.0111043 64 75 58
0.30482 0.100413 0.011298 60 70 54
0.304092 0.100708 0.0123919 75 84 64
0.304459 0.100915 0.0122826 95 92 65
0.304223 0.100999 0.0126843 98 90 61
0.304543 0.101181 0.0125081 102 91 61
0.307495 0.101791 0.0104928 141 138 108
0.30715 0.101498 0.0104108 130 129 99
0.306815 0.101168 0.0103859 117 114 85
0.306521 0.100876 0.010377 108 107 80
0.306224 0.10058 0.0103815 97 98 71
0.306711 0.100657 0.0101784 106 102 71
0.306378 0.100376 0.0101356 94 95 68
0.306908 0.100432 0.00997851 111 104 72
0.30659 0.100187 0.00992248 94 94 68
0.306799 0.0999903 0.00973428 91 92 65
0.306189 0.0999264 0.00988112 69 76 54
0.306457 0.0997451 0.00962636 63 65 46
0.306114 0.0996925 0.00951934 42 52 38
0.30661 0.099586 0.00942337 59 64 46
0.305949 0.100046 0.0101434 75 80 53
0.30587 0.100255 0.0103826 77 82 57
0.30558 0.100042 0.0103669 59 70 47
0.302255 0.099983 0.0111878 1 14 7
0.301838 0.100147 0.0113147 0 6 2
0.302064 0.100397 0.0109369 0 7 2
0.3017 0.100504 0.011069 0 3 0
0.301819 0.100783 0.0107053 0 4 0
0.301492 0.100813 0.0109085 0 1 0
0.301579 0.101159 0.010475 0 3 0
0.301292 0.101122 0.010685 0 3 0
0.301161 0.101445 0.0103886 0 5 0
0.298194 0.101406 0.0061446 0 18 6
0.298539 0.101472 0.00607293 0 17 6
0.298907 0.101543 0.00597351 0 16 5
0.299044 0.101536 0.00551174 0 14 3
0.299237 0.101633 0.00586536 0 16 4
0.299423 0.101641 0.00561814 0 14 2
0.299581 0.101758 0.00601831 0 16 4
0.299942 0.101915 0.00597536 1 15 3
0.300168 0.101929 0.0056127 1 13 3
0.300321 0.102133 0.00604578 2 12 3
0.300504 0.1021 0.00564788 1 15 3
0.300632 0.102268 0.0059696 2 10 2
0.300856 0.102245 0.00573336 1 15 4
0.300923 0.102389 0.00612692 1 12 4
0.301172 0.102353 0.00587902 1 14 4
0.301263 0.102507 0.00631004 0 13 4
0.301439 0.102429 0.00598131 1 14 4
0.301623 0.102525 0.00621969 0 13 4
0.301742 0.102402 0.00585008 0 12 3
0.301915 0.102493 0.00609817 1 12 3
0.301488 0.102292 0.00562387 1 13 3
0.301657 0.10219 0.00536466 0 11 2
0.298721 0.101546 0.00638462 0 18 6
0.298972 0.101623 0.00639409 0 17 6
0.29924 0.101685 0.0062288 0 16 4
0.299163 0.101721 0.00663421 0 18 6
0.29945 0.101806 0.0065508 0 17 6
0.299232 0.101825 0.00704257 0 18 6
0.299608 0.101928 0.00694721 0 18 5
0.298883 0.101764 0.00724318 0 18 6
0.298837 0.101651 0.00679032 0 19 6
0.299764 0.101916 0.00644585 0 14 4
0.300087 0.102064 0.00641054 0 11 2
0.300382 0.102217 0.00645797 0 11 2
0.300633 0.102322 0.0063253 0 10 3
0.300608 0.102331 0.00676145 0 14 5
0.300935 0.102459 0.00653933 0 13 3
0.300953 0.102484 0.00694294 1 17 6
0.301248 0.102589 0.00673243 0 16 4
0.30127 0.102613 0.0071509 0 17 6
0.301531 0.102699 0.00695374 0 15 6
0.301555 0.102719 0.00726255 0 13 4
0.301007 0.10248 0.00734086 0 20 7
0.300717 0.102373 0.0071437 2 19 8
0.300428 0.102253 0.00713599 1 15 4
0.300258 0.102171 0.00678281 0 11 2
0.300121 0.102134 0.00712338 0 16 4
0.299928 0.102037 0.00684362 0 15 4
0.301596 0.102632 0.00660393 0 14 5
0.30192 0.102591 0.006417 0 13 4
0.301745 0.102714 0.00687232 0 14 4
0.305799 0.099719 0.00921136 34 39 23
0.3056 0.0999112 0.00886238 28 28 12
0.305325 0.0999622 0.00914753 37 35 16
0.305194 0.100205 0.00880217 27 27 10
0.304892 0.100214 0.00908158 30 26 6
0.304791 0.100493 0.00873375 17 18 3
0.304467 0.100492 0.00899487 24 21 4
0.304401 0.100768 0.00866845 16 15 1
0.304048 0.100792 0.00891474 11 14 2
0.304115 0.100965 0.00861845 7 10 0
0.303838 0.101122 0.00863867 1 7 2
0.304056 0.101128 0.00846894 0 3 1
0.303542 0.101284 0.00874829 1 1 0
0.303636 0.101038 0.00896298 7 7 1
0.303243 0.101321 0.00901176 1 3 0
0.303418 0.100981 0.00928557 2 5 1
0.303061 0.101117 0.00944106 0 3 0
0.30326 0.100843 0.00964256 0 2 0
0.302944 0.100867 0.00984838 0 3 0
0.303162 0.100667 0.00997522 2 11 5
0.30284 0.100564 0.0102622 1 10 3
0.303204 0.100478 0.0101791 6 20 12
0.303194 0.100302 0.0103496 4 20 11
0.303524 0.100297 0.010197 12 26 18
0.303533 0.100125 0.0103626 11 27 14
0.30392 0.100099 0.0102102 18 31 20
0.303679 0.0999305 0.0105206 22 39 24
0.303247 0.100023 0.0105739 13 31 15
0.303014 0.0998361 0.0108396 16 31 15
0.302879 0.100092 0.0106838 8 20 8
0.302728 0.100011 0.0108254 6 18 8
0.302515 0.100293 0.0107171 3 12 5
0.302625 0.0998378 0.0110569 12 26 15
0.302889 0.0996642 0.0110292 16 32 19
0.302186 0.100697 0.010537 0 9 2
0.301964 0.101072 0.0103095 2 7 1
0.301778 0.101371 0.0101068 0 4 0
0.301439 0.101504 0.0101636 0 4 0
0.301679 0.101582 0.00983855 0 5 0
0.301363 0.101655 0.00995077 0 5 1
0.301503 0.101857 0.00948527 0 8 1
0.301145 0.101868 0.00961821 0 8 1
0.301288 0.10204 0.00917254 0 9 1
0.301 0.102016 0.00930406 0 9 1
0.300839 0.102158 0.00898113 0 10 1
0.300703 0.101986 0.00946648 0 11 1
0.300505 0.102137 0.00912931 0 11 1
0.300327 0.101981 0.00953516 0 11 1
0.300173 0.102119 0.00922751 0 12 2
0.299999 0.101957 0.00966713 0 13 1
0.299841 0.102088 0.00931511 0 14 2
0.299539 0.102038 0.00951249 0 15 3
0.299427 0.102074 0.00915014 0 17 4
0.299084 0.102005 0.00928853 0 18 5
0.299254 0.102031 0.00881284 0 19 6
0.298895 0.101945 0.00886461 1 20 7
0.299104 0.101946 0.00843797 0 18 6
0.298752 0.101867 0.00847225 0 20 7
0.299433 0.102033 0.00831761 0 18 5
0.299789 0.102112 0.00821783 0 17 5
0.300132 0.102167 0.00809629 1 18 6
0.300518 0.102241 0.00820914 0 17 6
0.300909 0.102334 0.00822714 1 16 6
0.301328 0.102392 0.00828429 1 13 5
0.301726 0.102444 0.00833576 1 15 7
0.302123 0.102413 0.00842414 0 8 2
0.299566 0.102112 0.0086841 0 18 4
0.299879 0.102171 0.00860249 0 17 5
0.300206 0.102191 0.00846865 0 16 4
0.300031 0.10217 0.00889935 0 15 3
0.300376 0.102208 0.00881083 0 14 3
0.300665 0.102243 0.00858141 0 13 3
0.301056 0.102279 0.00857477 0 11 3
0.301521 0.102272 0.00865669 0 9 3
0.301878 0.102322 0.0085973 1 11 5
0.302197 0.102226 0.00870434 0 2 0
0.302369 0.101983 0.00898645 0 1 0
0.302594 0.101629 0.00923671 0 2 0
0.30291 0.101608 0.00902946 0 1 0
0.30292 0.101395 0.00922281 1 3 0
0.301218 0.102187 0.00885816 0 9 1
0.301624 0.102077 0.00903956 0 7 1
0.30194 0.102172 0.00887214 0 4 0
0.302052 0.101954 0.00913166 0 3 0
0.30224 0.101671 0.00942474 0 2 0
0.302448 0.10132 0.00968792 0 2 0
0.302741 0.101331 0.00945362 0 1 0
0.302762 0.10112 0.00969231 0 1 0
0.301841 0.101849 0.0093388 0 5 0
0.299713 0.102127 0.00899727 0 17 3
0.300843 0.101855 0.00978019 0 9 0
0.301035 0.101655 0.0101142 0 6 0
0.302908 0.100269 0.0105192 2 15 8
0.302484 0.100681 0.0103474 0 9 2
0.302285 0.101026 0.0101214 0 5 1
0.302067 0.101377 0.00987051 0 3 0
0.303791 0.100753 0.00923044 13 15 6
0.304173 0.100497 0.00925296 17 18 3
0.303928 0.100496 0.00952029 16 21 9
0.304273 0.10025 0.0095822 20 23 8
0.303987 0.100281 0.0098396 16 23 13
0.304288 0.10007 0.00993209 26 33 19
0.304354 0.0999385 0.010264 20 35 29
0.304625 0.0999213 0.0100411 25 36 28
0.304626 0.100008 0.00969116 36 35 18
0.304574 0.100213 0.00933657 33 31 11
0.305004 0.0999533 0.00946277 39 33 15
0.305434 0.0998156 0.00943309 37 44 27
0.305671 0.099755 0.00961303 38 52 36
0.305798 0.0997866 0.00985152 44 58 42
0.305771 0.0999154 0.0100887 55 66 43
0.304977 0.0998555 0.00993072 29 41 33
0.305299 0.0998091 0.00971401 37 48 32
0.305423 0.099805 0.00999292 45 60 44
0.305122 0.0998457 0.0102524 36 58 47
0.30533 0.0999075 0.0103459 44 62 47
0.305586 0.0998995 0.0101234 52 66 44
0.303595 0.100712 0.00952147 4 9 2
0.303742 0.100496 0.00973177 10 16 9
0.303702 0.100372 0.00998757 15 24 16
0.303476 0.100617 0.00981748 5 12 7
0.303422 0.100503 0.010042 7 18 12
0.306951 0.099714 0.00950562 74 76 52
0.307327 0.100009 0.00959552 99 98 71
0.308664 0.10031 0.00568739 2 13 1
0.308638 0.10044 0.00555761 0 13 1
0.308488 0.100647 0.00526384 0 11 1
0.308306 0.100824 0.00497154 0 11 0
0.318602 0.0959431 0.0190843 191 154 129
0.318628 0.0962574 0.0191204 188 155 128
0.318709 0.0966099 0.0191563 184 161 133
0.318943 0.0970182 0.0189913 184 169 139
0.31925 0.0974276 0.018739 189 179 149
0.319492 0.097842 0.0184048 195 186 157
0.319612 0.0982909 0.0180921 193 187 158
0.319629 0.0987403 0.017793 194 188 156
0.31957 0.0991962 0.0175248 191 186 155
0.31921 0.0973213 0.0191167 179 164 137
0.319614 0.0975607 0.0193378 179 166 139
0.319608 0.0976015 0.019126 183 172 145
0.319998 0.0979279 0.019173 191 180 152
0.319633 0.0977422 0.0187825 189 179 152
0.31996 0.0980641 0.0187966 192 185 156
0.319786 0.098164 0.0184379 193 188 158
0.320001 0.0984946 0.0184935 195 190 157
0.319814 0.0986202 0.0181429 197 192 159
0.319974 0.0989488 0.0182128 198 192 160
0.319782 0.0990755 0.0178608 192 189 157
0.319909 0.0994024 0.0179396 195 190 157
0.31971 0.0995314 0.0176 191 186 155
0.319826 0.0998562 0.0176761 187 181 150
0.31842 0.0957704 0.0206465 179 148 114
0.305035 0.0967571 0.0239788 177 166 133
0.304854 0.0971013 0.0241411 177 164 132
0.304794 0.0973255 0.0246552 179 167 136
0.304618 0.0974409 0.02432 176 163 132
0.304634 0.0976468 0.0248194 170 161 133
