ply
format ascii 1.0
element vertex 1731
property float x
property float y
property float z
end_header
0.332843 0.164076 0.0697449
0.333337 0.164045 0.0696042
0.333831 0.164014 0.0694636
0.334267 0.164006 0.06922
0.334761 0.163975 0.0690793
0.335141 0.163991 0.0687328
0.335577 0.163984 0.0684892
0.336014 0.163977 0.0682456
0.33645 0.163969 0.0680019
0.336887 0.163962 0.0677583
0.337323 0.163954 0.0675147
0.33776 0.163947 0.0672711
0.33814 0.163963 0.0669244
0.338576 0.163956 0.0666808
0.338956 0.163972 0.0663342
0.339392 0.163965 0.0660906
0.339772 0.163981 0.0657441
0.340151 0.163998 0.0653974
0.340531 0.164014 0.0650509
0.340967 0.164007 0.0648072
0.34129 0.164047 0.0643576
0.341612 0.164087 0.063908
0.341992 0.164104 0.0635615
0.342314 0.164144 0.0631119
0.342694 0.164161 0.0627653
0.343073 0.164177 0.0624187
0.343396 0.164217 0.0619692
0.343718 0.164258 0.0615195
0.344041 0.164298 0.06107
0.344363 0.164339 0.0606204
0.344743 0.164355 0.0602738
0.345008 0.164419 0.0597212
0.345273 0.164484 0.0591687
0.345596 0.164524 0.0587191
0.345861 0.164588 0.0581665
0.346241 0.164604 0.05782
0.34662 0.164621 0.0574733
0.347 0.164637 0.0571267
0.347379 0.164654 0.0567802
0.347759 0.16467 0.0564335
0.348138 0.164687 0.056087
0.348518 0.164703 0.0557403
0.348897 0.16472 0.0553938
0.34922 0.16476 0.0549441
0.349656 0.164753 0.0547005
0.349979 0.164793 0.054251
0.350301 0.164833 0.0538014
0.350624 0.164874 0.0533518
0.350946 0.164914 0.0529022
0.351326 0.164931 0.0525557
0.351648 0.164971 0.052106
0.352028 0.164987 0.0517595
0.352407 0.165004 0.0514129
0.352673 0.165068 0.0508603
0.352995 0.165108 0.0504108
0.353318 0.165149 0.0499612
0.353583 0.165213 0.0494086
0.353905 0.165254 0.048959
0.354171 0.165318 0.0484065
0.354379 0.165406 0.0477509
0.354576 0.165495 0.0470756
0.354709 0.165608 0.046284
0.354964 0.165673 0.0457117
0.355218 0.165738 0.0451393
0.355412 0.165827 0.0444573
0.355544 0.16594 0.0436658
0.355678 0.166054 0.0428742
0.355932 0.166119 0.0423019
0.356247 0.16616 0.0418391
0.356562 0.166201 0.0413763
0.356877 0.166241 0.0409135
0.357192 0.166282 0.0404507
0.357447 0.166347 0.0398783
0.357822 0.166364 0.0395251
0.358016 0.166453 0.0388431
0.35827 0.166518 0.0382708
0.358525 0.166583 0.0376984
0.358718 0.166672 0.0370164
0.358851 0.166786 0.0362248
0.358984 0.166899 0.0354333
0.359056 0.167036 0.0345322
0.359007 0.167222 0.0334119
0.3592 0.167311 0.0327299
0.359394 0.1674 0.0320479
0.359588 0.167489 0.031366
0.359842 0.167554 0.0307936
0.359975 0.167668 0.030002
0.360168 0.167757 0.0293201
0.36018 0.167918 0.0283093
0.360374 0.168008 0.0276274
0.360446 0.168145 0.0267262
0.360336 0.168355 0.0254964
0.360286 0.168541 0.024376
0.360237 0.168726 0.0232557
0.360187 0.168912 0.0221354
0.360381 0.169001 0.0214534
0.36021 0.169235 0.0201139
0.360282 0.169373 0.0192129
0.359929 0.169679 0.0175446
0.359759 0.169913 0.016205
0.359648 0.170123 0.0149752
0.359417 0.170381 0.0135261
0.355723 0.172016 0.00583056
0.242464 0.173662 0.0752727
0.243569 0.173388 0.0762346
0.245038 0.17297 0.077854
0.245778 0.172841 0.0781583
0.248341 0.171987 0.0817503
0.249506 0.171689 0.0828217
0.250368 0.171513 0.0833453
0.251291 0.171312 0.0839783
0.252092 0.171159 0.0843922
0.252953 0.170982 0.0849156
0.253694 0.170854 0.0852201
0.254434 0.170726 0.0855244
0.255296 0.170549 0.0860479
0.255975 0.170445 0.0862426
0.256655 0.17034 0.0864373
0.257395 0.170212 0.0867416
0.258075 0.170108 0.0869364
0.258754 0.170004 0.0871311
0.259373 0.169924 0.0872162
0.259992 0.169844 0.0873014
0.26061 0.169764 0.0873865
0.26129 0.169659 0.0875813
0.261848 0.169604 0.0875568
0.262467 0.169524 0.087642
0.263086 0.169444 0.0877271
0.263704 0.169363 0.0878124
0.264323 0.169284 0.0878975
0.264881 0.169228 0.087873
0.2655 0.169148 0.0879581
0.266058 0.169092 0.0879337
0.266677 0.169012 0.0880188
0.267235 0.168956 0.0879944
0.267854 0.168876 0.0880795
0.268412 0.16882 0.0880551
0.26897 0.168764 0.0880307
0.269589 0.168684 0.0881158
0.270207 0.168604 0.0882009
0.270766 0.168549 0.0881765
0.271324 0.168493 0.0881521
0.271882 0.168437 0.0881276
0.27244 0.168381 0.0881032
0.272998 0.168325 0.0880787
0.273495 0.168294 0.0879447
0.273992 0.168262 0.0878106
0.27449 0.16823 0.0876767
0.274926 0.168223 0.0874331
0.275424 0.168191 0.0872989
0.275799 0.168208 0.0869459
0.276236 0.168201 0.0867022
0.276612 0.168217 0.086349
0.276988 0.168234 0.0859958
0.277363 0.168251 0.0856426
0.2778 0.168243 0.0853989
0.278176 0.16826 0.0850457
0.278673 0.168228 0.0849117
0.279171 0.168197 0.0847776
0.279729 0.168141 0.0847532
0.280226 0.168109 0.0846192
0.280784 0.168054 0.0845948
0.281342 0.167998 0.0845704
0.2819 0.167942 0.0845459
0.282458 0.167886 0.0845215
0.282955 0.167855 0.0843875
0.283392 0.167847 0.0841438
0.283829 0.16784 0.0839002
0.284204 0.167856 0.083547
0.28452 0.167897 0.0830842
0.284895 0.167914 0.082731
0.285271 0.167931 0.0823778
0.285586 0.167972 0.081915
0.286023 0.167964 0.0816714
0.286459 0.167957 0.0814278
0.286896 0.167949 0.0811842
0.287272 0.167966 0.0808309
0.287708 0.167959 0.0805873
0.288145 0.167951 0.0803437
0.288581 0.167944 0.0801001
0.288957 0.167961 0.0797469
0.289333 0.167977 0.0793937
0.28977 0.16797 0.0791501
0.290146 0.167987 0.0787968
0.290461 0.168028 0.078334
0.290776 0.168069 0.0778713
0.29103 0.168134 0.0772989
0.291345 0.168175 0.0768361
0.291721 0.168191 0.0764829
0.292036 0.168232 0.0760201
0.292412 0.168249 0.0756669
0.292849 0.168242 0.0754233
0.293407 0.168186 0.0753988
0.293965 0.16813 0.0753744
0.294523 0.168074 0.0753499
0.295141 0.167994 0.0754352
0.295639 0.167962 0.0753011
0.296136 0.167931 0.075167
0.296633 0.167899 0.075033
0.297131 0.167868 0.074899
0.297567 0.16786 0.0746553
0.297943 0.167877 0.0743021
0.29838 0.167869 0.0740585
0.298756 0.167886 0.0737053
0.299071 0.167927 0.0732426
0.299446 0.167944 0.0728893
0.299701 0.168009 0.072317
0.299955 0.168074 0.0717446
0.30027 0.168115 0.0712818
0.300525 0.16818 0.0707095
0.3009 0.168197 0.0703562
0.301398 0.168165 0.0702222
0.301774 0.168182 0.069869
0.30221 0.168175 0.0696254
0.302708 0.168143 0.0694914
0.303387 0.168039 0.0696861
0.304613 0.167717 0.0708672
0.305475 0.16754 0.0713906
0.306458 0.167315 0.0721332
0.307442 0.16709 0.072876
0.308535 0.166817 0.0738179
0.309656 0.166522 0.0748097
0.310378 0.166394 0.0750809
0.310986 0.166315 0.0751461
0.311993 0.166068 0.0759321
0.313 0.165821 0.076718
0.313779 0.165669 0.0770921
0.314443 0.165566 0.0772604
0.315051 0.165486 0.0773257
0.315659 0.165407 0.0773908
0.316324 0.165304 0.0775591
0.316817 0.165273 0.0774184
0.317368 0.165217 0.0773808
0.317918 0.165162 0.077343
0.318526 0.165082 0.0774083
0.319077 0.165027 0.0773706
0.319627 0.164971 0.0773329
0.320121 0.16494 0.0771922
0.320672 0.164885 0.0771545
0.321108 0.164877 0.0769108
0.321602 0.164846 0.0767702
0.322039 0.164838 0.0765266
0.322418 0.164855 0.07618
0.322626 0.164943 0.0755246
0.322949 0.164984 0.0750751
0.323328 0.165 0.0747284
0.323822 0.164969 0.0745878
0.324373 0.164914 0.0745501
0.324866 0.164882 0.0744095
0.32536 0.164851 0.0742688
0.325853 0.164819 0.0741282
0.326347 0.164788 0.0739874
0.326784 0.16478 0.0737439
0.327277 0.164749 0.0736033
0.327714 0.164742 0.0733596
0.328151 0.164734 0.073116
0.328587 0.164727 0.0728724
0.329081 0.164695 0.0727317
0.32946 0.164712 0.0723852
0.32984 0.164728 0.0720385
0.330219 0.164745 0.071692
0.330599 0.164761 0.0713454
0.330921 0.164802 0.0708959
0.331301 0.164818 0.0705493
0.331737 0.164811 0.0703057
0.332231 0.16478 0.070165
0.332725 0.164748 0.0700244
0.333161 0.164741 0.0697808
0.333712 0.164685 0.069743
0.334148 0.164678 0.0694994
0.334642 0.164647 0.0693587
0.335079 0.164639 0.0691151
0.335515 0.164632 0.0688715
0.335895 0.164648 0.068525
0.336331 0.164641 0.0682813
0.336768 0.164633 0.0680377
0.337204 0.164626 0.0677941
0.337641 0.164618 0.0675505
0.338078 0.164611 0.0673068
0.338514 0.164603 0.0670632
0.338951 0.164596 0.0668196
0.33933 0.164613 0.066473
0.339767 0.164605 0.0662294
0.340147 0.164622 0.0658829
0.340526 0.164638 0.0655363
0.340905 0.164655 0.0651898
0.341285 0.164671 0.0648432
0.341607 0.164712 0.0643936
0.341987 0.164728 0.0640471
0.342367 0.164745 0.0637004
0.342689 0.164785 0.063251
0.343068 0.164802 0.0629044
0.343448 0.164819 0.0625578
0.34377 0.164859 0.0621083
0.344093 0.1649 0.0616587
0.344359 0.164964 0.0611062
0.344681 0.165005 0.0606567
0.345061 0.165021 0.0603102
0.345326 0.165086 0.0597576
0.345592 0.16515 0.0592052
0.3458 0.165238 0.0585498
0.346122 0.165279 0.0581002
0.346445 0.165319 0.0576507
0.346767 0.16536 0.0572012
0.347147 0.165377 0.0568546
0.347526 0.165393 0.056508
0.347906 0.16541 0.0561615
0.348285 0.165426 0.0558149
0.348665 0.165443 0.0554682
0.348987 0.165483 0.0550188
0.349424 0.165476 0.0547752
0.349804 0.165492 0.0544285
0.350126 0.165533 0.0539791
0.350448 0.165573 0.0535295
0.350771 0.165614 0.05308
0.35115 0.16563 0.0527334
0.35153 0.165647 0.0523868
0.35191 0.165663 0.0520403
0.352232 0.165704 0.0515908
0.352555 0.165744 0.0511412
0.352877 0.165785 0.0506917
0.353199 0.165825 0.0502421
0.353522 0.165866 0.0497926
0.353787 0.16593 0.0492402
0.354053 0.165995 0.0486877
0.354318 0.166059 0.0481352
0.354519 0.166148 0.0474665
0.354652 0.166262 0.0466749
0.354967 0.166303 0.0462121
0.355282 0.166344 0.0457493
0.355476 0.166433 0.0450673
0.355609 0.166547 0.0442758
0.355742 0.16666 0.0434842
0.355814 0.166798 0.0425831
0.356068 0.166863 0.0420107
0.356383 0.166904 0.0415478
0.356699 0.166945 0.0410851
0.357074 0.166961 0.0407319
0.357389 0.167002 0.0402691
0.357704 0.167043 0.0398064
0.357898 0.167133 0.0391244
0.358213 0.167174 0.0386616
0.358407 0.167263 0.0379796
0.358661 0.167328 0.0374072
0.358855 0.167417 0.0367252
0.358988 0.167531 0.0359337
0.35906 0.167669 0.0350326
0.359071 0.167831 0.0340218
0.359204 0.167944 0.0332302
0.359398 0.168033 0.0325483
0.359591 0.168123 0.0318664
0.359785 0.168212 0.0311844
0.359979 0.168301 0.0305024
0.360172 0.168391 0.0298204
0.360305 0.168504 0.0290289
0.360499 0.168593 0.0283469
0.360449 0.16878 0.0272266
0.360643 0.168869 0.0265446
0.360351 0.169152 0.0249859
0.360362 0.169314 0.0239752
0.360313 0.1695 0.0228549
0.360445 0.169613 0.0220634
0.360518 0.169751 0.0211622
0.360408 0.169961 0.0199323
0.360237 0.170196 0.0185928
0.359944 0.170478 0.0170342
0.359895 0.170665 0.0159138
0.35936 0.171044 0.0139168
0.355241 0.172851 0.00545409
0.242164 0.174423 0.075225
0.243573 0.174028 0.0767349
0.24486 0.173681 0.0780256
0.245661 0.173528 0.0784395
0.248102 0.172721 0.0818122
0.249389 0.172374 0.0831028
0.250311 0.172173 0.083736
0.251112 0.17202 0.0841499
0.251974 0.171843 0.0846734
0.252836 0.171666 0.0851969
0.253637 0.171513 0.0856108
0.254377 0.171384 0.0859151
0.255117 0.171256 0.0862195
0.255918 0.171103 0.0866334
0.256598 0.170999 0.0868281
0.257399 0.170846 0.087242
0.258017 0.170766 0.0873271
0.258636 0.170685 0.0874123
0.259376 0.170557 0.0877166
0.259935 0.170501 0.0876922
0.260553 0.170421 0.0877773
0.261172 0.170341 0.0878625
0.261791 0.170261 0.0879476
0.26241 0.17018 0.0880328
0.262968 0.170124 0.0880084
0.263647 0.17002 0.0882031
0.264205 0.169964 0.0881786
0.264824 0.169884 0.0882638
0.265443 0.169804 0.0883489
0.266001 0.169748 0.0883244
0.266559 0.169692 0.0883001
0.267178 0.169612 0.0883852
0.267736 0.169556 0.0883608
0.268294 0.1695 0.0883364
0.268913 0.16942 0.0884215
0.269471 0.169364 0.088397
0.27009 0.169284 0.0884822
0.270648 0.169228 0.0884578
0.271267 0.169148 0.0885429
0.271825 0.169092 0.0885184
0.272383 0.169036 0.088494
0.272941 0.16898 0.0884695
0.273438 0.168949 0.0883355
0.273935 0.168917 0.0882016
0.274433 0.168885 0.0880675
0.27493 0.168854 0.0879335
0.275367 0.168846 0.0876899
0.275803 0.168839 0.0874463
0.276179 0.168855 0.0870931
0.276615 0.168848 0.0868495
0.276991 0.168865 0.0864962
0.277367 0.168882 0.0861429
0.277743 0.168898 0.0857898
0.278119 0.168915 0.0854366
0.278616 0.168883 0.0853025
0.279053 0.168876 0.0850589
0.27955 0.168844 0.0849249
0.280047 0.168813 0.0847909
0.280605 0.168757 0.0847664
0.281163 0.168701 0.084742
0.281722 0.168645 0.0847176
0.282279 0.168589 0.0846932
0.282777 0.168557 0.0845591
0.283274 0.168526 0.0844251
0.283711 0.168518 0.0841814
0.284087 0.168535 0.0838282
0.284462 0.168552 0.0834751
0.284838 0.168569 0.0831219
0.285275 0.168561 0.0828782
0.285651 0.168578 0.082525
0.286087 0.168571 0.0822815
0.286524 0.168563 0.0820378
0.28696 0.168556 0.0817942
0.287336 0.168572 0.0814409
0.287773 0.168565 0.0811973
0.288149 0.168582 0.0808441
0.288585 0.168574 0.0806005
0.289022 0.168567 0.0803569
0.289398 0.168584 0.0800037
0.289834 0.168576 0.0797601
0.29021 0.168593 0.0794069
0.290586 0.16861 0.0790537
0.29084 0.168675 0.0784813
0.291095 0.16874 0.0779089
0.291409 0.168781 0.0774461
0.291725 0.168822 0.0769833
0.292101 0.168839 0.0766301
0.292416 0.16888 0.0761673
0.292792 0.168897 0.0758141
0.293289 0.168865 0.0756801
0.293786 0.168834 0.0755461
0.294344 0.168778 0.0755216
0.294963 0.168698 0.0756067
0.29546 0.168666 0.0754727
0.296018 0.16861 0.0754483
0.296516 0.168578 0.0753143
0.297013 0.168547 0.0751802
0.297449 0.168539 0.0749365
0.297886 0.168532 0.074693
0.298323 0.168524 0.0744493
0.298699 0.168541 0.0740961
0.299074 0.168558 0.073743
0.299389 0.168599 0.0732802
0.299705 0.16864 0.0728173
0.299898 0.16873 0.0721355
0.300213 0.168771 0.0716726
0.300468 0.168836 0.0711003
0.300844 0.168853 0.070747
0.301219 0.168869 0.0703939
0.301717 0.168838 0.0702599
0.302093 0.168855 0.0699066
0.30259 0.168823 0.0697726
0.303209 0.168743 0.0698577
0.304192 0.168517 0.0706004
0.305296 0.168243 0.0715623
0.306158 0.168066 0.0720858
0.307081 0.167865 0.0727189
0.308125 0.167615 0.0735711
0.309025 0.167415 0.0741643
0.310089 0.167143 0.0750529
0.310697 0.167063 0.075118
0.311475 0.166911 0.075492
0.312596 0.166615 0.0764837
0.313375 0.166463 0.0768576
0.314211 0.166288 0.0773345
0.314818 0.166208 0.0773997
0.315426 0.166128 0.077465
0.316034 0.166049 0.0775301
0.316584 0.165993 0.0774923
0.317135 0.165938 0.0774545
0.317742 0.165858 0.0775197
0.318293 0.165802 0.0774819
0.318844 0.165747 0.0774443
0.319394 0.165691 0.0774065
0.319945 0.165636 0.0773688
0.320496 0.16558 0.077331
0.320932 0.165573 0.0770874
0.321426 0.165541 0.0769467
0.321862 0.165534 0.0767031
0.322242 0.165551 0.0763565
0.322565 0.165591 0.075907
0.32283 0.165656 0.0753546
0.32321 0.165673 0.0750081
0.323703 0.165641 0.0748674
0.324197 0.16561 0.0747266
0.32469 0.165578 0.0745861
0.325184 0.165546 0.0744453
0.325678 0.165515 0.0743047
0.326171 0.165484 0.074164
0.326665 0.165452 0.0740233
0.327101 0.165445 0.0737797
0.327538 0.165437 0.073536
0.327975 0.16543 0.0732924
0.328411 0.165422 0.0730488
0.328848 0.165415 0.0728052
0.329284 0.165407 0.0725616
0.329664 0.165424 0.0722151
0.3301 0.165417 0.0719715
0.33048 0.165433 0.0716249
0.330802 0.165474 0.0711754
0.331125 0.165515 0.0707259
0.331561 0.165507 0.0704823
0.332055 0.165476 0.0703415
0.332549 0.165444 0.0702009
0.333042 0.165413 0.0700602
0.333536 0.165381 0.0699195
0.334029 0.16535 0.0697789
0.334466 0.165342 0.0695353
0.334903 0.165335 0.0692917
0.335339 0.165327 0.069048
0.335776 0.16532 0.0688045
0.336213 0.165312 0.0685608
0.336649 0.165305 0.0683172
0.337086 0.165297 0.0680736
0.337522 0.16529 0.06783
0.337959 0.165283 0.0675863
0.338452 0.165251 0.0674457
0.338832 0.165268 0.0670991
0.339268 0.16526 0.0668555
0.339648 0.165277 0.0665089
0.340084 0.165269 0.0662653
0.340464 0.165286 0.0659188
0.340844 0.165303 0.0655722
0.34128 0.165295 0.0653286
0.341603 0.165336 0.0648791
0.341982 0.165353 0.0645326
0.342305 0.165393 0.064083
0.342684 0.16541 0.0637365
0.343007 0.16545 0.0632871
0.343386 0.165467 0.0629405
0.343766 0.165484 0.0625939
0.344088 0.165524 0.0621445
0.344411 0.165565 0.061695
0.344676 0.16563 0.0611426
0.344999 0.16567 0.0606931
0.345322 0.165711 0.0602436
0.345587 0.165776 0.0596912
0.34591 0.165817 0.0592417
0.346118 0.165905 0.0585864
0.346383 0.16597 0.058034
0.346649 0.166035 0.0574815
0.346972 0.166075 0.057032
0.347294 0.166116 0.0565826
0.347673 0.166133 0.056236
0.348053 0.166149 0.0558895
0.348433 0.166166 0.0555429
0.348812 0.166183 0.0551964
0.349192 0.166199 0.0548498
0.349514 0.16624 0.0544004
0.349894 0.166256 0.0540537
0.350216 0.166297 0.0536043
0.350596 0.166314 0.0532577
0.350975 0.16633 0.0529112
0.351298 0.166371 0.0524617
0.351735 0.166364 0.0522181
0.352057 0.166404 0.0517686
0.352436 0.166421 0.051422
0.352759 0.166461 0.0509726
0.353082 0.166502 0.0505231
0.353404 0.166543 0.0500736
0.353669 0.166607 0.0495212
0.353935 0.166672 0.0489687
0.354201 0.166737 0.0484163
0.354402 0.166826 0.0477477
0.354595 0.166916 0.0470657
0.35491 0.166957 0.046603
0.355225 0.166998 0.0461401
0.35548 0.167063 0.0455678
0.355673 0.167152 0.0448858
0.355806 0.167266 0.0440942
0.355878 0.167404 0.0431931
0.35595 0.167542 0.0422919
0.356205 0.167607 0.0417196
0.356581 0.167624 0.0413664
0.356896 0.167665 0.0409035
0.357272 0.167682 0.0405503
0.357587 0.167723 0.0400876
0.357841 0.167788 0.0395152
0.358156 0.167829 0.0390524
0.35835 0.167919 0.0383704
0.358604 0.167984 0.0377981
0.358737 0.168098 0.0370065
0.358991 0.168163 0.0364341
0.359063 0.168301 0.0355329
0.359136 0.168439 0.0346318
0.359208 0.168577 0.0337306
0.359401 0.168666 0.0330487
0.359595 0.168756 0.0323667
0.359789 0.168845 0.0316847
0.359922 0.168959 0.0308932
0.360115 0.169049 0.0302112
0.36037 0.169114 0.0296388
0.360442 0.169252 0.0287376
0.360575 0.169366 0.0279461
0.360707 0.169479 0.0271546
0.360597 0.16969 0.0259247
0.360487 0.169901 0.0246948
0.360438 0.170087 0.0235744
0.36051 0.170225 0.0226732
0.360643 0.170339 0.0218816
0.360593 0.170525 0.0207614
0.360362 0.170784 0.0193123
0.359948 0.171116 0.0175345
0.35996 0.171278 0.0165237
0.359424 0.171659 0.0145267
0.241257 0.175427 0.0740815
0.243273 0.174788 0.0766872
0.244681 0.174392 0.078197
0.245604 0.174191 0.0788301
0.248105 0.173358 0.0823125
0.249271 0.173059 0.083384
0.250072 0.172906 0.0837979
0.250994 0.172704 0.084431
0.251856 0.172527 0.0849546
0.252657 0.172374 0.0853684
0.253458 0.172221 0.0857824
0.254259 0.172067 0.0861963
0.25506 0.171915 0.0866103
0.25574 0.17181 0.086805
0.256541 0.171657 0.0872189
0.257281 0.171528 0.0875232
0.257961 0.171423 0.0877179
0.25864 0.171319 0.0879127
0.259319 0.171214 0.0881074
0.259878 0.171158 0.0880829
0.260496 0.171078 0.0881681
0.261054 0.171022 0.0881437
0.261734 0.170918 0.0883385
0.262353 0.170837 0.0884236
0.262911 0.170781 0.0883991
0.26353 0.170701 0.0884843
0.264148 0.170621 0.0885695
0.264767 0.17054 0.0886546
0.265325 0.170484 0.0886302
0.265883 0.170428 0.0886058
0.266441 0.170372 0.0885812
0.26706 0.170292 0.0886664
0.267618 0.170236 0.088642
0.268176 0.17018 0.0886175
0.268856 0.170076 0.0888124
0.269414 0.17002 0.0887879
0.270033 0.169939 0.088873
0.270591 0.169883 0.0888485
0.271149 0.169827 0.0888241
0.271767 0.169747 0.0889093
0.272326 0.169691 0.0888849
0.272884 0.169635 0.0888604
0.273381 0.169603 0.0887264
0.273878 0.169572 0.0885924
0.274375 0.16954 0.0884583
0.274812 0.169533 0.0882147
0.275309 0.169501 0.0880807
0.275746 0.169493 0.087837
0.276122 0.16951 0.0874838
0.276558 0.169503 0.0872402
0.276934 0.16952 0.0868871
0.27731 0.169536 0.0865339
0.277747 0.169529 0.0862902
0.278122 0.169546 0.085937
0.278498 0.169563 0.0855838
0.278935 0.169555 0.0853402
0.279432 0.169524 0.0852061
0.27993 0.169492 0.0850722
0.280427 0.16946 0.0849381
0.280985 0.169404 0.0849136
0.281543 0.169348 0.0848892
0.282101 0.169292 0.0848648
0.282598 0.16926 0.0847308
0.283156 0.169204 0.0847063
0.283593 0.169197 0.0844627
0.28403 0.169189 0.0842191
0.284405 0.169206 0.0838659
0.284842 0.169199 0.0836223
0.285278 0.169191 0.0833787
0.285715 0.169184 0.083135
0.286212 0.169152 0.083001
0.286588 0.169169 0.0826478
0.287085 0.169137 0.0825137
0.287461 0.169154 0.0821606
0.287898 0.169147 0.0819169
0.288274 0.169164 0.0815638
0.28865 0.16918 0.0812106
0.289086 0.169173 0.0809669
0.289462 0.16919 0.0806137
0.289899 0.169182 0.0803701
0.290274 0.169199 0.0800169
0.29065 0.169216 0.0796637
0.290905 0.169281 0.0790913
0.291159 0.169347 0.0785189
0.291413 0.169412 0.0779465
0.291728 0.169453 0.0774836
0.292104 0.16947 0.0771305
0.29248 0.169487 0.0767773
0.292795 0.169528 0.0763145
0.293171 0.169545 0.0759613
0.293608 0.169538 0.0757177
0.294166 0.169482 0.0756932
0.294724 0.169426 0.0756688
0.295282 0.16937 0.0756444
0.29584 0.169314 0.0756199
0.296398 0.169258 0.0755955
0.296895 0.169226 0.0754615
0.297332 0.169219 0.0752179
0.297829 0.169187 0.0750839
0.298266 0.169179 0.0748403
0.298641 0.169196 0.074487
0.299017 0.169213 0.0741338
0.299393 0.16923 0.0737807
0.299648 0.169295 0.0732083
0.299902 0.16936 0.0726358
0.300217 0.169402 0.072173
0.300471 0.169467 0.0716006
0.300726 0.169532 0.0710283
0.301101 0.169549 0.0706751
0.301599 0.169517 0.0705411
0.302096 0.169486 0.070407
0.302593 0.169454 0.070273
0.303091 0.169422 0.0701389
0.303831 0.169293 0.0704433
0.304936 0.169019 0.0714051
0.305858 0.168817 0.0720382
0.30672 0.16864 0.0725617
0.307582 0.168463 0.0730853
0.308679 0.168188 0.0740337
0.3098 0.167891 0.0750251
0.310464 0.167787 0.075193
0.311072 0.167708 0.0752582
0.312079 0.167459 0.0760437
0.312971 0.167258 0.0766233
0.313807 0.167082 0.0771
0.314529 0.166954 0.077371
0.315136 0.166874 0.077436
0.315744 0.166794 0.0775012
0.316351 0.166714 0.0775664
0.316902 0.166659 0.0775285
0.31751 0.166579 0.0775937
0.31806 0.166523 0.0775558
0.318611 0.166467 0.077518
0.319162 0.166412 0.0774802
0.319655 0.16638 0.0773395
0.320263 0.1663 0.0774046
0.320756 0.166269 0.077264
0.321193 0.166261 0.0770203
0.321687 0.16623 0.0768796
0.322123 0.166222 0.076636
0.322503 0.166239 0.0762895
0.322825 0.16628 0.07584
0.323148 0.166321 0.0753906
0.323584 0.166313 0.0751469
0.324078 0.166281 0.0750063
0.324572 0.16625 0.0748655
0.325065 0.166218 0.0747248
0.325502 0.166211 0.0744813
0.325995 0.166179 0.0743405
0.326432 0.166172 0.0740969
0.326925 0.16614 0.0739562
0.327362 0.166133 0.0737126
0.327799 0.166125 0.073469
0.328235 0.166118 0.0732253
0.328729 0.166086 0.0730846
0.329108 0.166103 0.0727381
0.329545 0.166096 0.0724945
0.329981 0.166088 0.0722509
0.330418 0.166081 0.0720073
0.33074 0.166122 0.0715579
0.331063 0.166162 0.0711084
0.331442 0.166179 0.0707619
0.331936 0.166148 0.0706211
0.33243 0.166116 0.0704804
0.332923 0.166084 0.0703398
0.333417 0.166053 0.070199
0.333854 0.166045 0.0699554
0.334347 0.166014 0.0698147
0.334727 0.166031 0.0694682
0.33522 0.165999 0.0693275
0.335657 0.165991 0.0690839
0.336093 0.165984 0.0688403
0.33653 0.165977 0.0685966
0.336967 0.165969 0.068353
0.337403 0.165962 0.0681094
0.33784 0.165954 0.0678658
0.338276 0.165947 0.0676222
0.338713 0.165939 0.0673785
0.339149 0.165932 0.0671349
0.339586 0.165925 0.0668913
0.339966 0.165941 0.0665448
0.340402 0.165934 0.0663012
0.340782 0.165951 0.0659546
0.341161 0.165967 0.0656081
0.341541 0.165984 0.0652616
0.34192 0.166001 0.0649151
0.342243 0.166041 0.0644656
0.342622 0.166058 0.064119
0.343002 0.166075 0.0637726
0.343382 0.166091 0.063426
0.343704 0.166132 0.0629767
0.344084 0.166149 0.0626301
0.344406 0.16619 0.0621807
0.344729 0.166231 0.0617312
0.344994 0.166296 0.0611788
0.345317 0.166336 0.0607295
0.345639 0.166377 0.06028
0.345905 0.166442 0.0597276
0.346113 0.166531 0.0590724
0.346379 0.166596 0.05852
0.346645 0.166661 0.0579677
0.34691 0.166726 0.0574153
0.347176 0.166791 0.0568631
0.347498 0.166832 0.0564136
0.347878 0.166849 0.0560671
0.348257 0.166865 0.0557205
0.34858 0.166906 0.0552711
0.348959 0.166923 0.0549245
0.349282 0.166964 0.0544751
0.349662 0.16698 0.0541287
0.350041 0.166997 0.0537821
0.350363 0.167038 0.0533327
0.3508 0.16703 0.053089
0.351123 0.167071 0.0526396
0.351502 0.167088 0.052293
0.351939 0.16708 0.0520495
0.352261 0.167121 0.0516
0.352584 0.167162 0.0511506
0.352964 0.167179 0.0508041
0.353286 0.16722 0.0503546
0.353552 0.167285 0.0498023
0.353817 0.16735 0.0492499
0.354026 0.167439 0.0485947
0.354284 0.167504 0.048029
0.354477 0.167594 0.047347
0.354853 0.16761 0.0469938
0.355168 0.167651 0.046531
0.355484 0.167693 0.0460682
0.355677 0.167782 0.0453862
0.355931 0.167848 0.0448139
0.355943 0.16801 0.0438031
0.356015 0.168148 0.0429019
0.356087 0.168287 0.0420008
0.356402 0.168328 0.0415381
0.356778 0.168345 0.0411848
0.357154 0.168361 0.0408316
0.357469 0.168403 0.0403687
0.357784 0.168444 0.039906
0.358099 0.168485 0.0394432
0.358414 0.168526 0.0389804
0.358608 0.168616 0.0382985
0.358802 0.168705 0.0376165
0.358934 0.168819 0.0368249
0.359067 0.168933 0.0360334
0.359261 0.169023 0.0353513
0.359272 0.169185 0.0343406
0.359405 0.169299 0.033549
0.359599 0.169389 0.0328671
0.359792 0.169479 0.0321852
0.359925 0.169592 0.0313935
0.360119 0.169682 0.0307116
0.360373 0.169748 0.0301392
0.360445 0.169886 0.0292381
0.360639 0.169975 0.028556
0.36065 0.170138 0.0275452
0.360844 0.170228 0.0268633
0.360552 0.170511 0.0253047
0.360502 0.170698 0.0241843
0.360453 0.170885 0.023064
0.360647 0.170975 0.022382
0.360779 0.171089 0.0215904
0.360669 0.1713 0.0203606
0.360438 0.171559 0.0189115
0.360024 0.171892 0.0171336
0.359914 0.172103 0.0159036
0.359257 0.172532 0.0136874
0.355078 0.17437 0.00511503
0.243155 0.175476 0.0769683
0.244138 0.17525 0.077711
0.245304 0.17495 0.0787825
0.245983 0.174846 0.0789772
0.249031 0.173792 0.083446
0.249772 0.173663 0.0837503
0.250816 0.173413 0.0846026
0.251678 0.173235 0.0851261
0.252479 0.173082 0.08554
0.25328 0.172928 0.0859539
0.254081 0.172775 0.0863678
0.254882 0.172622 0.0867818
0.255622 0.172493 0.0870861
0.256362 0.172364 0.0873905
0.257102 0.172235 0.0876948
0.257843 0.172105 0.0879991
0.258522 0.172001 0.0881939
0.259202 0.171896 0.0883886
0.25982 0.171816 0.0884738
0.260439 0.171735 0.0885589
0.260997 0.171679 0.0885345
0.261677 0.171574 0.0887292
0.262235 0.171518 0.0887048
0.262854 0.171438 0.0887899
0.263473 0.171358 0.0888751
0.264091 0.171277 0.0889603
0.264589 0.171245 0.0888262
0.265207 0.171165 0.0889114
0.265826 0.171084 0.0889966
0.266384 0.171028 0.0889721
0.266942 0.170972 0.0889476
0.2675 0.170916 0.0889232
0.268119 0.170836 0.0890084
0.268738 0.170755 0.0890936
0.269357 0.170675 0.0891787
0.269915 0.170619 0.0891543
0.270534 0.170538 0.0892394
0.271092 0.170483 0.089215
0.27165 0.170426 0.0891905
0.272208 0.17037 0.0891661
0.272766 0.170314 0.0891417
0.273324 0.170258 0.0891172
0.273821 0.170226 0.0889832
0.274318 0.170195 0.0888492
0.274755 0.170187 0.0886056
0.275252 0.170155 0.0884715
0.275628 0.170172 0.0881183
0.276065 0.170165 0.0878747
0.276501 0.170157 0.0876311
0.276938 0.17015 0.0873875
0.277314 0.170167 0.0870342
0.277689 0.170184 0.0866811
0.278126 0.170176 0.0864374
0.278502 0.170193 0.0860843
0.278878 0.17021 0.085731
0.279314 0.170203 0.0854874
0.279812 0.170171 0.0853534
0.280309 0.170139 0.0852194
0.280806 0.170107 0.0850853
0.281304 0.170076 0.0849513
0.281922 0.169995 0.0850365
0.28242 0.169964 0.0849024
0.282978 0.169907 0.0848779
0.283475 0.169876 0.084744
0.283912 0.169868 0.0845003
0.284348 0.169861 0.0842568
0.284845 0.169829 0.0841227
0.285282 0.169821 0.0838791
0.285719 0.169814 0.0836355
0.286155 0.169807 0.0833918
0.286592 0.169799 0.0831482
0.287028 0.169792 0.0829046
0.287465 0.169784 0.082661
0.287902 0.169777 0.0824174
0.288338 0.169769 0.0821737
0.288714 0.169786 0.0818206
0.28909 0.169803 0.0814673
0.289466 0.16982 0.0811142
0.289902 0.169813 0.0808705
0.290278 0.16983 0.0805173
0.290593 0.169871 0.0800546
0.290908 0.169912 0.0795917
0.291163 0.169977 0.0790194
0.291417 0.170043 0.0784469
0.291732 0.170084 0.0779841
0.292108 0.170101 0.0776309
0.292544 0.170094 0.0773873
0.29286 0.170135 0.0769245
0.293114 0.1702 0.0763521
0.29349 0.170217 0.075999
0.293987 0.170185 0.0758649
0.294545 0.170129 0.0758405
0.295164 0.170049 0.0759256
0.295722 0.169993 0.0759012
0.296219 0.169961 0.0757671
0.296717 0.169929 0.0756332
0.297214 0.169898 0.0754991
0.297711 0.169866 0.0753651
0.298148 0.169858 0.0751215
0.298524 0.169875 0.0747683
0.29896 0.169868 0.0745246
0.299275 0.169909 0.0740619
0.299651 0.169926 0.0737086
0.299906 0.169991 0.0731363
0.300221 0.170032 0.0726734
0.300536 0.170074 0.0722107
0.30079 0.170139 0.0716383
0.301105 0.17018 0.0711755
0.301542 0.170173 0.0709318
0.302039 0.170141 0.0707978
0.302536 0.17011 0.0706638
0.303034 0.170078 0.0705297
0.303652 0.169997 0.0706149
0.304454 0.169844 0.0710288
0.305376 0.169642 0.071662
0.306298 0.16944 0.072295
0.30716 0.169262 0.0728186
0.308326 0.168963 0.0738901
0.30934 0.168713 0.0746886
0.310175 0.168536 0.0751653
0.310783 0.168456 0.0752303
0.311618 0.168279 0.0757069
0.312511 0.168078 0.0762863
0.313461 0.167853 0.0769687
0.314125 0.167749 0.0771366
0.314847 0.16762 0.0774074
0.315454 0.16754 0.0774724
0.316062 0.16746 0.0775375
0.316669 0.16738 0.0776026
0.317277 0.1673 0.0776675
0.317827 0.167244 0.0776298
0.318378 0.167188 0.0775919
0.318872 0.167156 0.0774511
0.319422 0.167101 0.0774133
0.319973 0.167045 0.0773755
0.320523 0.166989 0.0773376
0.321017 0.166957 0.0771969
0.321454 0.16695 0.0769533
0.321947 0.166918 0.0768125
0.322327 0.166935 0.076466
0.322706 0.166952 0.0761196
0.323086 0.166968 0.0757731
0.323466 0.166985 0.0754265
0.323959 0.166953 0.0752858
0.324453 0.166922 0.0751451
0.324946 0.16689 0.0750043
0.325383 0.166883 0.0747607
0.325876 0.166851 0.07462
0.326256 0.166868 0.0742735
0.326749 0.166836 0.0741327
0.327186 0.166829 0.0738891
0.327623 0.166821 0.0736455
0.328059 0.166814 0.0734019
0.328496 0.166806 0.0731582
0.328989 0.166775 0.0730175
0.329426 0.166767 0.0727739
0.329862 0.16676 0.0725303
0.330242 0.166777 0.0721838
0.330622 0.166793 0.0718373
0.330944 0.166834 0.0713879
0.331381 0.166827 0.0711443
0.331817 0.166819 0.0709008
0.332311 0.166788 0.07076
0.332805 0.166756 0.0706192
0.333241 0.166749 0.0703756
0.333678 0.166741 0.070132
0.334114 0.166734 0.0698884
0.334551 0.166726 0.0696447
0.334987 0.166719 0.0694011
0.335481 0.166687 0.0692604
0.335917 0.16668 0.0690168
0.336354 0.166673 0.0687731
0.336791 0.166665 0.0685296
0.337227 0.166658 0.0682859
0.337664 0.16665 0.0680423
0.3381 0.166643 0.0677987
0.338537 0.166635 0.0675551
0.338973 0.166628 0.0673115
0.33941 0.16662 0.0670678
0.33979 0.166637 0.0667213
0.340226 0.16663 0.0664777
0.340663 0.166622 0.0662341
0.341043 0.166639 0.0658876
0.341422 0.166656 0.0655411
0.341802 0.166673 0.0651946
0.342181 0.166689 0.0648481
0.342561 0.166706 0.0645015
0.34294 0.166723 0.0641551
0.343263 0.166764 0.0637057
0.343642 0.166781 0.0633592
0.344022 0.166798 0.0630127
0.344345 0.166838 0.0625633
0.344667 0.166879 0.0621139
0.34499 0.16692 0.0616645
0.345255 0.166986 0.0611123
0.345635 0.167002 0.0607658
0.3459 0.167067 0.0602135
0.346166 0.167133 0.0596612
0.346432 0.167198 0.059109
0.346697 0.167263 0.0585567
0.346963 0.167328 0.0580044
0.347171 0.167418 0.0573493
0.347437 0.167483 0.0567969
0.347759 0.167524 0.0563476
0.348139 0.16754 0.0560011
0.348462 0.167582 0.0555517
0.348784 0.167623 0.0551023
0.349107 0.167664 0.0546529
0.349429 0.167705 0.0542036
0.349809 0.167721 0.053857
0.350188 0.167738 0.0535106
0.350568 0.167755 0.0531641
0.350948 0.167772 0.0528175
0.351327 0.167788 0.052471
0.351707 0.167805 0.0521245
0.352086 0.167822 0.051778
0.352466 0.167839 0.0514315
0.352731 0.167904 0.0508793
0.353111 0.167921 0.0505327
0.353377 0.167986 0.0499805
0.353585 0.168075 0.0493254
0.353851 0.16814 0.0487731
0.354166 0.168182 0.0483103
0.354481 0.168223 0.0478474
0.354796 0.168264 0.0473847
0.355172 0.168281 0.0470314
0.355426 0.168346 0.0464591
0.355742 0.168388 0.0459962
0.355874 0.168502 0.0452047
0.355947 0.16864 0.0443036
0.35614 0.16873 0.0436216
0.35603 0.168941 0.0423916
0.356345 0.168983 0.0419288
0.35666 0.169024 0.0414661
0.357036 0.169041 0.0411128
0.357412 0.169058 0.0407596
0.357788 0.169075 0.0404064
0.358103 0.169116 0.0399437
0.358357 0.169181 0.0393712
0.358611 0.169247 0.0387988
0.358866 0.169312 0.0382264
0.358999 0.169426 0.0374349
0.359132 0.169541 0.0366434
0.359265 0.169655 0.0358518
0.359458 0.169745 0.0351698
0.359409 0.169932 0.0340495
0.359602 0.170022 0.0333674
0.359796 0.170111 0.0326855
0.359929 0.170226 0.0318939
0.360062 0.17034 0.0311024
0.360316 0.170405 0.03053
0.36051 0.170495 0.029848
0.360582 0.170634 0.0289468
0.360715 0.170748 0.0281553
0.360787 0.170886 0.0272542
0.360798 0.171049 0.0262434
0.36081 0.171212 0.0252326
0.360457 0.171521 0.0235644
0.36065 0.17161 0.0228824
0.360844 0.1717 0.0222004
0.360916 0.171839 0.0212992
0.360624 0.172123 0.0197405
0.360331 0.172407 0.0181819
0.360039 0.172692 0.0166231
0.359383 0.173122 0.0144069
0.242977 0.176188 0.0771399
0.243595 0.176108 0.077225
0.245004 0.17571 0.0787348
0.246351 0.175337 0.080135
0.248792 0.174526 0.0835079
0.249533 0.174397 0.0838123
0.250577 0.174146 0.0846646
0.251499 0.173943 0.0852977
0.2523 0.17379 0.0857116
0.253162 0.173612 0.0862351
0.253841 0.173507 0.0864298
0.254642 0.173353 0.0868438
0.255504 0.173175 0.0873673
0.256244 0.173046 0.0876717
0.256924 0.172941 0.0878664
0.257725 0.172787 0.0882803
0.258344 0.172707 0.0883655
0.259084 0.172578 0.0886698
0.259703 0.172497 0.088755
0.260322 0.172416 0.0888401
0.26094 0.172336 0.0889253
0.261559 0.172256 0.0890105
0.262178 0.172175 0.0890956
0.262797 0.172094 0.0891807
0.263355 0.172038 0.0891563
0.263913 0.171982 0.0891319
0.264532 0.171901 0.0892171
0.26515 0.171821 0.0893022
0.265708 0.171765 0.0892778
0.266267 0.171709 0.0892533
0.266824 0.171653 0.0892289
0.267443 0.171572 0.089314
0.268062 0.171491 0.0893992
0.26862 0.171435 0.0893747
0.269239 0.171355 0.0894599
0.269797 0.171299 0.0894355
0.270416 0.171218 0.0895207
0.270974 0.171162 0.0894962
0.271593 0.171081 0.0895814
0.272151 0.171025 0.0895569
0.272648 0.170993 0.0894229
0.273206 0.170937 0.0893984
0.273764 0.170881 0.089374
0.274201 0.170874 0.0891304
0.274698 0.170842 0.0889964
0.275135 0.170834 0.0887528
0.275571 0.170827 0.0885092
0.276068 0.170795 0.0883751
0.276505 0.170788 0.0881315
0.276881 0.170804 0.0877783
0.277317 0.170797 0.0875347
0.277693 0.170814 0.0871815
0.27813 0.170807 0.0869379
0.278506 0.170824 0.0865846
0.278942 0.170816 0.0863409
0.279318 0.170833 0.0859878
0.279755 0.170825 0.0857442
0.280191 0.170818 0.0855006
0.280688 0.170786 0.0853665
0.281186 0.170755 0.0852326
0.281683 0.170723 0.0850986
0.282241 0.170667 0.0850741
0.282799 0.17061 0.0850497
0.283297 0.170579 0.0849156
0.283794 0.170547 0.0847816
0.284291 0.170515 0.0846475
0.284728 0.170508 0.0844039
0.285225 0.170476 0.0842699
0.285662 0.170468 0.0840263
0.286159 0.170436 0.0838922
0.286596 0.170429 0.0836486
0.287032 0.170422 0.083405
0.287408 0.170439 0.0830519
0.287845 0.170431 0.0828082
0.288281 0.170424 0.0825646
0.288718 0.170416 0.082321
0.289093 0.170433 0.0819678
0.289469 0.17045 0.0816146
0.289845 0.170467 0.0812613
0.290221 0.170484 0.0809082
0.290536 0.170525 0.0804454
0.290851 0.170566 0.0799825
0.291166 0.170608 0.0795197
0.291421 0.170673 0.0789474
0.291736 0.170715 0.0784846
0.292111 0.170732 0.0781314
0.292487 0.170749 0.0777782
0.292802 0.17079 0.0773154
0.293118 0.170831 0.0768526
0.293372 0.170897 0.0762802
0.293808 0.170889 0.0760366
0.294367 0.170833 0.0760121
0.294925 0.170777 0.0759877
0.295544 0.170696 0.0760728
0.296041 0.170665 0.0759389
0.296599 0.170608 0.0759143
0.297096 0.170577 0.0757804
0.297533 0.170569 0.0755367
0.29803 0.170538 0.0754027
0.298467 0.17053 0.0751591
0.298842 0.170547 0.0748059
0.299218 0.170564 0.0744526
0.299533 0.170605 0.0739899
0.299848 0.170646 0.073527
0.300103 0.170712 0.0729547
0.300479 0.170729 0.0726014
0.300794 0.17077 0.0721387
0.301109 0.170812 0.0716759
0.301485 0.170828 0.0713227
0.301921 0.170821 0.0710791
0.302479 0.170765 0.0710546
0.303038 0.170709 0.0710302
0.303596 0.170652 0.0710057
0.304214 0.170572 0.0710909
0.304955 0.170443 0.0713952
0.305877 0.170241 0.0720283
0.306739 0.170062 0.0725519
0.307783 0.169811 0.0734041
0.30888 0.169536 0.0743525
0.309829 0.16931 0.0750347
0.310494 0.169205 0.0752025
0.311158 0.169101 0.0753704
0.312051 0.168899 0.0759496
0.312943 0.168697 0.076529
0.313779 0.16852 0.0770054
0.314443 0.168415 0.0771731
0.315108 0.168311 0.077341
0.315772 0.168206 0.0775088
0.31638 0.168126 0.0775738
0.316987 0.168046 0.0776387
0.317538 0.167989 0.0776008
0.318088 0.167933 0.077563
0.318639 0.167877 0.077525
0.319189 0.167821 0.0774872
0.319683 0.16779 0.0773465
0.320234 0.167734 0.0773085
0.320727 0.167702 0.0771678
0.321221 0.16767 0.077027
0.321657 0.167663 0.0767834
0.322151 0.167631 0.0766426
0.322587 0.167623 0.076399
0.322967 0.16764 0.0760525
0.323403 0.167633 0.075809
0.32384 0.167626 0.0755653
0.324334 0.167594 0.0754245
0.32477 0.167586 0.0751809
0.325264 0.167554 0.0750403
0.325701 0.167547 0.0747966
0.326137 0.16754 0.074553
0.326516 0.167556 0.0742064
0.326953 0.167549 0.0739628
0.32739 0.167542 0.0737192
0.327826 0.167534 0.0734756
0.32832 0.167502 0.073335
0.328756 0.167495 0.0730913
0.32925 0.167463 0.0729505
0.329687 0.167456 0.0727069
0.330123 0.167448 0.0724632
0.330503 0.167465 0.0721168
0.330825 0.167506 0.0716674
0.331262 0.167499 0.0714238
0.331698 0.167491 0.0711803
0.332192 0.16746 0.0710394
0.332686 0.167428 0.0708988
0.333122 0.167421 0.0706551
0.333559 0.167413 0.0704115
0.333995 0.167406 0.0701679
0.334375 0.167422 0.0698213
0.334811 0.167415 0.0695777
0.335248 0.167408 0.0693341
0.335685 0.1674 0.0690905
0.336121 0.167393 0.0688469
0.336558 0.167385 0.0686033
0.336994 0.167378 0.0683596
0.337431 0.16737 0.068116
0.337924 0.167339 0.0679753
0.338361 0.167331 0.0677317
0.338798 0.167324 0.0674881
0.339234 0.167316 0.0672445
0.339671 0.167309 0.0670009
0.34005 0.167326 0.0666543
0.340487 0.167318 0.0664107
0.340867 0.167335 0.0660642
0.341303 0.167328 0.0658206
0.341683 0.167345 0.0654742
0.342062 0.167361 0.0651276
0.342442 0.167378 0.0647812
0.342821 0.167395 0.0644347
0.343201 0.167412 0.0640882
0.343524 0.167453 0.0636389
0.343903 0.16747 0.0632925
0.344226 0.167511 0.0628431
0.344605 0.167528 0.0624966
0.344928 0.167569 0.0620472
0.345251 0.16761 0.0615979
0.345516 0.167676 0.0610458
0.345896 0.167693 0.0606993
0.346161 0.167758 0.0601471
0.346484 0.167799 0.0596977
0.34675 0.167865 0.0591455
0.347015 0.16793 0.0585933
0.347167 0.168044 0.0578354
0.347433 0.168109 0.0572832
0.347698 0.168175 0.0567309
0.348021 0.168216 0.0562817
0.348286 0.168281 0.0557295
0.348609 0.168323 0.0552801
0.348931 0.168364 0.0548309
0.349197 0.168429 0.0542785
0.349577 0.168446 0.0539321
0.349956 0.168463 0.0535856
0.350336 0.16848 0.0532391
0.350716 0.168496 0.0528927
0.351095 0.168513 0.0525462
0.351475 0.16853 0.0521997
0.351854 0.168547 0.0518532
0.352234 0.168564 0.0515068
0.352557 0.168605 0.0510574
0.352879 0.168646 0.0506081
0.353145 0.168711 0.0500558
0.353467 0.168753 0.0496065
0.35379 0.168794 0.0491572
0.354109 0.168835 0.0487012
0.354424 0.168876 0.0482383
0.3548 0.168893 0.0478851
0.355115 0.168935 0.0474223
0.35543 0.168976 0.0469595
0.355684 0.169041 0.0463871
0.355878 0.169131 0.0457052
0.356011 0.169246 0.0449135
0.356022 0.169409 0.0439029
0.356216 0.169499 0.0432208
0.356288 0.169638 0.0423197
0.356603 0.169679 0.0418568
0.356918 0.16972 0.0413941
0.357355 0.169713 0.0411504
0.357731 0.16973 0.0407973
0.358106 0.169747 0.040444
0.358422 0.169788 0.0399812
0.358676 0.169854 0.0394089
0.35893 0.169919 0.0388365
0.359124 0.170009 0.0381545
0.359196 0.170148 0.0372533
0.359329 0.170262 0.0364617
0.359462 0.170377 0.0356701
0.359595 0.170491 0.0348786
0.359606 0.170654 0.0338678
0.3598 0.170744 0.0331858
0.359933 0.170859 0.0323943
0.360065 0.170973 0.0316028
0.36032 0.171039 0.0310303
0.360513 0.171129 0.0303484
0.360525 0.171292 0.0293376
0.360779 0.171357 0.0287652
0.360851 0.171496 0.027864
0.360984 0.171611 0.0270725
0.360935 0.171798 0.0259521
0.360703 0.172058 0.0245031
0.360593 0.17227 0.0232731
0.360908 0.172312 0.0228103
0.36092 0.172475 0.0217995
0.36081 0.172687 0.0205696
0.360457 0.172996 0.0189012
0.360225 0.173257 0.0174522
0.359811 0.17359 0.0156743
0.355279 0.175744 0.00543348
0.243295 0.176868 0.0771773
0.246162 0.175885 0.0813173
0.24672 0.175828 0.0812929
0.248432 0.175309 0.0833507
0.249293 0.17513 0.0838743
0.250337 0.174879 0.0847266
0.251138 0.174725 0.0851405
0.252061 0.174522 0.0857735
0.252862 0.174368 0.0861875
0.253724 0.17419 0.086711
0.254464 0.174061 0.0870154
0.255204 0.173931 0.0873197
0.256005 0.173777 0.0877337
0.256745 0.173648 0.0880379
0.257546 0.173494 0.0884519
0.258226 0.173389 0.0886467
0.258905 0.173284 0.0888415
0.259585 0.173179 0.0890362
0.260204 0.173098 0.0891213
0.260822 0.173017 0.0892065
0.261502 0.172912 0.0894013
0.262121 0.172832 0.0894863
0.262679 0.172775 0.089462
0.263298 0.172695 0.0895471
0.263856 0.172638 0.0895227
0.264475 0.172558 0.0896078
0.265033 0.172501 0.0895834
0.265591 0.172445 0.089559
0.266149 0.172389 0.0895346
0.266767 0.172308 0.0896197
0.267326 0.172252 0.0895953
0.267944 0.172171 0.0896804
0.268502 0.172115 0.0896559
0.269121 0.172034 0.0897411
0.269679 0.171978 0.0897167
0.270298 0.171897 0.0898019
0.270856 0.171841 0.0897775
0.271475 0.171761 0.0898626
0.272033 0.171704 0.0898382
0.272591 0.171648 0.0898137
0.273088 0.171616 0.0896797
0.273646 0.17156 0.0896553
0.274143 0.171528 0.0895212
0.274641 0.171496 0.0893872
0.275078 0.171489 0.0891436
0.275514 0.171481 0.0889
0.276011 0.17145 0.088766
0.276448 0.171442 0.0885224
0.276884 0.171435 0.0882788
0.277321 0.171427 0.0880351
0.277758 0.17142 0.0877915
0.278194 0.171412 0.0875479
0.27857 0.171429 0.0871947
0.278946 0.171446 0.0868414
0.279383 0.171439 0.0865978
0.279758 0.171456 0.0862447
0.280195 0.171448 0.086001
0.280631 0.171441 0.0857574
0.281129 0.171409 0.0856234
0.281565 0.171402 0.0853798
0.282063 0.17137 0.0852458
0.282621 0.171314 0.0852213
0.283118 0.171282 0.0850873
0.283615 0.17125 0.0849532
0.284113 0.171218 0.0848192
0.28461 0.171186 0.0846852
0.285107 0.171154 0.0845512
0.285544 0.171147 0.0843075
0.28598 0.171139 0.0840639
0.286478 0.171108 0.0839299
0.286914 0.1711 0.0836863
0.287351 0.171093 0.0834427
0.287727 0.17111 0.0830894
0.288224 0.171078 0.0829555
0.288661 0.17107 0.0827118
0.289037 0.171087 0.0823585
0.289412 0.171104 0.0820054
0.289788 0.171121 0.0816522
0.290164 0.171138 0.081299
0.290479 0.17118 0.0808362
0.290794 0.171221 0.0803734
0.29117 0.171238 0.0800202
0.291424 0.171304 0.0794478
0.291739 0.171345 0.078985
0.292115 0.171362 0.0786317
0.29243 0.171403 0.078169
0.292745 0.171445 0.0777062
0.29306 0.171486 0.0772434
0.293376 0.171528 0.0767806
0.293691 0.171569 0.0763178
0.294188 0.171537 0.0761837
0.294746 0.171481 0.0761593
0.295304 0.171425 0.0761349
0.295862 0.171368 0.0761104
0.29642 0.171312 0.076086
0.296917 0.17128 0.075952
0.297415 0.171248 0.075818
0.297912 0.171216 0.075684
0.298349 0.171209 0.0754404
0.298725 0.171226 0.0750871
0.2991 0.171243 0.0747339
0.299416 0.171284 0.0742711
0.29967 0.17135 0.0736987
0.299985 0.171391 0.073236
0.300361 0.171409 0.0728827
0.300737 0.171426 0.0725295
0.301052 0.171467 0.0720667
0.301488 0.171459 0.0718231
0.301925 0.171452 0.0715795
0.302422 0.17142 0.0714454
0.30292 0.171388 0.0713114
0.303538 0.171308 0.0713965
0.304157 0.171227 0.0714817
0.304776 0.171146 0.0715668
0.305516 0.171017 0.0718712
0.306196 0.170912 0.072066
0.307118 0.170709 0.072699
0.308223 0.170433 0.0736609
0.309256 0.170182 0.074493
0.310205 0.169955 0.075175
0.310812 0.169875 0.0752398
0.311761 0.169648 0.0759218
0.312483 0.169518 0.0761924
0.313319 0.16934 0.0766685
0.314097 0.169187 0.077042
0.314704 0.169106 0.0771069
0.315369 0.169001 0.0772747
0.316033 0.168896 0.0774424
0.316641 0.168816 0.0775073
0.317191 0.16876 0.0774693
0.317799 0.168679 0.0775343
0.318349 0.168623 0.0774963
0.3189 0.168567 0.0774584
0.319393 0.168535 0.0773176
0.319944 0.168479 0.0772796
0.320437 0.168447 0.0771388
0.320931 0.168415 0.076998
0.321424 0.168383 0.0768573
0.321861 0.168376 0.0766136
0.322355 0.168344 0.0764729
0.322791 0.168337 0.0762293
0.323228 0.168329 0.0759856
0.323664 0.168322 0.075742
0.324158 0.16829 0.0756012
0.324594 0.168282 0.0753576
0.325031 0.168275 0.075114
0.325524 0.168243 0.0749732
0.326018 0.168212 0.0748325
0.326398 0.168228 0.074486
0.326777 0.168245 0.0741396
0.327157 0.168262 0.0737931
0.327593 0.168255 0.0735495
0.328087 0.168223 0.0734087
0.32858 0.168191 0.0732679
0.329074 0.168159 0.0731271
0.329568 0.168128 0.0729863
0.329947 0.168145 0.0726399
0.330384 0.168137 0.0723963
0.330763 0.168154 0.0720498
0.3312 0.168147 0.0718062
0.331637 0.168139 0.0715626
0.332073 0.168132 0.071319
0.33251 0.168124 0.0710753
0.332946 0.168117 0.0708317
0.333383 0.168109 0.0705881
0.333819 0.168102 0.0703445
0.334199 0.168119 0.0699981
0.334636 0.168111 0.0697544
0.335072 0.168104 0.0695108
0.335509 0.168096 0.0692672
0.335888 0.168113 0.0689207
0.336325 0.168106 0.0686771
0.336761 0.168099 0.0684335
0.337198 0.168091 0.0681899
0.337692 0.168059 0.0680491
0.338128 0.168052 0.0678055
0.338508 0.168069 0.067459
0.338944 0.168061 0.0672154
0.339438 0.16803 0.0670746
0.339874 0.168022 0.066831
0.340311 0.168015 0.0665874
0.340691 0.168031 0.066241
0.341127 0.168024 0.0659973
0.341507 0.168041 0.0656509
0.341886 0.168058 0.0653044
0.342266 0.168075 0.064958
0.342646 0.168092 0.0646115
0.343025 0.168109 0.0642651
0.343405 0.168126 0.0639186
0.343784 0.168143 0.0635722
0.344164 0.168159 0.0632257
0.344487 0.168201 0.0627764
0.344809 0.168242 0.0623271
0.345132 0.168283 0.0618778
0.345455 0.168325 0.0614286
0.345834 0.168342 0.0610821
0.346157 0.168383 0.0606328
0.346479 0.168424 0.0601835
0.346745 0.16849 0.0596314
0.347011 0.168556 0.0590793
0.347277 0.168621 0.0585271
0.347485 0.168711 0.0578722
0.347637 0.168826 0.0571143
0.347959 0.168867 0.056665
0.348225 0.168933 0.0561129
0.348548 0.168974 0.0556636
0.348813 0.169039 0.0551115
0.349079 0.169105 0.0545593
0.349402 0.169147 0.05411
0.349724 0.169188 0.0536608
0.350047 0.169229 0.0532115
0.350427 0.169246 0.052865
0.35092 0.169214 0.0527243
0.3513 0.169231 0.0523777
0.351623 0.169272 0.0519285
0.352059 0.169265 0.0516849
0.352382 0.169306 0.0512356
0.352704 0.169348 0.0507863
0.353027 0.169389 0.050337
0.353406 0.169406 0.0499905
0.353729 0.169447 0.0495413
0.354052 0.169488 0.0490919
0.354428 0.169505 0.0487388
0.354743 0.169547 0.0482759
0.355058 0.169588 0.0478131
0.355373 0.169629 0.0473503
0.355627 0.169695 0.0467779
0.355882 0.169761 0.0462056
0.355954 0.1699 0.0453044
0.356026 0.170039 0.0444033
0.356159 0.170154 0.0436117
0.356292 0.170268 0.04282
0.356546 0.170334 0.0422477
0.356861 0.170375 0.0417849
0.357298 0.170368 0.0415413
0.357674 0.170385 0.0411881
0.35805 0.170402 0.0408349
0.358425 0.170419 0.0404817
0.35874 0.17046 0.0400189
0.358995 0.170526 0.0394465
0.359188 0.170616 0.0387644
0.359382 0.170706 0.0380826
0.359515 0.170821 0.0372909
0.359587 0.17096 0.0363897
0.35972 0.171075 0.0355982
0.359731 0.171238 0.0345874
0.359864 0.171353 0.0337959
0.359997 0.171467 0.0330043
0.36013 0.171582 0.0322128
0.360263 0.171696 0.0314212
0.360457 0.171786 0.0307391
0.360529 0.171925 0.029838
0.360722 0.172016 0.029156
0.360855 0.17213 0.0283644
0.360988 0.172245 0.0275728
0.360999 0.172408 0.0265621
0.36095 0.172596 0.0254417
0.360597 0.172906 0.0237734
0.360851 0.172972 0.023201
0.360984 0.173086 0.0224094
0.360996 0.17325 0.0213987
0.360642 0.173559 0.0197305
0.360472 0.173796 0.0183909
0.36024 0.174057 0.0169417
0.359341 0.174587 0.0142872
0.246165 0.176522 0.0818176
0.246784 0.176441 0.0819028
0.24716 0.176458 0.0815496
0.248933 0.175913 0.083717
0.249855 0.17571 0.0843502
0.250778 0.175507 0.0849832
0.251821 0.175255 0.0858356
0.252623 0.175101 0.0862495
0.253424 0.174947 0.0866634
0.254225 0.174792 0.0870774
0.254965 0.174663 0.0873818
0.255766 0.174509 0.0877956
0.256567 0.174354 0.0882096
0.257307 0.174225 0.0885139
0.258047 0.174095 0.0888183
0.258727 0.17399 0.089013
0.259406 0.173885 0.0892078
0.260086 0.173779 0.0894026
0.260705 0.173698 0.0894877
0.261384 0.173593 0.0896825
0.262003 0.173512 0.0897676
0.262561 0.173456 0.0897432
0.263119 0.1734 0.0897187
0.263738 0.173319 0.0898039
0.264357 0.173238 0.089889
0.264915 0.173182 0.0898646
0.265534 0.173101 0.0899498
0.266092 0.173045 0.0899254
0.26671 0.172964 0.0900106
0.267208 0.172932 0.0898765
0.267827 0.172851 0.0899617
0.268324 0.172819 0.0898276
0.268942 0.172739 0.0899128
0.269561 0.172658 0.0899979
