ply
format ascii 1.0
element vertex 1726
property float x
property float y
property float z
end_header
0.296594 0.143582 0.0596611
0.296906 0.143621 0.0591962
0.297218 0.14366 0.0587313
0.297591 0.143678 0.0583756
0.297964 0.143695 0.0580199
0.298338 0.143713 0.0576642
0.298773 0.143708 0.0574176
0.299331 0.14366 0.0573894
0.299889 0.143611 0.0573612
0.300509 0.143541 0.0574422
0.301191 0.143449 0.0576323
0.302119 0.143269 0.0582592
0.302862 0.143154 0.0585584
0.303667 0.143018 0.0589669
0.304533 0.14286 0.0594846
0.305277 0.142746 0.059784
0.306082 0.14261 0.0601924
0.306886 0.142473 0.0606009
0.307692 0.142337 0.0610093
0.308558 0.142179 0.0615271
0.309301 0.142065 0.0618264
0.310106 0.141929 0.0622349
0.310849 0.141814 0.0625342
0.311654 0.141678 0.0629427
0.312398 0.141564 0.063242
0.313066 0.141478 0.0634094
0.313735 0.141391 0.0635769
0.314404 0.141305 0.0637442
0.315073 0.141219 0.0639117
0.315742 0.141133 0.064079
0.316352 0.141067 0.064143
0.316904 0.141021 0.0641034
0.317397 0.140996 0.0639603
0.31789 0.140971 0.0638173
0.318325 0.140967 0.0635707
0.31876 0.140962 0.0633242
0.319195 0.140958 0.0630777
0.319747 0.140912 0.0630381
0.320299 0.140867 0.0629985
0.32091 0.140801 0.0630625
0.321461 0.140756 0.0630229
0.322071 0.14069 0.0630869
0.322623 0.140644 0.0630473
0.323117 0.14062 0.0629042
0.32361 0.140595 0.0627611
0.324045 0.14059 0.0625146
0.324539 0.140565 0.0623716
0.325091 0.14052 0.0623319
0.325642 0.140474 0.0622924
0.326077 0.14047 0.0620458
0.326571 0.140445 0.0619028
0.327006 0.14044 0.0616563
0.327441 0.140436 0.0614096
0.327817 0.140452 0.0610596
0.328194 0.140468 0.0607095
0.328629 0.140463 0.060463
0.329064 0.140459 0.0602164
0.329557 0.140434 0.0600734
0.33005 0.140409 0.0599304
0.330544 0.140384 0.0597873
0.331096 0.140339 0.0597477
0.331531 0.140334 0.0595011
0.332024 0.140309 0.0593581
0.332518 0.140284 0.0592151
0.332953 0.14028 0.0589686
0.333388 0.140275 0.058722
0.333706 0.140312 0.0582684
0.334024 0.140348 0.0578148
0.334342 0.140385 0.0573613
0.334718 0.140401 0.0570112
0.335036 0.140437 0.0565577
0.335413 0.140453 0.0562077
0.335848 0.140448 0.0559612
0.336224 0.140464 0.0556111
0.336659 0.14046 0.0553645
0.337094 0.140456 0.055118
0.337471 0.140471 0.0547679
0.337847 0.140487 0.0544179
0.338282 0.140483 0.0541714
0.338659 0.140499 0.0538213
0.339094 0.140494 0.0535747
0.33947 0.14051 0.0532247
0.339905 0.140506 0.0529782
0.340282 0.140522 0.0526281
0.340717 0.140517 0.0523816
0.341093 0.140533 0.0520315
0.34147 0.140549 0.0516815
0.341729 0.140606 0.0511245
0.341989 0.140663 0.0505674
0.342307 0.140699 0.0501138
0.342508 0.140777 0.0494534
0.342709 0.140854 0.0487928
0.34291 0.140931 0.0481323
0.34317 0.140988 0.0475753
0.343371 0.141065 0.0469148
0.343748 0.141081 0.0465646
0.344066 0.141118 0.0461112
0.344442 0.141134 0.0457611
0.344877 0.141129 0.0455145
0.345312 0.141125 0.045268
0.345689 0.141141 0.044918
0.346065 0.141157 0.0445679
0.3465 0.141152 0.0443214
0.346818 0.141189 0.0438679
0.347071 0.141249 0.0432994
0.347321 0.14131 0.0427254
0.347633 0.141349 0.0422605
0.347821 0.141433 0.0415772
0.348009 0.141516 0.040894
0.348137 0.141621 0.0401015
0.348201 0.141748 0.0392
0.34839 0.141832 0.0385167
0.348578 0.141915 0.0378334
0.348766 0.141998 0.0371502
0.349016 0.14206 0.0365761
0.349267 0.142121 0.036002
0.349578 0.14216 0.0355371
0.349766 0.142244 0.0348539
0.350016 0.142305 0.0342798
0.350266 0.142366 0.0337058
0.350516 0.142428 0.0331317
0.350766 0.142489 0.0325576
0.351016 0.142551 0.0319836
0.351328 0.14259 0.0315187
0.35164 0.142629 0.0310537
0.35189 0.142691 0.0304796
0.35214 0.142752 0.0299056
0.352328 0.142835 0.0292223
0.35264 0.142875 0.0287574
0.352766 0.14298 0.027965
0.352893 0.143085 0.0271726
0.352958 0.143213 0.026271
0.353147 0.143296 0.0255878
0.353212 0.143423 0.0246862
0.353276 0.14355 0.0237846
0.353341 0.143677 0.022883
0.353407 0.143805 0.0219813
0.353533 0.14391 0.0211889
0.353783 0.143971 0.0206149
0.354218 0.143967 0.0203683
0.354653 0.143962 0.0201218
0.35515 0.143936 0.0199844
0.355646 0.143909 0.0198471
0.356205 0.143861 0.0198188
0.35664 0.143856 0.0195722
0.357136 0.14383 0.0194349
0.357633 0.143804 0.0192975
0.35813 0.143777 0.0191601
0.358564 0.143773 0.0189136
0.359061 0.143746 0.0187761
0.359496 0.143742 0.0185296
0.359993 0.143715 0.0183922
0.360428 0.143711 0.0181457
0.360863 0.143706 0.0178992
0.361297 0.143702 0.0176526
0.361671 0.143719 0.0172968
0.362044 0.143737 0.0169411
0.362418 0.143754 0.0165855
0.362729 0.143794 0.0161205
0.362979 0.143855 0.0155464
0.363291 0.143894 0.0150815
0.363541 0.143956 0.0145075
0.363791 0.144017 0.0139334
0.364041 0.144079 0.0133593
0.364352 0.144118 0.0128944
0.364664 0.144157 0.0124295
0.364914 0.144219 0.0118555
0.365164 0.14428 0.0112813
0.365476 0.144319 0.0108165
0.365726 0.144381 0.0102424
0.365914 0.144464 0.00955914
0.366102 0.144548 0.00887588
0.366229 0.144653 0.0080835
0.366294 0.14478 0.00718193
0.366482 0.144863 0.00649861
0.366486 0.145012 0.00548792
0.366674 0.145096 0.00480466
0.366739 0.145223 0.00390302
0.366866 0.145328 0.00311063
0.366807 0.145499 0.00199065
0.366009 0.145934 -0.000439372
0.365951 0.146105 -0.0015593
0.257299 0.150363 0.0434477
0.258261 0.150185 0.0441347
0.259804 0.14981 0.0458497
0.260239 0.149805 0.0456032
0.261722 0.149427 0.0472126
0.262219 0.1494 0.0470752
0.263271 0.149176 0.0479204
0.263829 0.149127 0.0478923
0.264572 0.149013 0.0481916
0.265254 0.14892 0.0483817
0.265935 0.148828 0.0485718
0.273954 0.146118 0.0617537
0.275005 0.145894 0.0625989
0.276427 0.145537 0.0640991
0.277293 0.145379 0.0646168
0.278222 0.145198 0.0652436
0.27915 0.145018 0.0658705
0.279893 0.144904 0.0661699
0.280636 0.144789 0.0664691
0.281318 0.144697 0.0666593
0.282123 0.14456 0.0670678
0.282805 0.144468 0.0672579
0.283486 0.144375 0.067448
0.284168 0.144283 0.0676382
0.284788 0.144212 0.0677191
0.285346 0.144164 0.067691
0.285966 0.144093 0.0677719
0.286524 0.144045 0.0677437
0.287082 0.143996 0.0677156
0.287579 0.14397 0.0675782
0.288137 0.143921 0.0675499
0.288634 0.143895 0.0674125
0.289069 0.14389 0.067166
0.289565 0.143864 0.0670287
0.29 0.143859 0.0667822
0.290435 0.143855 0.0665356
0.29087 0.14385 0.066289
0.291305 0.143846 0.0660425
0.291679 0.143863 0.0656867
0.292113 0.143859 0.0654402
0.292487 0.143877 0.0650844
0.29286 0.143894 0.0647287
0.293234 0.143911 0.064373
0.293607 0.143929 0.0640172
0.293919 0.143969 0.0635523
0.29423 0.144008 0.0630874
0.294542 0.144047 0.0626225
0.294853 0.144087 0.0621577
0.295227 0.144104 0.0618018
0.295538 0.144144 0.061337
0.295912 0.144161 0.0609813
0.296223 0.144201 0.0605164
0.296597 0.144218 0.0601607
0.296908 0.144258 0.0596957
0.29722 0.144297 0.0592308
0.297532 0.144337 0.0587659
0.297905 0.144354 0.0584102
0.298278 0.144372 0.0580545
0.298713 0.144367 0.0578079
0.299148 0.144363 0.0575614
0.299706 0.144315 0.0575331
0.300326 0.144244 0.0576141
0.300946 0.144173 0.0576951
0.301751 0.144037 0.0581036
0.302494 0.143923 0.0584029
0.303423 0.143742 0.0590298
0.304228 0.143606 0.0594383
0.305032 0.143469 0.0598468
0.305776 0.143355 0.0601461
0.306642 0.143196 0.0606637
0.307324 0.143104 0.0608539
0.30819 0.142945 0.0613716
0.308995 0.142809 0.06178
0.309862 0.142651 0.0622977
0.310605 0.142536 0.062597
0.31141 0.1424 0.0630055
0.312215 0.142263 0.063414
0.312945 0.142155 0.0636905
0.313614 0.142068 0.0638578
0.314283 0.141981 0.0640252
0.31501 0.141874 0.0642959
0.31562 0.141808 0.0643598
0.31623 0.141742 0.0644237
0.316782 0.141696 0.0643841
0.317334 0.141651 0.0643445
0.317769 0.141646 0.064098
0.318204 0.141642 0.0638514
0.318697 0.141617 0.0637082
0.319133 0.141612 0.0634616
0.319684 0.141567 0.0634221
0.320236 0.141521 0.0633826
0.320846 0.141455 0.0634464
0.321515 0.141369 0.0636136
0.322067 0.141323 0.0635741
0.322619 0.141277 0.0635344
0.323112 0.141252 0.0633914
0.323547 0.141248 0.0631448
0.324099 0.141202 0.0631052
0.324651 0.141157 0.0630656
0.325261 0.141091 0.0631294
0.325754 0.141066 0.0629863
0.32619 0.141061 0.0627398
0.326625 0.141057 0.0624933
0.32706 0.141052 0.0622467
0.327436 0.141068 0.0618967
0.327812 0.141084 0.0615466
0.328131 0.141121 0.0610931
0.328507 0.141137 0.0607431
0.328942 0.141132 0.0604966
0.329377 0.141128 0.06025
0.32987 0.141103 0.060107
0.330306 0.141099 0.0598604
0.330799 0.141073 0.0597173
0.331292 0.141048 0.0595742
0.331786 0.141023 0.0594312
0.332279 0.140998 0.0592881
0.332772 0.140973 0.059145
0.333266 0.140948 0.0590019
0.333642 0.140964 0.0586519
0.334019 0.14098 0.0583018
0.334337 0.141017 0.0578483
0.334714 0.141033 0.0574983
0.33509 0.141049 0.0571483
0.335467 0.141065 0.0567984
0.335843 0.141081 0.0564483
0.336278 0.141077 0.0562017
0.336654 0.141093 0.0558518
0.337031 0.141109 0.0555017
0.337466 0.141104 0.0552551
0.337842 0.14112 0.0549051
0.338219 0.141136 0.054555
0.338596 0.141152 0.054205
0.339031 0.141148 0.0539585
0.339407 0.141164 0.0536085
0.339783 0.14118 0.0532584
0.34016 0.141196 0.0529085
0.340595 0.141191 0.0526619
0.340972 0.141207 0.0523118
0.341348 0.141223 0.0519619
0.341666 0.14126 0.0515085
0.341984 0.141297 0.0510549
0.342244 0.141354 0.0504979
0.342503 0.141411 0.0499409
0.342646 0.141509 0.049177
0.342965 0.141546 0.0487235
0.343166 0.141623 0.0480631
0.343425 0.14168 0.0475062
0.343744 0.141717 0.0470526
0.344062 0.141753 0.0465992
0.344438 0.141769 0.0462492
0.344873 0.141765 0.0460026
0.34525 0.141781 0.0456525
0.345685 0.141776 0.045406
0.346061 0.141793 0.045056
0.346438 0.141809 0.044706
0.346814 0.141825 0.0443559
0.347132 0.141861 0.0439025
0.347447 0.141899 0.0434433
0.347697 0.141961 0.0428692
0.347886 0.142044 0.042186
0.348074 0.142128 0.0415027
0.348324 0.142189 0.0409286
0.348451 0.142295 0.0401361
0.348515 0.142422 0.0392346
0.348765 0.142484 0.0386605
0.348954 0.142567 0.0379773
0.349142 0.142651 0.037294
0.349454 0.14269 0.0368291
0.349765 0.14273 0.0363642
0.350015 0.142791 0.0357901
0.350204 0.142875 0.0351068
0.350454 0.142936 0.0345328
0.350642 0.14302 0.0338496
0.350892 0.143081 0.0332755
0.351142 0.143142 0.0327014
0.351454 0.143182 0.0322365
0.351765 0.143222 0.0317716
0.352015 0.143283 0.0311975
0.352327 0.143322 0.0307326
0.352577 0.143384 0.0301585
0.352827 0.143445 0.0295844
0.353015 0.143529 0.0289012
0.353327 0.143569 0.0284363
0.35333 0.143718 0.0274257
0.353457 0.143823 0.0266331
0.353522 0.143951 0.0257315
0.353649 0.144056 0.0249391
0.353652 0.144206 0.0239283
0.353655 0.144355 0.0229175
0.353844 0.144439 0.0222344
0.353909 0.144566 0.0213327
0.354097 0.14465 0.0206494
0.35447 0.144667 0.0202937
0.354905 0.144663 0.0200472
0.355402 0.144636 0.0199097
0.35596 0.144588 0.0198816
0.356457 0.144561 0.0197442
0.356954 0.144535 0.0196068
0.35745 0.144508 0.0194695
0.357947 0.144482 0.0193321
0.358382 0.144477 0.0190855
0.358817 0.144473 0.018839
0.359314 0.144446 0.0187015
0.359748 0.144442 0.018455
0.360245 0.144415 0.0183176
0.36068 0.144411 0.0180711
0.361115 0.144406 0.0178245
0.36155 0.144402 0.0175779
0.361923 0.144419 0.0172223
0.362296 0.144437 0.0168665
0.36267 0.144454 0.0165108
0.362981 0.144494 0.0160459
0.363293 0.144534 0.015581
0.363543 0.144595 0.0150068
0.363855 0.144634 0.014542
0.364105 0.144696 0.0139679
0.364355 0.144757 0.0133939
0.364666 0.144797 0.012929
0.364978 0.144836 0.012464
0.36529 0.144876 0.0119991
0.36554 0.144937 0.011425
0.365851 0.144977 0.0109602
0.366101 0.145038 0.0103861
0.36629 0.145122 0.00970283
0.366478 0.145205 0.00901967
0.366605 0.145311 0.0082272
0.36667 0.145438 0.00732556
0.366796 0.145544 0.00653312
0.366861 0.145671 0.00563157
0.366926 0.145799 0.00472995
0.367053 0.145904 0.00393747
0.367241 0.145988 0.00325425
0.367183 0.146159 0.00213438
0.366878 0.146418 0.000577709
0.257745 0.151009 0.0437161
0.258444 0.150917 0.0439363
0.260118 0.150497 0.0458842
0.261478 0.150161 0.0472752
0.262036 0.150113 0.047247
0.262903 0.149954 0.0477647
0.263584 0.149861 0.0479549
0.264266 0.149769 0.048145
0.265009 0.149654 0.0484443
0.265752 0.149539 0.0487436
0.273586 0.146891 0.0615981
0.27433 0.146776 0.0618974
0.275936 0.146353 0.0637252
0.276988 0.146128 0.0645704
0.277793 0.145991 0.0649789
0.278782 0.145788 0.0657149
0.279649 0.145629 0.0662326
0.28033 0.145537 0.0664228
0.281074 0.145422 0.0667221
0.281755 0.14533 0.0669123
0.28256 0.145193 0.0673207
0.283242 0.1451 0.0675109
0.283923 0.145008 0.0677009
0.284605 0.144915 0.0678912
0.285163 0.144866 0.067863
0.285783 0.144796 0.0679439
0.286403 0.144725 0.0680249
0.286961 0.144677 0.0679967
0.287458 0.14465 0.0678593
0.288016 0.144601 0.067831
0.288575 0.144553 0.0678029
0.28901 0.144548 0.0675563
0.289506 0.144522 0.067419
0.289941 0.144517 0.0671725
0.290376 0.144513 0.0669259
0.290872 0.144486 0.0667885
0.291246 0.144504 0.0664328
0.291681 0.144499 0.0661863
0.292054 0.144517 0.0658305
0.292428 0.144534 0.0654748
0.292862 0.14453 0.0652282
0.293174 0.144569 0.0647633
0.293609 0.144565 0.0645167
0.293921 0.144605 0.0640519
0.294233 0.144644 0.0635869
0.294606 0.144662 0.0632311
0.294918 0.144701 0.0627663
0.295229 0.144741 0.0623014
0.295541 0.14478 0.0618365
0.295914 0.144798 0.0614807
0.296226 0.144838 0.0610159
0.296537 0.144877 0.060551
0.296849 0.144917 0.0600861
0.297222 0.144934 0.0597303
0.297534 0.144974 0.0592654
0.297907 0.144991 0.0589097
0.29828 0.145009 0.058554
0.298654 0.145027 0.0581983
0.299089 0.145022 0.0579517
0.299586 0.144996 0.0578143
0.300144 0.144947 0.0577862
0.300764 0.144876 0.0578671
0.301445 0.144784 0.0580573
0.302188 0.144669 0.0583566
0.303117 0.144488 0.0589834
0.303798 0.144396 0.0591735
0.304788 0.144193 0.0599095
0.305408 0.144122 0.0599906
0.306275 0.143963 0.0605082
0.30708 0.143827 0.0609167
0.307884 0.14369 0.0613252
0.308628 0.143575 0.0616246
0.309494 0.143417 0.0621422
0.310423 0.143236 0.062769
0.311166 0.143121 0.0630684
0.312032 0.142962 0.0635861
0.312707 0.142873 0.0637648
0.313551 0.142724 0.0642423
0.31422 0.142637 0.0644096
0.314889 0.14255 0.0645767
0.315557 0.142463 0.064744
0.316109 0.142417 0.0647044
0.316719 0.142351 0.0647681
0.317213 0.142326 0.064625
0.317706 0.142301 0.064482
0.318141 0.142296 0.0642355
0.318634 0.142271 0.0640923
0.319128 0.142246 0.0639492
0.319621 0.142221 0.0638061
0.320173 0.142175 0.0637664
0.3209 0.142068 0.064037
0.321569 0.141981 0.0642043
0.322121 0.141935 0.0641645
0.322614 0.14191 0.0640215
0.323049 0.141905 0.063775
0.323601 0.14186 0.0637354
0.324211 0.141793 0.0637991
0.324821 0.141727 0.0638629
0.325373 0.141681 0.0638232
0.325808 0.141677 0.0635767
0.326185 0.141693 0.0632267
0.326678 0.141668 0.0630837
0.327055 0.141684 0.0627335
0.327431 0.1417 0.0623836
0.327808 0.141716 0.0620336
0.328184 0.141733 0.0616835
0.328561 0.141749 0.0613336
0.328879 0.141785 0.0608801
0.329255 0.141801 0.0605302
0.32969 0.141797 0.0602836
0.330125 0.141792 0.0600371
0.330619 0.141767 0.0598938
0.331112 0.141742 0.0597508
0.331605 0.141717 0.0596077
0.332157 0.141671 0.0595681
0.332651 0.141646 0.059425
0.333144 0.141621 0.0592819
0.333579 0.141617 0.0590353
0.334014 0.141612 0.0587887
0.334449 0.141608 0.0585422
0.334826 0.141624 0.0581922
0.335261 0.141619 0.0579457
0.335696 0.141615 0.0576991
0.336072 0.141631 0.0573491
0.336448 0.141647 0.056999
0.336825 0.141663 0.0566491
0.337201 0.141679 0.0562992
0.337578 0.141695 0.0559491
0.337955 0.141711 0.0555991
0.338273 0.141748 0.0551457
0.338591 0.141785 0.0546923
0.338967 0.141801 0.0543422
0.339344 0.141817 0.0539922
0.33972 0.141833 0.0536422
0.340097 0.141849 0.0532922
0.340474 0.141866 0.0529422
0.34085 0.141882 0.0525922
0.341226 0.141898 0.0522422
0.341603 0.141914 0.0518922
0.341863 0.141971 0.0513354
0.342123 0.142029 0.0507784
0.342382 0.142086 0.0502215
0.342642 0.142143 0.0496647
0.342843 0.142221 0.0490043
0.343103 0.142278 0.0484475
0.343421 0.142315 0.047994
0.343739 0.142352 0.0475406
0.344057 0.142389 0.0470871
0.344434 0.142405 0.046737
0.34481 0.142421 0.0463871
0.345187 0.142437 0.046037
0.345622 0.142433 0.0457905
0.345998 0.142449 0.0454405
0.346375 0.142465 0.0450905
0.34681 0.14246 0.0448439
0.347186 0.142476 0.044494
0.347504 0.142513 0.0440405
0.347761 0.142572 0.0434779
0.348011 0.142633 0.0429039
0.348199 0.142717 0.0422206
0.348449 0.142779 0.0416465
0.348638 0.142862 0.0409633
0.348703 0.14299 0.0400616
0.348891 0.143074 0.0393784
0.349079 0.143158 0.0386951
0.349329 0.143219 0.038121
0.349579 0.143281 0.037547
0.349952 0.143298 0.0371913
0.350203 0.14336 0.0366171
0.350453 0.143422 0.0360431
0.350641 0.143505 0.0353598
0.350829 0.143589 0.0346766
0.350956 0.143695 0.0338842
0.351268 0.143734 0.0334192
0.351579 0.143774 0.0329543
0.351829 0.143835 0.0323803
0.352141 0.143875 0.0319154
0.352453 0.143915 0.0314505
0.352703 0.143976 0.0308764
0.352953 0.144038 0.0303023
0.353203 0.144099 0.0297283
0.353453 0.144161 0.0291542
0.353703 0.144223 0.0285801
0.353829 0.144328 0.0277876
0.353956 0.144434 0.0269952
0.354021 0.144562 0.0260936
0.354148 0.144667 0.0253012
0.353966 0.144883 0.0239628
0.354031 0.145011 0.0230612
0.354158 0.145117 0.0222689
0.354284 0.145222 0.0214764
0.354473 0.145306 0.0207932
0.354784 0.145346 0.0203283
0.355158 0.145363 0.0199725
0.355654 0.145337 0.0198351
0.356151 0.14531 0.0196977
0.356709 0.145262 0.0196696
0.357206 0.145235 0.0195322
0.357703 0.145209 0.0193948
0.358137 0.145204 0.0191482
0.358634 0.145178 0.0190109
0.359131 0.145151 0.0188735
0.359566 0.145146 0.0186269
0.360062 0.14512 0.0184895
0.360497 0.145116 0.018243
0.360932 0.145111 0.0179965
0.361367 0.145106 0.0177499
0.361802 0.145102 0.0175034
0.362175 0.14512 0.0171477
0.36261 0.145115 0.0169011
0.362922 0.145155 0.0164362
0.363295 0.145172 0.0160805
0.363545 0.145234 0.0155064
0.363795 0.145295 0.0149323
0.364107 0.145335 0.0144673
0.364419 0.145375 0.0140025
0.36473 0.145414 0.0135376
0.365042 0.145454 0.0130727
0.365353 0.145493 0.0126078
0.365665 0.145533 0.0121429
0.365915 0.145595 0.0115688
0.366165 0.145656 0.0109947
0.366415 0.145718 0.0104207
0.366603 0.145801 0.00973745
0.366854 0.145863 0.00916336
0.366919 0.145991 0.00826172
0.367045 0.146097 0.00746929
0.367049 0.146246 0.0064585
0.367175 0.146352 0.00566601
0.367179 0.146502 0.00465528
0.367367 0.146585 0.003972
0.367494 0.146691 0.00317959
0.367435 0.146863 0.00205964
0.367254 0.147079 0.000721369
0.258059 0.151698 0.0437512
0.258758 0.151605 0.0439712
0.260494 0.151161 0.0460277
0.261792 0.150848 0.0473096
0.262474 0.150755 0.0474998
0.26334 0.150596 0.0480175
0.264022 0.150503 0.0482076
0.264703 0.15041 0.0483978
0.265447 0.150295 0.0486971
0.266128 0.150202 0.0488872
0.274147 0.147482 0.0620694
0.275322 0.147212 0.063133
0.276497 0.146943 0.0641965
0.277548 0.146718 0.0650416
0.278415 0.146559 0.0655593
0.279343 0.146378 0.0661862
0.280024 0.146285 0.0663764
0.280768 0.14617 0.0666757
0.281511 0.146055 0.066975
0.282254 0.14594 0.0672743
0.282997 0.145825 0.0675736
0.283679 0.145732 0.0677638
0.284361 0.14564 0.067954
0.284981 0.145569 0.0680349
0.285601 0.145498 0.0681159
0.28622 0.145427 0.068197
0.28684 0.145357 0.0682779
0.287337 0.14533 0.0681405
0.287895 0.145281 0.0681123
0.288454 0.145233 0.068084
0.28895 0.145206 0.0679467
0.289385 0.145202 0.0677002
0.289882 0.145175 0.0675628
0.290317 0.145171 0.0673162
0.290813 0.145144 0.0671789
0.291187 0.145162 0.0668232
0.291622 0.145157 0.0665767
0.291995 0.145175 0.0662209
0.29243 0.14517 0.0659743
0.292803 0.145188 0.0656186
0.293177 0.145206 0.0652628
0.29355 0.145223 0.0649071
0.293923 0.145241 0.0645513
0.294235 0.14528 0.0640865
0.294608 0.145298 0.0637307
0.29492 0.145338 0.0632659
0.295231 0.145377 0.062801
0.295543 0.145417 0.062336
0.295916 0.145434 0.0619803
0.29629 0.145452 0.0616245
0.296601 0.145492 0.0611597
0.296913 0.145531 0.0606948
0.297225 0.145571 0.0602298
0.297598 0.145589 0.0598741
0.297909 0.145628 0.0594093
0.298221 0.145668 0.0589443
0.298656 0.145663 0.0586978
0.29903 0.145681 0.0583421
0.299465 0.145677 0.0580955
0.299961 0.14565 0.0579581
0.300581 0.145579 0.0580391
0.301201 0.145509 0.05812
0.301882 0.145416 0.0583103
0.302749 0.145257 0.0588279
0.303616 0.145098 0.0593455
0.304359 0.144983 0.0596449
0.305225 0.144824 0.0601626
0.30603 0.144687 0.0605711
0.306773 0.144572 0.0608704
0.307579 0.144435 0.0612789
0.308384 0.144298 0.0616874
0.309312 0.144117 0.0623142
0.310055 0.144002 0.0626136
0.310983 0.143821 0.0632405
0.311726 0.143706 0.0635397
0.312528 0.14357 0.0639425
0.313255 0.143462 0.0642131
0.31404 0.143334 0.0645871
0.314767 0.143226 0.0648576
0.315436 0.143139 0.0650247
0.316046 0.143072 0.0650885
0.316598 0.143026 0.0650488
0.31715 0.14298 0.065009
0.317643 0.142955 0.0648659
0.318137 0.14293 0.0647228
0.31863 0.142905 0.0645797
0.319065 0.1429 0.064333
0.319558 0.142875 0.06419
0.320227 0.142788 0.0643571
0.320954 0.14268 0.0646277
0.321564 0.142613 0.0646914
0.322116 0.142567 0.0646518
0.322609 0.142542 0.0645085
0.323103 0.142517 0.0643654
0.323654 0.142471 0.0643257
0.324323 0.142384 0.0644929
0.324875 0.142338 0.0644532
0.325368 0.142313 0.06431
0.325861 0.142288 0.0641669
0.326238 0.142304 0.0638169
0.326673 0.142299 0.0635704
0.327108 0.142295 0.0633238
0.327485 0.142311 0.0629739
0.327978 0.142286 0.0628307
0.328354 0.142302 0.0624808
0.328614 0.14236 0.061924
0.328933 0.142397 0.0614705
0.329309 0.142413 0.0611205
0.329627 0.14245 0.0606671
0.330121 0.142425 0.060524
0.330614 0.142399 0.0603809
0.331049 0.142395 0.0601343
0.3316 0.142349 0.0600946
0.332152 0.142303 0.0600549
0.332704 0.142257 0.0600153
0.333198 0.142232 0.0598721
0.333632 0.142228 0.0596255
0.334067 0.142223 0.0593789
0.334561 0.142198 0.0592358
0.334996 0.142193 0.0589891
0.335431 0.142189 0.0587427
0.335924 0.142164 0.0585996
0.336242 0.142201 0.0581462
0.336677 0.142196 0.0578996
0.336995 0.142233 0.0574462
0.337372 0.142249 0.0570963
0.337807 0.142245 0.0568498
0.338125 0.142282 0.0563963
0.338385 0.142339 0.0558395
0.338644 0.142397 0.0552828
0.339021 0.142413 0.0549327
0.339339 0.14245 0.0544793
0.339716 0.142466 0.0541294
0.340034 0.142503 0.0536759
0.340352 0.14254 0.0532225
0.34067 0.142577 0.0527691
0.341105 0.142572 0.0525225
0.341482 0.142588 0.0521726
0.3418 0.142625 0.0517192
0.341943 0.142724 0.0509556
0.342261 0.142761 0.0505021
0.342521 0.142819 0.0499453
0.34278 0.142876 0.0493885
0.34304 0.142934 0.0488316
0.343417 0.14295 0.0484817
0.343677 0.143008 0.0479249
0.343995 0.143044 0.0474715
0.344371 0.143061 0.0471215
0.344748 0.143077 0.0467716
0.345124 0.143093 0.0464215
0.345501 0.143109 0.0460716
0.345936 0.143105 0.0458251
0.346312 0.143121 0.0454751
0.346747 0.143116 0.0452285
0.347124 0.143132 0.0448786
0.3475 0.143149 0.0445285
0.347819 0.143186 0.0440752
0.348075 0.143245 0.0435125
0.348325 0.143306 0.0429385
0.348513 0.14339 0.0422553
0.348702 0.143474 0.041572
0.34889 0.143558 0.0408887
0.349078 0.143642 0.0402055
0.349143 0.14377 0.0393038
0.349393 0.143831 0.0387298
0.349705 0.143871 0.0382649
0.349955 0.143933 0.0376908
0.350328 0.14395 0.0373351
0.350578 0.144012 0.036761
0.35089 0.144052 0.0362961
0.351017 0.144158 0.0355037
0.351205 0.144242 0.0348203
0.351393 0.144325 0.0341372
0.351705 0.144365 0.0336723
0.351955 0.144427 0.0330981
0.352205 0.144489 0.0325241
0.352517 0.144528 0.0320592
0.352766 0.14459 0.031485
0.353078 0.14463 0.0310201
0.35339 0.144669 0.0305553
0.35364 0.144731 0.0299812
0.35389 0.144793 0.0294071
0.354078 0.144877 0.0287239
0.354267 0.144961 0.0280406
0.354331 0.145089 0.027139
0.354458 0.145194 0.0263466
0.354647 0.145278 0.0256633
0.35428 0.145561 0.0239974
0.354407 0.145667 0.023205
0.354472 0.145795 0.0223035
0.35466 0.145879 0.0216202
0.354848 0.145962 0.0209369
0.355037 0.146046 0.0202536
0.355472 0.146042 0.0200071
0.355907 0.146037 0.0197606
0.356403 0.146011 0.0196232
0.3569 0.145984 0.0194857
0.357397 0.145958 0.0193483
0.357893 0.145931 0.019211
0.35839 0.145904 0.0190737
0.358886 0.145878 0.0189363
0.359321 0.145873 0.0186897
0.359818 0.145847 0.0185524
0.360315 0.14582 0.018415
0.36075 0.145816 0.0181685
0.361185 0.145811 0.0179219
0.36162 0.145807 0.0176754
0.362054 0.145802 0.0174289
0.362489 0.145798 0.0171822
0.362863 0.145815 0.0168265
0.363174 0.145855 0.0163616
0.363486 0.145895 0.0158967
0.363798 0.145934 0.0154318
0.364109 0.145974 0.0149669
0.364359 0.146036 0.0143928
0.364733 0.146053 0.0140371
0.364983 0.146115 0.0134629
0.365294 0.146155 0.0129981
0.365668 0.146172 0.0126424
0.365979 0.146212 0.0121774
0.366291 0.146252 0.0117125
0.366541 0.146313 0.0111385
0.366729 0.146397 0.0104552
0.366979 0.146459 0.0098811
0.367106 0.146565 0.00908869
0.367233 0.146671 0.00829626
0.367236 0.146821 0.00728548
0.367301 0.146949 0.00638389
0.367427 0.147055 0.00559145
0.367431 0.147205 0.00458061
0.367619 0.147289 0.00389742
0.367808 0.147372 0.0032141
0.367749 0.147545 0.0020942
0.367444 0.147805 0.000537522
0.257873 0.152413 0.0439162
0.258308 0.152409 0.0436697
0.259402 0.152184 0.0445892
0.261363 0.151649 0.0470447
0.262229 0.15149 0.0475624
0.263034 0.151352 0.0479709
0.263839 0.151215 0.0483795
0.264459 0.151144 0.0484604
0.265202 0.151029 0.0487597
0.265946 0.150914 0.0490591
0.273964 0.148188 0.0622412
0.274954 0.147985 0.0629773
0.276191 0.147693 0.06415
0.277057 0.147533 0.0646678
0.278047 0.14733 0.0654037
0.278975 0.147148 0.0660306
0.279842 0.146989 0.0665482
0.280585 0.146874 0.0668476
0.281267 0.146781 0.0670378
0.28201 0.146666 0.0673371
0.282753 0.146551 0.0676365
0.283435 0.146457 0.0678266
0.284178 0.146342 0.068126
0.284798 0.146272 0.0682069
0.28548 0.146178 0.0683971
0.286038 0.14613 0.0683689
0.286658 0.146059 0.0684498
0.287216 0.14601 0.0684217
0.287774 0.145961 0.0683934
0.288333 0.145913 0.0683652
0.288829 0.145886 0.0682279
0.289264 0.145882 0.0679813
0.289761 0.145855 0.0678439
0.290257 0.145828 0.0677065
0.290692 0.145824 0.06746
0.291127 0.145819 0.0672135
0.291501 0.145837 0.0668577
0.291997 0.14581 0.0667204
0.292432 0.145806 0.0664739
0.292805 0.145823 0.0661181
0.293179 0.145841 0.0657624
0.293552 0.145859 0.0654066
0.293925 0.145877 0.0650509
0.294299 0.145894 0.0646951
0.294611 0.145934 0.0642303
0.294984 0.145951 0.0638746
0.295295 0.145991 0.0634097
0.295607 0.146031 0.0629447
0.29598 0.146049 0.062589
0.296292 0.146088 0.0621241
0.296665 0.146106 0.0617684
0.296977 0.146146 0.0613034
0.297289 0.146186 0.0608385
0.2976 0.146225 0.0603736
0.297912 0.146265 0.0599087
0.298223 0.146305 0.0594438
0.298597 0.146322 0.0590881
0.29897 0.14634 0.0587324
0.299344 0.146358 0.0583767
0.29984 0.146331 0.0582392
0.300398 0.146282 0.0582111
0.301018 0.146211 0.058292
0.301638 0.146141 0.058373
0.302443 0.146003 0.0587815
0.303371 0.145822 0.0594084
0.304053 0.145729 0.0595985
0.304981 0.145547 0.0602254
0.305663 0.145454 0.0604156
0.306591 0.145273 0.0610424
0.307149 0.145224 0.0610142
0.308201 0.144999 0.0618595
0.309067 0.144839 0.0623771
0.309749 0.144746 0.0625673
0.310615 0.144587 0.063085
0.311482 0.144427 0.0636026
0.312225 0.144312 0.063902
0.313017 0.14418 0.0642874
0.313802 0.144051 0.0646612
0.314588 0.143922 0.065035
0.315315 0.143814 0.0653055
0.315925 0.143747 0.0653692
0.316535 0.14368 0.0654328
0.317145 0.143614 0.0654964
0.317639 0.143588 0.0653533
0.318132 0.143563 0.0652101
0.318625 0.143538 0.065067
0.319119 0.143513 0.0649238
0.319612 0.143487 0.0647807
0.320281 0.1434 0.0649477
0.321008 0.143291 0.0652181
0.321618 0.143225 0.0652818
0.322111 0.143199 0.0651387
0.322604 0.143174 0.0649955
0.323156 0.143128 0.0649556
0.323708 0.143082 0.0649159
0.324318 0.143015 0.0649796
0.32487 0.142969 0.0649399
0.325363 0.142944 0.0647967
0.325857 0.142919 0.0646536
0.326292 0.142914 0.064407
0.326727 0.14291 0.0641605
0.327161 0.142905 0.0639139
0.327596 0.142901 0.0636674
0.32809 0.142876 0.0635242
0.328466 0.142892 0.0631743
0.328843 0.142908 0.0628242
0.329103 0.142966 0.0622675
0.329421 0.143003 0.0618142
0.329739 0.14304 0.0613609
0.330174 0.143035 0.0611143
0.330667 0.14301 0.0609711
0.331278 0.142944 0.0610347
0.331888 0.142877 0.0610984
0.332439 0.142831 0.0610586
0.332874 0.142826 0.0608121
0.333368 0.142801 0.0606689
0.333803 0.142796 0.0604224
0.334238 0.142792 0.0601758
0.334673 0.142787 0.0599292
0.335108 0.142783 0.0596827
0.335601 0.142758 0.0595396
0.336036 0.142753 0.059293
0.336412 0.142769 0.0589431
0.336789 0.142786 0.0585931
0.337166 0.142802 0.0582432
0.337542 0.142818 0.0578932
0.337977 0.142814 0.0576466
0.338237 0.142872 0.0570899
0.338555 0.142909 0.0566367
0.338815 0.142967 0.0560798
0.339133 0.143003 0.0556265
0.339451 0.143041 0.0551731
0.339769 0.143078 0.0547197
0.340029 0.143135 0.054163
0.340289 0.143193 0.0536062
0.340607 0.14323 0.0531528
0.340984 0.143246 0.0528029
0.34136 0.143263 0.052453
0.341678 0.1433 0.0519996
0.341938 0.143358 0.0514429
0.34214 0.143436 0.0507827
0.342458 0.143473 0.0503295
0.342717 0.143531 0.0497727
0.342977 0.143589 0.0492158
0.343354 0.143605 0.0488659
0.343672 0.143642 0.0484126
0.34399 0.143679 0.0479592
0.344367 0.143695 0.0476093
0.344685 0.143732 0.047156
0.345061 0.143749 0.046806
0.345438 0.143765 0.046456
0.345815 0.143781 0.0461062
0.34625 0.143777 0.0458595
0.346626 0.143793 0.0455095
0.347061 0.143788 0.045263
0.347438 0.143805 0.0449131
0.347756 0.143842 0.0444597
0.348074 0.143879 0.0440063
0.348389 0.143917 0.0435472
0.348577 0.144001 0.0428639
0.348766 0.144085 0.0421807
0.348954 0.144169 0.0414975
0.349142 0.144253 0.0408143
0.349331 0.144337 0.0401309
0.349457 0.144443 0.0393385
0.349769 0.144483 0.0388736
0.35008 0.144523 0.0384088
0.350331 0.144585 0.0378346
0.350704 0.144602 0.0374789
0.351016 0.144642 0.037014
0.351204 0.144726 0.0363307
0.351392 0.14481 0.0356475
0.351519 0.144916 0.034855
0.351707 0.145 0.0341718
0.352019 0.14504 0.0337069
0.352331 0.14508 0.0332419
0.352581 0.145142 0.0326679
0.352892 0.145182 0.032203
0.353142 0.145243 0.0316289
0.353454 0.145283 0.031164
0.353766 0.145323 0.0306991
0.354015 0.145385 0.030125
0.354266 0.145447 0.0295509
0.354392 0.145553 0.0287585
0.354642 0.145615 0.0281844
0.354707 0.145743 0.0272827
0.354834 0.145849 0.0264904
0.355022 0.145933 0.0258071
0.354779 0.146172 0.0243596
0.354721 0.146344 0.0232396
0.354909 0.146428 0.0225564
0.355036 0.146534 0.0217639
0.355101 0.146663 0.0208623
0.355351 0.146725 0.0202883
0.355662 0.146765 0.0198234
0.356097 0.14676 0.0195768
0.356656 0.146711 0.0195486
0.357152 0.146684 0.0194112
0.357649 0.146658 0.0192737
0.358145 0.146631 0.0191364
0.358642 0.146605 0.018999
0.359139 0.146578 0.0188617
0.359574 0.146574 0.018615
0.360132 0.146525 0.0185869
0.360567 0.14652 0.0183404
0.361002 0.146516 0.0180938
0.361499 0.146489 0.0179565
0.361933 0.146485 0.0177098
0.362307 0.146502 0.0173541
0.362742 0.146498 0.0171076
0.363115 0.146516 0.0167518
0.363427 0.146555 0.016287
0.363738 0.146595 0.015822
0.36405 0.146635 0.0153572
0.364362 0.146674 0.0148923
0.364673 0.146714 0.0144273
0.364985 0.146754 0.0139625
0.365296 0.146794 0.0134975
0.365608 0.146833 0.0130326
0.36592 0.146873 0.0125677
0.366293 0.146891 0.012212
0.366543 0.146953 0.0116379
0.366793 0.147015 0.0110638
0.367043 0.147077 0.0104898
0.367231 0.147161 0.00980644
0.367358 0.147267 0.00901404
0.367546 0.147351 0.00833075
0.367426 0.147545 0.00710164
0.367492 0.147674 0.0062
0.367618 0.14778 0.0054075
0.367806 0.147864 0.0047243
0.367872 0.147992 0.00382276
0.367998 0.148098 0.0030303
0.368063 0.148226 0.00212867
0.367512 0.148576 0.000135222
0.258187 0.153103 0.0439513
0.25849 0.153142 0.0434716
0.260872 0.152473 0.0466706
0.261862 0.152269 0.0474067
0.262667 0.152131 0.0478152
0.263348 0.152038 0.0480053
0.264215 0.151879 0.048523
0.268719 0.150411 0.0554821
0.27014 0.150052 0.0569825
0.273658 0.148939 0.0621948
0.274525 0.148779 0.0627126
0.275885 0.148442 0.0641036
0.27669 0.148305 0.0645121
0.277741 0.148079 0.0653573
0.278608 0.147919 0.065875
0.279536 0.147737 0.0665019
0.280279 0.147622 0.0668013
0.281022 0.147506 0.0671006
0.281765 0.147391 0.0673999
0.282509 0.147276 0.0676992
0.283191 0.147183 0.0678894
0.283934 0.147067 0.0681887
0.284615 0.146974 0.0683789
0.285235 0.146903 0.0684599
0.285855 0.146832 0.0685409
0.286475 0.146761 0.0686218
0.287033 0.146712 0.0685937
0.287592 0.146664 0.0685655
0.28815 0.146615 0.0685372
0.288708 0.146566 0.068509
0.289205 0.146539 0.0683717
0.28964 0.146535 0.0681251
0.290136 0.146508 0.0679878
0.290571 0.146504 0.0677412
0.291068 0.146477 0.0676038
0.291503 0.146473 0.0673573
0.291999 0.146446 0.0672199
0.292434 0.146441 0.0669734
0.292808 0.146459 0.0666176
0.293243 0.146455 0.0663711
0.293616 0.146472 0.0660153
0.293928 0.146512 0.0655504
0.294301 0.14653 0.0651947
0.294674 0.146547 0.0648389
0.294986 0.146587 0.064374
0.295359 0.146605 0.0640183
0.295671 0.146645 0.0635534
0.296044 0.146662 0.0631976
0.296295 0.146724 0.0626236
0.296668 0.146742 0.0622679
0.296979 0.146782 0.0618029
0.297291 0.146822 0.061338
0.297603 0.146862 0.0608732
0.297914 0.146901 0.0604082
0.298287 0.146919 0.0600525
0.298599 0.146959 0.0595876
0.298911 0.146999 0.0591227
0.299284 0.147016 0.058767
0.299719 0.147012 0.0585204
0.300216 0.146985 0.058383
0.300835 0.146914 0.0584641
0.301517 0.146821 0.0586542
0.302137 0.14675 0.0587351
0.303127 0.146546 0.0594712
0.30387 0.146431 0.0597705
0.304675 0.146293 0.060179
0.305418 0.146178 0.0604783
0.306347 0.145996 0.0611052
0.306967 0.145925 0.0611862
0.307833 0.145766 0.0617039
0.3087 0.145606 0.0622216
0.309566 0.145446 0.0627393
0.31031 0.145331 0.0630387
0.311176 0.145171 0.0635563
0.311858 0.145078 0.0637466
0.312779 0.144899 0.0643617
0.313564 0.144769 0.0647354
0.314408 0.144619 0.0652125
0.315077 0.144531 0.0653794
0.315862 0.144402 0.0657531
0.316472 0.144335 0.0658168
0.317082 0.144268 0.0658803
0.317634 0.144221 0.0658406
0.318186 0.144175 0.0658007
0.318679 0.14415 0.0656575
0.319173 0.144125 0.0655143
0.319724 0.144078 0.0654746
0.320334 0.144011 0.0655382
0.321003 0.143923 0.0657051
0.321613 0.143857 0.0657687
0.322106 0.143831 0.0656255
0.322599 0.143806 0.0654822
0.323151 0.14376 0.0654425
0.323703 0.143713 0.0654027
0.324313 0.143646 0.0654662
0.324865 0.1436 0.0654265
0.325358 0.143575 0.0652832
0.325793 0.14357 0.0650368
0.326228 0.143566 0.0647902
0.326721 0.143541 0.064647
0.327215 0.143515 0.0645038
0.327591 0.143532 0.0641539
0.328085 0.143506 0.0640107
0.32852 0.143502 0.0637642
0.328896 0.143518 0.0634143
0.329273 0.143535 0.0630643
0.329533 0.143592 0.0625076
0.329851 0.14363 0.0620543
0.330286 0.143625 0.0618078
0.330838 0.143579 0.0617679
0.331448 0.143512 0.0618315
0.331999 0.143466 0.0617918
0.332551 0.14342 0.0617519
0.332986 0.143415 0.0615054
0.333479 0.14339 0.0613621
0.333914 0.143385 0.0611157
0.334349 0.143381 0.0608691
0.334784 0.143376 0.0606226
0.335219 0.143372 0.060376
0.335654 0.143367 0.0601294
0.336089 0.143363 0.0598829
0.336524 0.143358 0.0596364
0.336901 0.143375 0.0592864
0.337219 0.143412 0.0588331
0.337654 0.143407 0.0585865
0.33803 0.143424 0.0582366
0.338407 0.14344 0.0578866
0.338667 0.143498 0.0573299
0.338985 0.143535 0.0568768
0.339245 0.143593 0.05632
0.339563 0.143631 0.0558667
0.339881 0.143668 0.0554135
0.340199 0.143705 0.0549601
0.340459 0.143763 0.0544034
0.340661 0.143842 0.0537434
0.340921 0.1439 0.0531867
0.341239 0.143937 0.0527334
0.341557 0.143974 0.0522801
0.341875 0.144012 0.0518268
0.342077 0.14409 0.0511667
0.342336 0.144148 0.0506101
0.342654 0.144186 0.0501568
0.342973 0.144223 0.0497034
0.343291 0.14426 0.0492502
0.343609 0.144297 0.0487969
0.343986 0.144314 0.048447
0.344362 0.14433 0.048097
0.34468 0.144367 0.0476437
0.344999 0.144404 0.0471903
0.345376 0.144421 0.0468405
0.345752 0.144437 0.0464905
0.346128 0.144453 0.0461406
0.346505 0.14447 0.0457907
0.34694 0.144465 0.0455441
0.347317 0.144482 0.0451942
0.347693 0.144498 0.0448442
0.348011 0.144535 0.044391
0.34833 0.144572 0.0439376
0.348641 0.144612 0.0434728
0.34883 0.144696 0.0427895
0.349018 0.144781 0.0421062
0.349206 0.144865 0.0414229
0.349395 0.144949 0.0407397
0.349521 0.145055 0.0399473
0.349771 0.145117 0.0393731
0.350083 0.145157 0.0389083
0.350395 0.145197 0.0384434
0.350706 0.145237 0.0379785
0.351018 0.145276 0.0375136
0.351329 0.145316 0.0370486
0.35158 0.145378 0.0364745
0.351706 0.145485 0.0356821
0.351833 0.145591 0.0348896
0.352083 0.145653 0.0343156
0.352333 0.145715 0.0337414
0.352644 0.145755 0.0332766
0.352895 0.145817 0.0327026
0.353206 0.145857 0.0322376
0.353518 0.145897 0.0317727
0.353829 0.145936 0.0313077
0.354141 0.145976 0.0308428
0.354391 0.146038 0.0302688
0.354579 0.146122 0.0295856
0.354768 0.146207 0.0289022
0.354956 0.146291 0.028219
0.355083 0.146397 0.0274266
0.355271 0.146481 0.0267433
0.355275 0.146632 0.0257325
0.355278 0.146783 0.0247217
0.355096 0.147 0.0233834
0.355161 0.147128 0.0224817
0.355227 0.147257 0.0215801
0.355415 0.147341 0.0208969
0.355603 0.147425 0.0202136
0.355853 0.147487 0.0196394
0.356288 0.147483 0.0193929
0.356785 0.147456 0.0192556
0.357343 0.147407 0.0192274
0.35784 0.147381 0.01909
0.358336 0.147354 0.0189527
0.358833 0.147327 0.0188152
0.359329 0.147301 0.0186779
0.359826 0.147274 0.0185405
0.360323 0.147247 0.0184032
0.360819 0.147221 0.0182658
0.361254 0.147216 0.0180193
0.361751 0.14719 0.0178818
0.362186 0.147185 0.0176353
0.362559 0.147203 0.0172795
0.362994 0.147198 0.017033
0.363306 0.147238 0.0165681
0.363679 0.147256 0.0162124
0.363929 0.147318 0.0156383
0.364302 0.147335 0.0152825
0.364614 0.147375 0.0148176
0.364987 0.147393 0.0144619
0.365299 0.147433 0.013997
0.365611 0.147473 0.0135321
0.365922 0.147512 0.0130672
0.366234 0.147552 0.0126022
0.366546 0.147592 0.0121373
0.366857 0.147632 0.0116724
0.367046 0.147716 0.0109891
0.367357 0.147756 0.0105243
0.367422 0.147885 0.0096226
0.36761 0.147969 0.00893938
0.367737 0.148075 0.008147
0.367617 0.14827 0.00691782
0.367806 0.148354 0.00623456
0.367809 0.148505 0.00522369
0.36812 0.148545 0.00475887
0.368186 0.148673 0.00385729
0.368312 0.14878 0.00306474
0.368192 0.148975 0.00183567
0.367887 0.149236 0.00027894
0.263817 0.151299 0.0574645
0.258173 0.153903 0.0434037
0.26593 0.151298 0.0561226
0.266735 0.151161 0.0565311
0.267725 0.150956 0.0572672
0.268345 0.150885 0.0573481
0.269026 0.150792 0.0575383
0.269831 0.150654 0.0579468
0.270513 0.150561 0.058137
0.270824 0.150601 0.057672
0.274157 0.149552 0.0625568
0.275456 0.149237 0.0638388
0.276384 0.149055 0.0644658
0.277312 0.148873 0.0650925
0.278425 0.148624 0.0660471
0.279168 0.148508 0.0663463
0.280035 0.148348 0.0668641
0.280778 0.148233 0.0671634
0.281521 0.148117 0.0674627
0.282203 0.148024 0.0676528
0.282946 0.147908 0.0679522
0.283689 0.147793 0.0682515
0.284433 0.147677 0.0685508
0.285053 0.147606 0.0686319
0.285673 0.147535 0.0687128
0.286293 0.147464 0.0687938
0.28685 0.147415 0.0687656
0.287471 0.147344 0.0688466
0.288029 0.147295 0.0688184
0.288587 0.147246 0.0687902
0.289084 0.147219 0.0686529
0.28958 0.147192 0.0685154
0.290077 0.147166 0.0683781
0.290574 0.147139 0.0682408
0.291009 0.147135 0.0679942
0.291506 0.147108 0.0678568
0.29194 0.147103 0.0676102
0.292437 0.147077 0.0674729
0.292872 0.147072 0.0672263
0.293307 0.147068 0.0669798
0.29368 0.147085 0.0666241
0.294053 0.147103 0.0662684
0.294365 0.147143 0.0658034
0.294738 0.147161 0.0654477
0.29505 0.147201 0.0649827
0.295423 0.147218 0.064627
0.295735 0.147258 0.0641621
0.296046 0.147298 0.0636973
0.296358 0.147338 0.0632322
0.296608 0.1474 0.0626583
0.296982 0.147418 0.0623024
0.297293 0.147458 0.0618376
0.297605 0.147498 0.0613727
0.297916 0.147538 0.0609077
0.298228 0.147578 0.0604428
0.298602 0.147595 0.0600871
0.298913 0.147635 0.0596222
0.299286 0.147653 0.0592665
0.29966 0.147671 0.0589107
0.300156 0.147644 0.0587733
0.300714 0.147595 0.0587451
0.301335 0.147524 0.0588262
0.301954 0.147453 0.0589072
0.302698 0.147337 0.0592065
0.303749 0.147111 0.0600516
0.304431 0.147018 0.0602419
0.305236 0.14688 0.0606504
0.305979 0.146764 0.0609497
0.306784 0.146626 0.0613583
0.307404 0.146555 0.0614392
0.308455 0.146329 0.0622844
0.309322 0.146169 0.0628021
0.310065 0.146053 0.0631014
0.31087 0.145916 0.06351
0.311552 0.145822 0.0637001
0.31248 0.14564 0.064327
0.313385 0.145467 0.0649132
0.314053 0.145379 0.06508
0.314897 0.145228 0.0655568
0.315624 0.145119 0.0658272
0.316292 0.14503 0.065994
0.316961 0.144942 0.0661609
0.317571 0.144875 0.0662243
0.318181 0.144808 0.0662878
0.318733 0.144761 0.066248
0.319226 0.144736 0.0661048
0.319778 0.14469 0.0660649
0.320388 0.144622 0.0661284
0.320939 0.144576 0.0660885
0.321549 0.144509 0.0661521
0.322101 0.144462 0.0661123
0.322594 0.144437 0.065969
0.323088 0.144412 0.0658258
0.32364 0.144365 0.065786
0.32425 0.144298 0.0658494
0.324801 0.144252 0.0658096
0.325353 0.144205 0.0657697
0.325788 0.144201 0.0655232
0.326281 0.144176 0.06538
0.326716 0.144171 0.0651335
0.327209 0.144146 0.0649903
0.327645 0.144141 0.0647438
0.32808 0.144137 0.0644972
0.328515 0.144132 0.0642506
0.328891 0.144149 0.0639007
0.329268 0.144165 0.0635508
0.329644 0.144181 0.0632009
0.329963 0.144219 0.0627477
0.330397 0.144214 0.0625011
0.330891 0.144189 0.0623579
0.331442 0.144143 0.062318
0.331994 0.144096 0.0622782
0.332488 0.144071 0.062135
0.332981 0.144045 0.0619918
0.333474 0.14402 0.0618486
0.333909 0.144015 0.0616021
0.334344 0.144011 0.0613556
0.334838 0.143986 0.0612123
0.335272 0.143981 0.0609658
0.335649 0.143998 0.0606158
0.336142 0.143972 0.0604727
0.336519 0.143989 0.0601227
0.336954 0.143984 0.0598762
0.33733 0.144 0.0595262
0.337649 0.144038 0.059073
0.338084 0.144033 0.0588265
0.33846 0.14405 0.0584766
0.338778 0.144087 0.0580233
0.339038 0.144145 0.0574667
0.339415 0.144162 0.0571167
0.339733 0.144199 0.0566635
0.340051 0.144237 0.0562102
0.34037 0.144274 0.055757
0.340688 0.144311 0.0553038
0.340889 0.14439 0.0546438
0.341091 0.14447 0.0539838
0.341234 0.14457 0.0532205
0.341552 0.144607 0.0527673
0.341812 0.144665 0.0522106
0.342072 0.144723 0.0516541
0.342332 0.144782 0.0510974
0.34265 0.144819 0.0506442
0.342968 0.144857 0.0501909
0.343286 0.144894 0.0497377
0.343605 0.144931 0.0492844
0.343981 0.144948 0.0489345
0.344358 0.144964 0.0485846
0.344676 0.145001 0.0481314
0.344994 0.145039 0.047678
0.345371 0.145055 0.0473282
0.345689 0.145093 0.0468749
0.346066 0.145109 0.046525
0.346384 0.145146 0.0460718
0.346819 0.145142 0.0458252
0.347196 0.145158 0.0454753
0.347572 0.145175 0.0451254
0.34789 0.145212 0.0446722
0.348267 0.145229 0.0443222
0.348582 0.145267 0.0438631
0.348832 0.145329 0.043289
0.34902 0.145414 0.0426058
0.34927 0.145476 0.0420317
0.349459 0.14556 0.0413484
0.349585 0.145667 0.040556
0.349773 0.145751 0.0398727
0.350085 0.145791 0.0394078
0.350397 0.145831 0.0389429
0.350709 0.145871 0.0384779
0.351082 0.145889 0.0381223
0.351332 0.145951 0.0375482
0.351643 0.145991 0.0370833
0.351894 0.146053 0.0365092
0.35202 0.146159 0.0357168
0.352147 0.146266 0.0349243
0.352397 0.146328 0.0343502
0.352647 0.14639 0.0337762
0.352897 0.146452 0.0332021
0.353209 0.146492 0.0327372
0.353582 0.14651 0.0323814
0.353832 0.146572 0.0318073
0.354143 0.146612 0.0313424
0.354455 0.146652 0.0308775
0.354705 0.146714 0.0303034
0.354955 0.146776 0.0297293
0.355143 0.146861 0.029046
0.35527 0.146967 0.0282536
0.355397 0.147074 0.0274611
0.355523 0.14718 0.0266687
0.35565 0.147287 0.0258762
0.355715 0.147416 0.0249747
0.355533 0.147633 0.0236363
0.355475 0.147806 0.0225164
0.35554 0.147935 0.0216147
0.355667 0.148042 0.0208222
0.355855 0.148126 0.020139
0.356105 0.148188 0.0195649
0.356479 0.148206 0.0192092
0.356975 0.148179 0.0190718
0.357472 0.148153 0.0189344
0.357969 0.148126 0.0187971
0.358465 0.148099 0.0186597
0.359024 0.14805 0.0186314
0.35952 0.148024 0.0184941
0.360017 0.147997 0.0183567
0.360513 0.14797 0.0182194
0.36101 0.147943 0.018082
0.361445 0.147939 0.0178354
0.361941 0.147912 0.0176981
0.362377 0.147908 0.0174515
0.362811 0.147903 0.0172049
0.363185 0.147921 0.0168492
0.363558 0.147939 0.0164935
0.36387 0.147978 0.0160285
0.364181 0.148018 0.0155637
0.364555 0.148036 0.015208
0.364866 0.148076 0.014743
0.36524 0.148094 0.0143873
0.365551 0.148134 0.0139224
0.365863 0.148174 0.0134574
0.366175 0.148214 0.0129925
0.366486 0.148254 0.0125276
0.366798 0.148293 0.0120627
0.367048 0.148356 0.0114887
0.367359 0.148396 0.0110237
0.367548 0.14848 0.0103404
0.367736 0.148564 0.00965725
0.367863 0.148671 0.00886475
0.367866 0.148822 0.00785396
0.367869 0.148973 0.00684317
0.368058 0.149057 0.00615987
0.368123 0.149186 0.0052583
0.368311 0.14927 0.00457498
0.368438 0.149377 0.00378255
0.368441 0.149528 0.00277174
0.36826 0.149745 0.00143342
0.367276 0.150252 -0.00132419
0.263261 0.151991 0.0579921
0.263942 0.151897 0.0581823
0.264686 0.151782 0.0584816
0.265491 0.151643 0.0588902
0.266357 0.151483 0.0594078
0.267162 0.151345 0.0598164
0.267659 0.151318 0.0596789
0.267909 0.151381 0.0591048
0.268467 0.151332 0.0590767
0.269087 0.15126 0.0591577
0.269522 0.151256 0.0589112
0.270265 0.15114 0.0592104
0.270762 0.151113 0.0590731
0.271381 0.151042 0.0591541
0.273913 0.150281 0.0626196
0.275149 0.149987 0.0637924
0.276078 0.149805 0.0644193
0.277067 0.1496 0.0651553
0.277996 0.149417 0.0657822
0.278986 0.149213 0.0665183
0.279729 0.149097 0.0668176
0.280472 0.148981 0.067117
0.281215 0.148865 0.0674162
0.28202 0.148727 0.0678249
0.282763 0.148612 0.0681241
0.283445 0.148518 0.0683143
0.284127 0.148424 0.0685045
0.284808 0.148331 0.0686947
0.28549 0.148238 0.0688849
0.28611 0.148166 0.0689658
0.28673 0.148095 0.0690468
0.287288 0.148046 0.0690186
0.287908 0.147975 0.0690996
0.288466 0.147926 0.0690714
0.289025 0.147877 0.0690432
0.289521 0.14785 0.0689058
0.290018 0.147823 0.0687685
0.290514 0.147796 0.0686312
0.291011 0.14777 0.0684937
0.291446 0.147765 0.0682472
0.291943 0.147739 0.0681098
0.292439 0.147712 0.0679725
0.292874 0.147707 0.0677259
0.293247 0.147725 0.0673701
0.293682 0.147721 0.0671236
0.294056 0.147738 0.0667679
0.294429 0.147756 0.0664121
0.294802 0.147774 0.0660563
0.295114 0.147814 0.0655915
0.295487 0.147832 0.0652357
0.295799 0.147872 0.0647708
0.296049 0.147934 0.0641967
0.296361 0.147974 0.0637318
0.296611 0.148036 0.0631577
0.296922 0.148076 0.0626928
0.297295 0.148094 0.0623371
0.297607 0.148134 0.0618722
0.297919 0.148174 0.0614072
0.298231 0.148214 0.0609423
0.298604 0.148232 0.0605866
0.298977 0.14825 0.0602309
0.299289 0.14829 0.059766
0.299724 0.148285 0.0595194
0.300097 0.148303 0.0591637
0.300594 0.148276 0.0590262
0.301152 0.148227 0.0589981
0.301772 0.148156 0.0590791
0.302515 0.14804 0.0593784
0.303382 0.14788 0.0598962
0.304248 0.147719 0.0604139
0.30493 0.147626 0.060604
0.305735 0.147488 0.0610125
0.306478 0.147372 0.0613118
0.30716 0.147279 0.0615021
0.308149 0.147074 0.0622381
0.308954 0.146936 0.0626466
0.309821 0.146776 0.0631643
0.310564 0.14666 0.0634637
0.311307 0.146544 0.063763
0.312112 0.146406 0.0641716
0.313147 0.146185 0.0649875
0.313874 0.146076 0.0652577
0.314717 0.145924 0.0657343
0.315444 0.145815 0.0660045
0.316112 0.145726 0.0661712
0.316781 0.145638 0.066338
0.317449 0.14555 0.0665047
0.318059 0.145482 0.0665682
0.318669 0.145415 0.0666316
0.319221 0.145368 0.0665917
0.319714 0.145343 0.0664485
0.320266 0.145296 0.0664086
0.320876 0.145229 0.066472
0.321428 0.145182 0.0664321
0.322038 0.145114 0.0664956
0.322531 0.145089 0.0663523
0.323025 0.145063 0.0662091
0.323576 0.145017 0.0661692
0.324128 0.144971 0.0661294
0.324679 0.144924 0.0660894
0.325231 0.144878 0.0660495
0.325724 0.144852 0.0659063
0.326218 0.144827 0.0657631
0.326653 0.144822 0.0655165
0.327146 0.144797 0.0653732
0.327581 0.144792 0.0651267
0.328016 0.144788 0.0648802
0.328451 0.144783 0.0646336
0.328886 0.144779 0.064387
0.329263 0.144795 0.0640372
0.329639 0.144812 0.0636873
0.330074 0.144807 0.0634407
0.330451 0.144824 0.0630908
0.330886 0.144819 0.0628443
0.331437 0.144773 0.0628044
0.331931 0.144747 0.0626612
0.332424 0.144722 0.0625179
0.332976 0.144675 0.062478
0.333411 0.144671 0.0622315
0.333904 0.144645 0.0620883
0.334339 0.144641 0.0618417
0.334774 0.144636 0.0615952
0.335209 0.144632 0.0613486
0.335644 0.144627 0.0611021
0.336137 0.144602 0.0609589
0.336572 0.144597 0.0607123
0.33689 0.144635 0.060259
0.337325 0.14463 0.0600125
0.337702 0.144647 0.0596627
0.338079 0.144663 0.0593128
0.338455 0.14468 0.0589629
0.338832 0.144696 0.0586131
0.339092 0.144755 0.0580565
0.33941 0.144792 0.0576033
0.339786 0.144809 0.0572534
0.340163 0.144825 0.0569035
