ply
format ascii 1.0
element vertex 1213
property float x
property float y
property float z
property uchar diffuse_red
property uchar diffuse_green
property uchar diffuse_blue
end_header
0.295983 0.0907973 -0.00619473 66 10 6
0.295938 0.0906983 -0.00636164 66 10 6
0.295594 0.090708 -0.00625744 67 10 5
0.295494 0.0905028 -0.00657747 67 9 5
0.295154 0.0905068 -0.00646417 68 9 5
0.295053 0.0902689 -0.00678556 70 9 5
0.294721 0.0902669 -0.00666891 70 10 6
0.294629 0.090019 -0.00697969 71 9 5
0.294297 0.0900112 -0.006865 71 9 5
0.294211 0.0897517 -0.00715542 72 9 6
0.293881 0.0897317 -0.00703856 73 10 6
0.293796 0.0894685 -0.00733626 74 10 6
0.293471 0.0894506 -0.00721325 74 11 6
0.293438 0.089349 -0.00732704 76 14 9
0.29314 0.0894263 -0.00709465 79 16 9
0.293111 0.0893083 -0.00721626 79 16 10
0.292814 0.0893951 -0.00697147 78 15 9
0.292773 0.0892739 -0.00710388 82 20 12
0.292408 0.0890879 -0.00713877 88 26 18
0.292379 0.0889468 -0.00727689 88 27 18
0.292014 0.0887718 -0.00729675 92 32 22
0.292338 0.0887934 -0.00742168 89 27 19
0.291932 0.0884857 -0.00758668 96 38 27
0.292263 0.0885023 -0.00770754 93 33 23
0.291848 0.0882197 -0.00789061 97 39 28
0.292183 0.0882235 -0.00799869 96 37 26
0.291795 0.0880647 -0.00806609 104 51 40
0.292097 0.0879659 -0.00829776 103 51 39
0.291759 0.0879774 -0.00819525 105 53 42
0.292033 0.0877871 -0.00852896 106 52 42
0.291654 0.0877686 -0.00850157 114 65 53
0.291921 0.0875879 -0.00885942 112 65 52
0.291575 0.0876895 -0.0087125 124 83 70
0.291495 0.0876477 -0.00889186 124 85 71
0.291115 0.0877602 -0.00885678 126 96 82
0.291413 0.0876353 -0.00911619 127 93 77
0.290938 0.0877021 -0.00926668 122 97 84
0.291219 0.0876145 -0.00952929 121 96 83
0.290879 0.087676 -0.00941385 124 105 89
0.291042 0.0875086 -0.0100009 126 106 88
0.290707 0.0875195 -0.00988424 121 104 89
0.290928 0.0873254 -0.0103582 128 111 92
0.290573 0.0872922 -0.0102946 124 111 92
0.290809 0.0870568 -0.0107473 124 111 93
0.290366 0.0875234 -0.00978839 125 107 91
0.290532 0.0877209 -0.00931715 124 106 91
0.290595 0.0877575 -0.00915478 122 104 89
0.290741 0.0878572 -0.008781 126 98 82
0.29085 0.0879137 -0.00852162 125 94 79
0.291273 0.0878555 -0.00845827 123 86 72
0.290975 0.0880293 -0.00816832 124 88 74
0.291341 0.0879275 -0.00828176 116 68 53
0.291448 0.0881073 -0.00795425 105 54 43
0.291552 0.0883456 -0.00761405 97 43 32
0.291598 0.0884626 -0.00746725 95 38 27
0.290467 0.0879583 -0.00850024 127 99 84
0.290081 0.0879556 -0.00850058 122 103 89
0.29019 0.0877273 -0.00921745 124 107 91
0.293552 0.0897155 -0.00691584 74 11 6
0.293967 0.0899984 -0.00673407 72 10 6
0.294389 0.090261 -0.00655423 70 9 5
0.294818 0.0904972 -0.00635749 69 9 5
0.295253 0.0907177 -0.00614186 66 9 5
0.298262 0.0921302 -0.00324269 16 4 0
0.297879 0.0921208 -0.00311873 17 5 0
0.297503 0.0921279 -0.00301086 21 4 0
0.297795 0.0918581 -0.00349464 22 5 0
0.297396 0.0918931 -0.00340895 25 5 0
0.297247 0.0916781 -0.00400161 29 5 2
0.296981 0.091544 -0.0044648 41 7 4
0.296784 0.0914002 -0.00498859 49 8 5
0.296615 0.0912323 -0.00546095 57 10 6
0.296472 0.091036 -0.00586571 63 10 7
0.296839 0.0910392 -0.00591822 61 9 6
0.297201 0.0910373 -0.00596856 61 10 6
0.296984 0.0912286 -0.00549857 56 9 5
0.297357 0.0912318 -0.00553665 54 9 5
0.297533 0.091382 -0.00505502 47 8 4
0.297478 0.0914895 -0.00469289 43 8 4
0.297363 0.0915449 -0.00448999 42 8 3
0.297646 0.0916638 -0.00404226 30 6 2
0.297152 0.0913887 -0.0050368 50 9 5
0.300001 0.0844423 -0.013803 98 48 39
0.300187 0.0844294 -0.0143192 103 62 57
0.300373 0.0842675 -0.013935 96 48 41
0.300545 0.0843038 -0.0144186 99 56 50
0.300761 0.0841435 -0.0140275 94 45 38
0.30033 0.0845831 -0.0148186 105 70 66
0.298658 0.0827836 -0.0175041 163 155 134
0.299397 0.0845517 -0.0159927 130 121 112
0.299879 0.0846599 -0.015735 121 104 102
0.300029 0.084756 -0.0154068 115 93 91
0.300241 0.0846862 -0.0149926 108 78 73
0.29715 0.0794344 -0.0152936 108 43 25
0.297377 0.0800469 -0.0153386 120 56 33
0.297656 0.0805261 -0.015415 138 76 45
0.297827 0.0810435 -0.0157044 141 94 62
0.297666 0.0813626 -0.0158931 134 101 77
0.297491 0.0816144 -0.0161754 128 108 88
0.297328 0.0818792 -0.016463 138 128 107
0.297186 0.0821894 -0.0166818 134 127 107
0.29737 0.082568 -0.0169965 152 144 121
0.29763 0.0830095 -0.0171004 165 158 134
0.297635 0.083418 -0.0169099 163 158 135
0.297981 0.0834462 -0.0170002 159 155 133
0.297681 0.083735 -0.0166827 156 150 129
0.298039 0.0837663 -0.0167488 152 148 129
0.297761 0.0840605 -0.01637 152 145 125
0.29812 0.0840985 -0.0164253 152 145 125
0.297836 0.084345 -0.0160823 145 136 120
0.298201 0.0843745 -0.0161451 145 137 121
0.297927 0.0846192 -0.0157772 139 132 119
0.29829 0.0846358 -0.0158369 134 126 115
0.298325 0.0847155 -0.0157233 133 126 116
0.298769 0.0848946 -0.0155174 127 117 110
0.298899 0.0850521 -0.0152004 123 103 97
0.298999 0.0850738 -0.0149728 114 86 80
0.299223 0.0849578 -0.014537 111 75 66
0.298988 0.0849323 -0.0141837 108 69 62
0.29871 0.0849787 -0.0138919 108 67 59
0.298826 0.0848749 -0.0136863 103 56 46
0.298484 0.0850208 -0.0135639 100 53 44
0.298954 0.0850162 -0.0132814 96 43 34
0.298603 0.0851989 -0.0131421 94 40 32
0.299026 0.0853522 -0.0129594 90 31 23
0.298649 0.0854466 -0.0128886 92 36 29
0.299071 0.0857166 -0.0126955 86 24 18
0.298707 0.0858091 -0.0126148 88 29 21
0.299135 0.0860568 -0.0124452 85 22 15
0.298763 0.0861225 -0.0123568 84 22 14
0.299188 0.0864092 -0.0121791 80 16 9
0.298825 0.0864597 -0.0120837 83 20 13
0.299246 0.0867263 -0.0119199 78 12 7
0.298886 0.0867881 -0.0118208 79 15 9
0.299313 0.0870486 -0.0116436 77 11 7
0.298958 0.0871052 -0.0115515 77 12 6
0.299374 0.0873809 -0.0113614 75 11 6
0.299011 0.0874371 -0.0112774 76 10 6
0.299435 0.0876954 -0.0110927 75 10 6
0.299068 0.0877661 -0.0110014 76 10 5
0.299512 0.0880018 -0.0107981 74 10 6
0.299147 0.0880557 -0.0107161 75 10 6
0.299593 0.0882669 -0.010502 75 10 6
0.299235 0.0883244 -0.0104172 75 10 6
0.299673 0.0885401 -0.0102045 74 10 6
0.299316 0.0885927 -0.0101212 73 10 6
0.29976 0.0887936 -0.00989766 73 10 5
0.299398 0.0888608 -0.00981667 72 10 5
0.299852 0.0890426 -0.0095963 73 10 6
0.299492 0.0891087 -0.00950684 72 9 6
0.299953 0.0892777 -0.00928527 73 10 6
0.29959 0.0893438 -0.00919432 73 10 6
0.29712 0.0800664 -0.0150818 107 44 27
0.297373 0.080559 -0.0151735 129 63 38
0.297552 0.0810528 -0.0154201 136 84 53
0.297402 0.0814053 -0.0155889 128 94 70
0.29721 0.081646 -0.0159031 128 106 87
0.297038 0.0818954 -0.0162086 125 113 96
0.296907 0.0822213 -0.0164298 125 120 102
0.29707 0.0825615 -0.016795 143 136 115
0.297315 0.0829686 -0.0169686 156 152 132
0.297109 0.0805842 -0.0149068 124 59 36
0.297287 0.0810902 -0.0151508 137 83 53
0.297001 0.0811066 -0.0149132 131 76 47
0.29713 0.0814316 -0.0153035 127 88 65
0.296936 0.0816734 -0.0156261 127 101 82
0.296774 0.0819362 -0.015923 123 108 91
0.29662 0.0822332 -0.0161679 125 120 102
0.296494 0.0825765 -0.0163382 126 127 110
0.296785 0.0825632 -0.0165743 129 129 111
0.296698 0.0829056 -0.0166343 140 138 121
0.297001 0.0829595 -0.0168098 153 150 129
0.296642 0.0833173 -0.0165953 157 151 129
0.296965 0.0834005 -0.0166907 159 154 132
0.29663 0.0836811 -0.0164561 154 149 129
0.296974 0.0836973 -0.016538 158 153 131
0.29667 0.0839958 -0.0162338 155 149 129
0.297033 0.0840048 -0.0162917 155 149 128
0.296748 0.0843081 -0.0159295 143 134 117
0.297118 0.0843349 -0.0159614 148 140 121
0.296842 0.0846125 -0.0156049 138 131 116
0.297204 0.0846139 -0.015665 139 133 118
0.296923 0.0848921 -0.0152999 132 129 115
0.297292 0.0848966 -0.0153508 138 132 117
0.297015 0.0851685 -0.0149745 135 130 115
0.297387 0.0851704 -0.0150243 128 122 110
0.297097 0.0853921 -0.0146875 127 118 108
0.29747 0.0853552 -0.0147447 127 113 103
0.297196 0.0855391 -0.0143926 123 105 95
0.29757 0.0854578 -0.0145044 124 102 93
0.297277 0.0855772 -0.0142423 119 97 92
0.297734 0.0854433 -0.0141668 121 94 85
0.297409 0.0855565 -0.013989 117 89 82
0.297636 0.0853674 -0.0135606 109 67 61
0.297274 0.0855042 -0.0134579 115 79 70
0.297448 0.0854464 -0.0130516 102 54 44
0.297104 0.0855599 -0.0128899 106 60 54
0.297529 0.0855915 -0.0127422 99 50 42
0.297195 0.0856548 -0.0126252 99 48 40
0.297611 0.0858745 -0.0124341 94 39 30
0.297264 0.0859329 -0.0123287 94 39 31
0.297695 0.0862676 -0.0120851 90 31 22
0.29735 0.0863139 -0.0119817 91 31 23
0.297764 0.0865874 -0.0118036 86 24 16
0.297416 0.0866133 -0.0117132 89 28 21
0.297831 0.0869015 -0.011532 81 19 12
0.297481 0.0869259 -0.011434 85 23 15
0.297528 0.0871527 -0.0112428 81 18 11
0.297137 0.0869456 -0.011328 85 23 15
0.297204 0.0872613 -0.01105 81 17 11
0.296799 0.086959 -0.0112161 88 27 19
0.296865 0.0872546 -0.0109402 84 21 14
0.29646 0.0869531 -0.011097 88 27 19
0.296527 0.0872477 -0.0108305 84 21 14
0.296126 0.0869434 -0.01099 88 27 19
0.296194 0.0872416 -0.0107135 86 25 17
0.295788 0.0869404 -0.0108701 89 30 22
0.295856 0.0872355 -0.0105935 87 25 17
0.295452 0.086938 -0.0107585 89 31 23
0.295527 0.0872255 -0.0104753 87 28 20
0.295117 0.0869375 -0.0106423 90 34 25
0.295195 0.087217 -0.010357 89 29 21
0.294784 0.0869374 -0.0105331 92 34 26
0.294861 0.0872134 -0.0102324 89 28 21
0.294499 0.0871027 -0.0102232 91 33 24
0.294526 0.0871964 -0.0101165 90 31 23
0.29417 0.0871114 -0.0100969 96 43 33
0.294191 0.0871952 -0.0100019 92 36 26
0.29384 0.087132 -0.00996714 97 44 35
0.293933 0.0874588 -0.00959573 91 32 23
0.29351 0.0871463 -0.00983758 98 46 38
0.293609 0.0874431 -0.00947864 93 34 25
0.29317 0.0871888 -0.00972064 106 58 46
0.29327 0.0874458 -0.00936524 97 45 36
0.292841 0.0872481 -0.00954817 106 60 49
0.292932 0.0874461 -0.00926348 100 47 38
0.29258 0.0874645 -0.00914713 107 59 48
0.29301 0.0877056 -0.00895939 94 37 27
0.292692 0.0877536 -0.00878961 101 45 35
0.293062 0.0879079 -0.00875939 93 34 25
0.292728 0.0878762 -0.00867001 95 37 27
0.292809 0.0881433 -0.00837805 94 34 24
0.29243 0.0879702 -0.00842029 96 38 27
0.29251 0.088245 -0.00811594 95 35 24
0.292363 0.0877467 -0.00866704 103 49 40
0.292267 0.0875027 -0.00899188 110 62 50
0.291783 0.0875094 -0.00922167 124 84 70
0.292094 0.0873911 -0.0094456 123 82 70
0.291597 0.087525 -0.00960907 123 94 80
0.291866 0.0874339 -0.00992125 122 93 79
0.291465 0.0875164 -0.00989644 123 99 84
0.29176 0.0874255 -0.0101398 122 97 82
0.291405 0.0874809 -0.0100651 122 100 85
0.291602 0.0873131 -0.0105631 118 100 83
0.291273 0.087337 -0.0104437 122 104 87
0.29149 0.0871148 -0.0109146 119 102 86
0.29115 0.0870911 -0.0108336 122 109 93
0.291375 0.0868195 -0.0112973 116 103 88
0.291041 0.0867952 -0.0111998 123 111 93
0.292463 0.087293 -0.00954032 121 79 66
0.292306 0.0872898 -0.00988604 124 88 73
0.292706 0.0871633 -0.00990329 119 79 68
0.292529 0.0871962 -0.0103123 121 86 71
0.293006 0.0870486 -0.0101857 117 77 64
0.292837 0.0871013 -0.0105544 122 87 73
0.29328 0.0869474 -0.010506 117 76 63
0.293026 0.087034 -0.0110165 116 87 74
0.293528 0.0868489 -0.0108457 116 75 63
0.293393 0.0869076 -0.0111096 117 84 72
0.293829 0.0867438 -0.0110983 115 75 65
0.293596 0.0868273 -0.0115497 114 86 75
0.293982 0.0867193 -0.01163 115 85 73
0.29375 0.0867088 -0.0120432 113 90 78
0.29411 0.0866385 -0.0121544 112 86 74
0.294026 0.0865615 -0.0123985 112 90 79
0.294373 0.0865074 -0.0125006 113 87 76
0.294271 0.086364 -0.0127957 112 94 82
0.294631 0.0863313 -0.0128639 114 90 79
0.294526 0.0861421 -0.0131965 114 98 87
0.294944 0.0862367 -0.013102 112 93 82
0.294891 0.0861511 -0.0132558 110 97 87
0.295235 0.086118 -0.0133615 112 97 87
0.295133 0.085919 -0.0136758 116 104 94
0.295485 0.0859135 -0.0137537 114 104 94
0.295412 0.0857269 -0.0139918 115 108 98
0.295772 0.0857491 -0.0140514 117 109 99
0.295676 0.0854478 -0.0143964 118 113 104
0.296109 0.0856936 -0.0141815 119 110 101
0.29602 0.0854138 -0.0145032 126 118 107
0.296374 0.0854173 -0.0145675 119 114 105
0.296294 0.0851519 -0.0148633 134 128 114
0.296647 0.0851661 -0.0149332 129 123 110
0.296567 0.0848868 -0.0152396 136 130 115
0.296737 0.0854243 -0.0146166 129 123 111
0.296832 0.0856114 -0.0143187 120 106 99
0.296905 0.0856773 -0.0141143 119 101 94
0.297023 0.0856798 -0.0139257 121 93 85
0.296465 0.0856571 -0.0142531 122 114 103
0.296582 0.0857788 -0.0139625 120 101 93
0.296611 0.0857929 -0.0138661 117 95 89
0.296896 0.0856577 -0.0133469 114 78 70
0.296236 0.0858663 -0.0138303 118 96 88
0.292149 0.0873207 -0.0102218 120 93 80
0.292057 0.0873184 -0.0103908 121 93 81
0.291929 0.0872671 -0.0106973 120 98 83
0.291824 0.0871154 -0.0110173 119 101 86
0.291726 0.0868652 -0.0113679 120 104 90
0.29207 0.086894 -0.0114464 116 99 87
0.291975 0.0865817 -0.0117941 115 106 92
0.292318 0.0866269 -0.011876 115 103 90
0.292225 0.0863144 -0.0122058 119 110 95
0.292626 0.0865714 -0.0120609 111 95 85
0.292567 0.0863538 -0.0122979 116 107 93
0.292966 0.0865842 -0.0121573 115 101 89
0.292879 0.0863301 -0.0124575 112 99 86
0.293224 0.0863468 -0.0125549 112 99 86
0.293145 0.0860713 -0.012848 115 102 90
0.293485 0.0860896 -0.0129367 113 104 90
0.293409 0.085826 -0.0132244 116 104 89
0.293757 0.0858479 -0.013307 113 100 88
0.293669 0.085555 -0.0136218 126 113 97
0.294026 0.085602 -0.0136837 114 102 88
0.293932 0.0852797 -0.0140251 137 125 106
0.294277 0.0853146 -0.0141168 130 118 101
0.294194 0.0850022 -0.0144135 138 128 109
0.294534 0.0850369 -0.0145148 140 130 111
0.294469 0.0847121 -0.0148089 142 134 117
0.294792 0.0847557 -0.0149247 135 128 110
0.294435 0.0844007 -0.0150218 141 133 118
0.294746 0.0844454 -0.0151715 144 136 117
0.294446 0.0841519 -0.0150978 142 134 119
0.294745 0.084096 -0.0153164 146 138 119
0.29452 0.0836958 -0.0151076 129 125 111
0.294797 0.0836401 -0.0153762 121 123 108
0.294575 0.0835117 -0.0150292 121 119 107
0.294826 0.083506 -0.0153331 115 116 104
0.295006 0.0831184 -0.0150479 114 113 99
0.295217 0.0831624 -0.0154578 110 113 100
0.295431 0.0827725 -0.0150937 123 116 99
0.295633 0.0828477 -0.0155575 109 115 103
0.295699 0.0827213 -0.0154479 127 119 100
0.295955 0.0826528 -0.0157827 120 118 104
0.296109 0.0823651 -0.015565 123 112 94
0.29636 0.0822772 -0.0158853 124 119 101
0.296515 0.0819611 -0.0156349 121 107 91
0.296215 0.082601 -0.0160897 123 124 108
0.296129 0.0828374 -0.0161975 128 131 116
0.296407 0.0828659 -0.0164323 131 131 114
0.296326 0.0832878 -0.0164496 147 144 128
0.29586 0.0828379 -0.015923 124 121 106
0.295746 0.0831686 -0.0160724 133 131 114
0.29602 0.0832397 -0.016279 142 141 121
0.295673 0.0835476 -0.0160836 148 141 123
0.295969 0.0836479 -0.0162281 148 143 124
0.295656 0.0839001 -0.0159732 155 146 126
0.295973 0.083924 -0.0160862 149 143 124
0.295686 0.0842162 -0.0157469 146 139 120
0.296029 0.0842431 -0.0158346 148 140 121
0.295755 0.0845323 -0.015458 137 129 113
0.296123 0.0845963 -0.0154743 141 134 116
0.295852 0.0848552 -0.0151078 136 128 113
0.296206 0.0848739 -0.0151759 139 131 116
0.295938 0.0851373 -0.0147987 137 129 114
0.29648 0.0846083 -0.015546 138 131 114
0.296387 0.084284 -0.0158883 144 136 117
0.296313 0.0839567 -0.0161705 151 145 127
0.296298 0.08364 -0.0163493 156 151 130
0.295466 0.0831606 -0.0157907 117 122 108
0.295383 0.0834878 -0.0158723 136 133 116
0.295103 0.0835161 -0.0156174 127 123 108
0.295347 0.0838523 -0.0158115 151 144 123
0.295048 0.0838348 -0.0156158 138 133 116
0.295052 0.0841066 -0.0155089 146 139 120
0.295075 0.0844842 -0.0152842 146 138 118
0.295361 0.0841931 -0.0156324 148 142 123
0.295407 0.084514 -0.0153827 143 135 117
0.295134 0.0847816 -0.0150121 134 127 109
0.294882 0.0850745 -0.014602 131 120 104
0.295232 0.0851058 -0.0146636 130 121 105
0.294964 0.0853831 -0.0142749 122 112 98
0.295312 0.0854162 -0.0143434 123 114 103
0.295059 0.0857041 -0.0139339 120 109 99
0.295586 0.0851314 -0.0147208 125 117 104
0.29549 0.0848163 -0.0150691 135 126 109
0.294622 0.085354 -0.0141924 124 112 98
0.294718 0.0856785 -0.0138484 120 109 98
0.294785 0.0859081 -0.0136006 114 101 92
0.294448 0.0858869 -0.0134967 116 104 94
0.294181 0.0861267 -0.0131041 114 96 86
0.294103 0.0858902 -0.0133819 110 97 86
0.293838 0.0861046 -0.0130148 112 95 86
0.294372 0.0856425 -0.0137693 114 102 90
0.293919 0.0863503 -0.0127155 112 97 87
0.293659 0.0865881 -0.0123173 109 88 78
0.293406 0.0867755 -0.0119345 114 90 79
0.29317 0.0869074 -0.0115584 114 90 78
0.29358 0.0863595 -0.0126296 108 93 82
0.293309 0.0865872 -0.0122489 111 95 84
0.293069 0.0868072 -0.0118263 113 92 80
0.292836 0.0869749 -0.0114367 115 94 82
0.292613 0.0871188 -0.0109953 118 92 79
0.292338 0.0872139 -0.0107058 119 91 78
0.292269 0.0871959 -0.0108557 121 98 83
0.292166 0.0871091 -0.0111087 114 97 84
0.292485 0.0870232 -0.0113114 118 97 84
0.292404 0.0869019 -0.0115405 114 96 84
0.292733 0.0868143 -0.0117331 114 99 87
0.291624 0.08655 -0.0117127 120 111 95
0.291886 0.0862748 -0.012115 121 113 99
0.291806 0.0859608 -0.0124246 133 127 111
0.291772 0.0856423 -0.0126517 144 139 122
0.292144 0.0860046 -0.0125149 123 116 101
0.292088 0.0856916 -0.0127885 135 130 112
0.292803 0.0872254 -0.00966506 108 62 51
0.293069 0.0870718 -0.0100321 119 77 64
0.293338 0.0869578 -0.0103525 119 78 65
0.293638 0.0868437 -0.0106241 117 76 63
0.297296 0.0833941 -0.0168153 158 154 133
0.297331 0.0837052 -0.0166101 159 154 132
0.2974 0.0840276 -0.0163261 152 145 123
0.297481 0.0843418 -0.0160143 144 136 118
0.297563 0.084619 -0.0157217 143 135 119
0.297655 0.084896 -0.0154118 134 128 116
0.298021 0.0848785 -0.0154776 133 126 115
0.297755 0.0851446 -0.0150865 128 120 109
0.298132 0.0851197 -0.0151356 123 107 101
0.297846 0.0853059 -0.0148 125 104 95
0.298277 0.085262 -0.0147585 122 97 88
0.297932 0.0853558 -0.0146139 126 104 93
0.298113 0.0853234 -0.0142409 112 79 72
0.297985 0.0852514 -0.0137139 111 70 63
0.298121 0.0851739 -0.0134279 104 61 54
0.297784 0.0853115 -0.0132184 102 56 47
0.29824 0.0853805 -0.0129818 97 45 37
0.297879 0.0854711 -0.0128906 97 45 36
0.298278 0.0855578 -0.0128041 92 37 29
0.297955 0.0857989 -0.0125495 92 35 28
0.298344 0.0858637 -0.0125372 91 34 25
0.297978 0.0859073 -0.0124589 91 32 24
0.298408 0.0861779 -0.0122642 87 26 17
0.298053 0.086239 -0.0121697 87 26 18
0.298473 0.0865084 -0.0119863 83 21 14
0.298119 0.0865517 -0.0118961 84 20 13
0.298532 0.0868327 -0.011723 79 14 9
0.298178 0.0868742 -0.0116291 81 18 12
0.298597 0.0871541 -0.01145 77 11 7
0.298243 0.0871903 -0.0113561 78 13 7
0.298653 0.0874809 -0.0111865 76 11 7
0.298298 0.0875179 -0.0110996 77 12 7
0.298711 0.0878125 -0.0109223 76 10 6
0.298365 0.0878454 -0.0108143 76 11 6
0.298791 0.0881003 -0.0106213 76 10 6
0.298444 0.0881296 -0.0105237 75 10 6
0.298874 0.0883706 -0.0103259 74 10 6
0.298524 0.0884056 -0.0102245 72 9 6
0.298955 0.0886432 -0.0100267 74 10 6
0.298604 0.0886822 -0.00993303 72 9 5
0.299046 0.0889038 -0.00973023 72 9 6
0.298691 0.0889359 -0.00963592 72 9 6
0.29913 0.0891564 -0.00942212 73 9 5
0.298767 0.0892058 -0.00933518 73 9 6
0.299228 0.0893983 -0.00910759 73 10 6
0.298865 0.0894512 -0.00902159 73 10 6
0.298964 0.0896656 -0.00870529 71 9 6
0.298725 0.0899176 -0.00828291 72 10 6
0.298367 0.0899514 -0.00818933 71 10 6
0.298131 0.0901954 -0.00775655 70 10 6
0.297889 0.0904114 -0.00731969 68 10 6
0.298006 0.0905783 -0.00698288 67 10 6
0.297651 0.0906232 -0.00688537 69 10 6
0.298358 0.0851098 -0.0137883 106 65 58
0.298512 0.0851766 -0.0142818 112 78 71
0.29887 0.0850614 -0.0144128 108 69 61
0.297896 0.0872237 -0.0112626 78 13 8
0.297953 0.0875511 -0.0109934 77 13 8
0.298019 0.0878574 -0.0107144 76 11 6
0.2981 0.0881388 -0.0104214 74 10 7
0.298181 0.0884202 -0.0101242 72 10 7
0.298233 0.0886402 -0.00990663 72 9 6
0.297881 0.0886225 -0.00983155 72 9 6
0.297954 0.0889004 -0.00954583 71 9 6
0.297606 0.088886 -0.00947289 72 9 6
0.297685 0.0891663 -0.00916998 71 9 5
0.297332 0.0891503 -0.00909261 72 9 6
0.297383 0.0893041 -0.00891508 70 10 6
0.297042 0.0893056 -0.00881289 72 10 6
0.297468 0.0895524 -0.00861125 71 9 6
0.297128 0.089563 -0.00850427 70 9 6
0.297572 0.0897856 -0.00830269 70 9 6
0.297227 0.0898049 -0.00819009 69 10 6
0.297669 0.0900129 -0.00798181 71 10 6
0.297322 0.0900287 -0.00788012 70 10 7
0.297778 0.0902199 -0.00765671 69 10 6
0.297431 0.0902422 -0.00755158 69 11 5
0.29754 0.0904377 -0.00722185 68 10 6
0.297189 0.090457 -0.00712374 70 10 6
0.296844 0.0904796 -0.00702046 70 10 6
0.298017 0.0899887 -0.0080884 71 10 6
0.297911 0.089774 -0.00840488 70 9 6
0.297812 0.0895368 -0.00872113 70 8 5
0.297724 0.0892909 -0.00902512 71 9 5
0.29804 0.0891765 -0.00923271 71 9 5
0.298331 0.0889749 -0.00953669 72 9 6
0.297591 0.0874548 -0.0109799 78 13 8
0.297656 0.0877584 -0.0107103 77 12 7
0.297733 0.0880483 -0.0104164 75 10 7
0.297757 0.0881451 -0.0103166 75 10 7
0.297834 0.0884329 -0.0100219 73 9 7
0.297493 0.0884449 -0.00991169 73 10 6
0.297531 0.0885997 -0.00975781 72 9 6
0.297181 0.0885771 -0.00967528 73 10 6
0.29726 0.0888726 -0.00938928 72 10 6
0.296909 0.088843 -0.00930698 72 9 6
0.296961 0.0890392 -0.00910291 72 10 6
0.29663 0.0890346 -0.0089938 72 10 6
0.296706 0.0893037 -0.00869847 71 10 6
0.296792 0.089566 -0.00839365 70 9 6
0.296881 0.0898167 -0.00808018 69 9 6
0.296985 0.0900363 -0.00776608 70 10 6
0.297085 0.09025 -0.00745137 69 9 5
0.296741 0.0902658 -0.00734156 69 9 6
0.296401 0.0902834 -0.00723369 70 10 6
0.2965 0.0904919 -0.00690961 68 9 6
0.296059 0.0902842 -0.00711873 68 9 5
0.296168 0.0904913 -0.00680325 67 9 5
0.295724 0.0902801 -0.00700992 69 9 5
0.295824 0.090498 -0.00668226 68 10 5
0.295384 0.0902754 -0.00689917 69 9 5
0.297244 0.087441 -0.010888 80 17 11
0.297312 0.0877308 -0.0106153 77 12 7
0.296962 0.0876915 -0.0105373 79 16 11
0.29704 0.0879985 -0.0102453 76 11 7
0.296694 0.0879751 -0.0101539 76 12 7
0.296766 0.0882693 -0.00987442 75 11 7
0.296423 0.0882357 -0.00978559 76 12 7
0.29649 0.0885354 -0.00950089 73 10 6
0.29615 0.0885043 -0.00941023 75 12 7
0.296224 0.088789 -0.00912293 72 10 6
0.29588 0.0887639 -0.00902475 73 11 7
0.296292 0.0890269 -0.00887566 72 10 6
0.295963 0.089047 -0.00873634 72 10 6
0.296372 0.0892924 -0.00859 72 11 6
0.29604 0.0892885 -0.00847389 72 10 6
0.296453 0.0895716 -0.00827857 71 10 6
0.296124 0.0895554 -0.00816514 72 10 6
0.296547 0.0898167 -0.00798006 70 9 5
0.296214 0.0898108 -0.00786391 71 9 6
0.296638 0.09005 -0.00765519 69 9 5
0.296305 0.0900528 -0.00754528 69 9 5
0.296565 0.0888189 -0.00921817 72 10 6
0.296833 0.0885585 -0.00958949 73 10 6
0.297114 0.0882903 -0.00995722 74 10 7
0.297418 0.0881578 -0.0102013 75 10 7
0.297391 0.0880275 -0.0103332 75 10 7
0.29842 0.0849565 -0.0154069 124 112 107
0.298475 0.0850457 -0.0152524 124 112 107
0.298632 0.0851677 -0.014888 124 100 91
0.296858 0.0814692 -0.0150311 126 75 51
0.296672 0.0817202 -0.0153578 124 95 74
0.296404 0.0817576 -0.0150244 131 94 68
0.296265 0.0820451 -0.0153349 119 105 92
0.295975 0.0821036 -0.0149857 127 107 84
0.295859 0.0824321 -0.0151959 122 114 98
0.295596 0.0825013 -0.0148376 122 106 87
0.295169 0.0828384 -0.0147658 110 111 98
0.294742 0.0831685 -0.0147402 119 119 104
0.294309 0.0834991 -0.0147042 118 121 110
0.294249 0.0836828 -0.0148049 122 123 111
0.293936 0.0837965 -0.0145999 132 129 112
0.293697 0.0836907 -0.0142647 123 124 109
0.293598 0.0841221 -0.0143705 131 130 116
0.293336 0.0840304 -0.0140999 132 129 114
0.293002 0.0843388 -0.0138655 131 129 116
0.292675 0.0847069 -0.0135929 142 137 121
0.292373 0.0850384 -0.0133067 146 141 124
0.292072 0.0852939 -0.0130017 144 140 123
0.294192 0.083899 -0.0148738 138 133 119
0.294148 0.084323 -0.0148278 147 138 120
0.293861 0.0842068 -0.0146249 142 135 121
0.293851 0.0846167 -0.0145204 146 137 118
0.294152 0.0846704 -0.0146678 142 134 117
0.29387 0.0849519 -0.0143167 145 134 113
0.293553 0.0845559 -0.0143305 147 135 118
0.297544 0.0773558 -0.0160642 89 16 7
0.297775 0.0778126 -0.0162303 91 20 9
0.298008 0.0783347 -0.0163708 96 29 16
0.298277 0.0788373 -0.0164439 102 37 22
0.297499 0.0778546 -0.0159567 92 20 8
0.297733 0.0783601 -0.0161112 97 30 16
0.297989 0.0788631 -0.0162142 102 37 22
0.298271 0.0793934 -0.0162182 107 47 29
0.298561 0.0800527 -0.0161846 131 72 46
0.29877 0.080604 -0.0163659 145 105 70
0.299051 0.0805907 -0.0165965 141 104 76
0.298922 0.0809566 -0.0167328 140 115 93
0.299194 0.080994 -0.0169984 141 116 97
0.298788 0.0812966 -0.0169108 141 124 102
0.299064 0.0813172 -0.0171378 139 123 103
0.298951 0.0816095 -0.0172784 144 131 111
0.299343 0.0814033 -0.017398 143 131 111
0.299234 0.0817216 -0.0174972 153 140 118
0.299495 0.0819971 -0.0176936 157 148 127
0.299835 0.0820558 -0.0177782 165 152 127
0.300141 0.0824957 -0.017763 167 158 134
0.300128 0.0828807 -0.0175994 162 154 133
0.299346 0.080557 -0.0168236 135 103 79
0.299514 0.0809255 -0.0171786 134 111 91
0.298634 0.0816023 -0.0171173 146 134 112
0.299122 0.0820682 -0.0176227 163 152 128
0.299402 0.082447 -0.0176955 168 158 134
0.299765 0.0824912 -0.0177486 166 157 134
0.299746 0.0828898 -0.0176082 164 155 134
0.258467 0.0766995 -0.0039253 115 111 100
0.305876 0.0744792 -0.0221518 77 8 3
0.299259 0.0747651 -0.0184638 85 11 7
0.29926 0.0751335 -0.0183025 85 13 7
0.299265 0.0755052 -0.0181446 84 13 6
0.299265 0.0758771 -0.0179851 83 13 7
0.299269 0.0762438 -0.0178368 85 14 7
0.29926 0.0766236 -0.0176924 83 16 7
0.30566 0.0744739 -0.0217674 80 10 4
0.275897 0.073889 -0.00145739 77 9 3
0.275971 0.0741982 -0.0011735 74 8 3
0.275652 0.0741358 -0.00102724 73 7 2
0.275717 0.0744085 -0.000776983 71 8 3
0.275399 0.0743422 -0.000632162 72 8 3
0.275483 0.0746252 -0.000343558 70 7 2
0.27557 0.0749032 -3.95605e-05 67 6 3
0.275793 0.0747001 -0.000489123 70 7 2
0.275867 0.0749946 -0.000190801 69 7 3
0.276093 0.0747809 -0.000637071 69 7 2
0.276165 0.0750738 -0.000356985 68 6 2
0.276409 0.0748548 -0.000786378 70 7 2
0.276479 0.0751633 -0.000509854 68 6 1
0.276715 0.074934 -0.000939067 72 8 3
0.276782 0.0752488 -0.000666468 69 7 2
0.277024 0.0750196 -0.00109918 71 6 3
0.277083 0.0753522 -0.000826962 68 6 2
0.27696 0.0746956 -0.00136583 73 7 3
0.276658 0.0746187 -0.00120725 71 7 3
0.276347 0.0745524 -0.00104894 73 8 3
0.276279 0.0742567 -0.00132343 75 9 3
0.27603 0.0744756 -0.000917234 71 7 2
0.276209 0.0739553 -0.00159871 76 9 3
0.276596 0.0743182 -0.00146885 75 8 3
0.299532 0.0748403 -0.0186827 84 12 7
0.299545 0.0752068 -0.0185122 83 13 7
0.299546 0.0754109 -0.0184194 84 14 7
0.299551 0.0757748 -0.0182548 83 14 7
0.299558 0.0761434 -0.0180894 83 14 7
0.299566 0.0763133 -0.0180139 85 15 7
0.299571 0.076679 -0.0178488 84 16 7
0.299873 0.076371 -0.0181644 81 15 7
0.299886 0.0767362 -0.0179836 82 16 8
0.300186 0.0764244 -0.0182996 79 14 7
0.299569 0.0770549 -0.0176915 83 18 7
0.299256 0.077 -0.0175497 83 18 8
0.305496 0.0744719 -0.0212755 82 11 6
0.305328 0.0746509 -0.0216146 84 11 6
0.305139 0.0746778 -0.0211354 85 12 7
0.304956 0.0748191 -0.0214676 84 11 6
0.282109 0.0741289 -0.00574834 89 12 6
0.281789 0.0743503 -0.00551323 89 13 6
0.282087 0.0744121 -0.0056932 89 12 6
0.282058 0.0748073 -0.00559909 91 12 6
0.282386 0.0745768 -0.00583582 89 12 5
0.282361 0.074865 -0.00576921 89 12 6
0.281478 0.0746612 -0.00522225 92 13 6
0.281767 0.0747336 -0.00541168 91 12 7
0.28175 0.0751164 -0.00530224 91 12 7
0.282041 0.0751866 -0.00549689 91 13 7
0.282021 0.0755706 -0.00538246 90 13 7
0.28231 0.0756403 -0.00557343 90 13 7
0.281998 0.0759493 -0.00526953 91 12 6
0.28229 0.0760215 -0.00546884 90 13 7
0.281985 0.0763417 -0.00515981 91 12 7
0.282276 0.0764046 -0.00535437 90 12 6
0.282259 0.0767888 -0.00523719 91 14 7
0.282545 0.0768598 -0.00543237 91 14 7
0.282535 0.0772423 -0.00530858 91 14 8
0.282816 0.0773149 -0.00551235 92 14 8
0.282802 0.0776928 -0.00539686 92 14 8
0.283098 0.077771 -0.00559758 92 14 8
0.283368 0.0782176 -0.00567133 93 14 7
0.283362 0.0785981 -0.0055495 93 14 7
0.283643 0.0790461 -0.00560866 93 14 7
0.28233 0.0752535 -0.00567667 90 12 7
0.281456 0.0750467 -0.00510775 91 12 7
0.281728 0.0755013 -0.00518604 91 12 7
0.299814 0.074916 -0.018896 83 12 7
0.299823 0.0751381 -0.0187832 83 13 7
0.299838 0.0754946 -0.0186012 80 13 7
0.300085 0.0748796 -0.0191726 82 12 7
0.300112 0.0752308 -0.018976 81 12 7
0.299045 0.0706836 -0.000389802 91 32 15
0.310647 0.0700901 -0.00476873 143 131 113
0.310498 0.0701786 -0.00508059 142 126 108
0.310917 0.0703224 -0.00496715 143 130 112
0.310801 0.0703762 -0.00520721 145 127 110
0.311071 0.070615 -0.00538421 146 129 111
0.310563 0.0706201 -0.00563729 142 120 102
0.310867 0.0707946 -0.00575839 141 120 100
0.310474 0.0707386 -0.00577528 139 112 92
0.310654 0.0710886 -0.00611598 138 111 92
0.310289 0.0710588 -0.00605194 137 111 91
0.310422 0.0714746 -0.0064705 132 97 76
0.310108 0.0714477 -0.00630183 130 96 75
0.31025 0.07188 -0.00668603 125 87 64
0.309941 0.0718741 -0.00652996 126 85 61
0.310067 0.0722672 -0.00696245 126 86 61
0.309755 0.0723414 -0.00677527 119 70 48
0.30987 0.0727185 -0.00721332 122 74 52
0.309596 0.0726825 -0.00699739 119 70 46
0.309387 0.0729088 -0.00720842 112 57 36
0.30919 0.0726982 -0.00698098 115 57 34
0.309138 0.0729025 -0.00744675 105 45 25
0.308937 0.0726664 -0.00721874 101 39 22
0.310262 0.0704447 -0.00549204 142 120 101
0.310034 0.0708501 -0.0058348 130 97 78
0.309974 0.0709763 -0.00592865 131 97 78
0.309803 0.0714181 -0.00614007 132 96 74
0.309629 0.0718917 -0.00635301 124 77 56
0.300364 0.074971 -0.0193806 81 12 6
0.300397 0.075311 -0.0191653 79 12 7
0.300138 0.0755736 -0.0187772 80 13 7
0.299851 0.0758514 -0.018424 82 14 7
0.300647 0.0750684 -0.0195721 79 12 7
0.300689 0.0753934 -0.0193506 78 12 7
0.300731 0.0757231 -0.0191092 77 13 6
0.300431 0.0756476 -0.0189445 79 13 7
0.300463 0.0759859 -0.018735 79 14 7
0.300153 0.0759214 -0.0185846 79 13 7
0.300178 0.0762664 -0.0183908 80 15 7
0.299864 0.0762101 -0.0182461 82 15 7
0.300497 0.076318 -0.0185212 77 14 6
0.300778 0.0760393 -0.0188712 77 13 6
0.301046 0.0757725 -0.0192597 77 14 7
0.3013 0.0755228 -0.0196652 75 13 6
0.300987 0.0754656 -0.019518 77 13 7
0.300937 0.0751514 -0.0197637 78 12 6
0.31077 0.0701023 -0.00451321 143 131 112
0.311034 0.0703188 -0.00471136 142 132 113
0.311273 0.0705596 -0.00495507 146 133 115
0.31146 0.0708245 -0.00533062 148 134 113
0.311229 0.0709441 -0.00576067 149 132 113
0.311739 0.0711309 -0.00547905 148 136 116
0.311512 0.0712309 -0.00592914 151 135 115
0.311934 0.0715241 -0.00580046 144 134 117
0.311751 0.0715702 -0.00613371 143 134 116
0.312122 0.0719271 -0.00608836 146 135 116
0.311976 0.071948 -0.00636575 143 133 116
0.312267 0.07235 -0.0064064 148 135 114
0.312147 0.0723335 -0.00661384 146 132 112
0.312318 0.0727066 -0.00679034 143 131 111
0.311987 0.0724995 -0.00701714 149 134 115
0.312206 0.0729445 -0.00724079 150 135 114
0.311771 0.0726923 -0.00745439 152 131 109
0.311963 0.0730838 -0.00772679 153 135 111
0.311529 0.0729261 -0.00787466 155 131 101
0.311782 0.0732589 -0.00807272 157 136 107
0.311276 0.0732238 -0.00831422 153 126 96
0.311652 0.0734167 -0.00836015 157 129 98
0.311461 0.0735798 -0.00864404 158 122 91
0.311792 0.0738389 -0.00870751 163 140 112
0.31139 0.0736703 -0.00878309 156 120 89
0.311591 0.0740173 -0.00906978 162 133 102
0.311263 0.0738137 -0.00898299 143 100 70
0.311102 0.0740274 -0.00928419 142 97 67
0.31077 0.0739361 -0.00914432 125 82 57
0.310958 0.0742249 -0.00954269 142 97 67
0.310609 0.0741641 -0.00945729 127 78 54
0.310766 0.0745174 -0.00989238 138 91 63
0.310456 0.0743756 -0.00975298 125 74 49
0.310281 0.0746068 -0.0100895 132 76 53
0.309988 0.0743956 -0.00999096 126 65 42
0.309902 0.0744944 -0.0101881 122 57 35
0.309703 0.0741457 -0.00988678 115 48 27
0.309564 0.0742716 -0.0102454 117 50 28
0.309564 0.0740889 -0.00998051 116 48 27
0.30951 0.074368 -0.0104555 117 51 29
0.309355 0.0740227 -0.0102608 112 43 22
0.309646 0.0745981 -0.0105485 127 62 41
0.309738 0.0746802 -0.0105501 126 61 40
0.309966 0.074999 -0.0107127 135 78 54
0.30998 0.0749929 -0.0106903 134 77 53
0.310253 0.0752431 -0.0108207 143 88 62
0.310419 0.0750074 -0.010517 140 88 61
0.310738 0.0751933 -0.0106159 150 104 73
0.310915 0.0749431 -0.0103231 147 100 70
0.311152 0.075267 -0.0105447 157 117 84
0.311313 0.0750342 -0.0102508 161 124 90
0.311532 0.0754405 -0.0104775 170 146 115
0.311564 0.0751 -0.0101718 167 140 107
0.311605 0.0755334 -0.0105052 170 147 117
0.311858 0.0754044 -0.0101901 171 150 123
0.311869 0.0758493 -0.0104984 179 163 136
0.312063 0.0757237 -0.0101772 173 161 137
0.312048 0.0761802 -0.0104492 173 165 145
0.312212 0.0760618 -0.0101189 169 161 143
0.312165 0.0765119 -0.0103717 173 166 146
0.312303 0.0763962 -0.0100244 168 162 143
0.312339 0.0767263 -0.00992906 164 159 142
0.31243 0.0762765 -0.00966296 165 158 140
0.312454 0.0766124 -0.0095587 159 153 137
0.312541 0.0761557 -0.00930046 160 151 134
0.312572 0.0764947 -0.00920043 153 145 129
0.312653 0.0760369 -0.00893484 157 149 131
0.312684 0.0763709 -0.00883503 150 141 127
0.312788 0.0762513 -0.00846921 147 135 120
0.312779 0.0765884 -0.00835994 140 124 111
0.31286 0.0761343 -0.00807877 144 130 115
0.312815 0.076472 -0.0079554 135 119 107
0.31287 0.0760158 -0.00768969 140 123 108
0.312862 0.0763596 -0.00757889 129 112 101
0.312891 0.075905 -0.0072964 129 113 101
0.312883 0.0762421 -0.00718716 118 101 93
0.312886 0.0757875 -0.00689024 119 104 92
0.312864 0.0761266 -0.00677256 109 91 83
0.312831 0.0756841 -0.00643515 111 92 83
0.312777 0.0760403 -0.00637271 97 77 72
0.31264 0.0759175 -0.00598306 90 66 61
0.31268 0.0763636 -0.00622419 87 65 62
0.312594 0.0763049 -0.00590796 84 59 55
0.312443 0.0766875 -0.00607701 79 49 43
0.312235 0.0765725 -0.00563031 74 41 34
0.312161 0.077012 -0.00587477 73 37 33
0.311985 0.0768969 -0.0054507 71 32 25
0.311911 0.0773491 -0.00569665 73 29 23
0.311831 0.0772218 -0.00529366 69 28 21
0.311775 0.077671 -0.00556789 75 30 25
0.311775 0.0775543 -0.00517228 72 28 24
0.311776 0.0780045 -0.00545302 70 24 19
0.311789 0.0778827 -0.00505604 69 27 23
0.311826 0.0783307 -0.00534852 73 26 23
0.311821 0.0782145 -0.00494804 72 27 23
0.311857 0.0786621 -0.00520607 73 25 20
0.311832 0.0785413 -0.00482786 70 25 20
0.311822 0.078897 -0.00474404 70 22 17
0.311798 0.0788435 -0.00457113 67 20 16
0.311789 0.0792314 -0.00463113 67 16 11
0.311773 0.0791007 -0.0044559 67 16 11
0.311755 0.0795088 -0.00450413 64 13 9
0.3117 0.0792909 -0.00389971 64 16 11
0.31167 0.0796951 -0.00393276 63 11 7
0.311627 0.0794753 -0.00335318 63 13 8
0.311594 0.0798886 -0.00337474 63 10 6
0.311566 0.0796137 -0.00282598 64 11 6
0.311557 0.0800336 -0.00287227 63 10 5
0.311572 0.0797516 -0.00237102 59 8 4
0.311574 0.0801662 -0.00241443 56 6 2
0.311631 0.0798803 -0.00194301 53 5 2
0.311626 0.0802981 -0.00196017 50 4 1
0.311716 0.0800001 -0.00150921 48 4 1
0.311725 0.0803705 -0.00153138 46 2 0
0.311839 0.0802685 -0.00118026 39 0 0
0.311828 0.0806535 -0.00120906 38 0 0
0.311977 0.0804816 -0.000845313 30 0 0
0.311952 0.0807384 -0.000870381 28 0 0
0.312163 0.0807691 -0.000555039 15 1 0
0.311894 0.0810481 -0.000944511 24 0 0
0.312054 0.0811901 -0.000543221 11 1 0
0.311838 0.0814841 -0.000903851 20 0 0
0.31193 0.0815955 -0.000536332 8 1 0
0.311763 0.0818775 -0.000881762 14 0 0
0.311854 0.0819486 -0.000545408 6 0 0
0.311664 0.0822679 -0.000829401 9 0 0
0.311837 0.0822889 -0.000467211 4 0 0
0.311575 0.0826429 -0.000782526 8 0 0
0.311732 0.0827086 -0.000483564 1 0 0
0.311491 0.0830409 -0.000740058 5 0 0
0.311672 0.0831171 -0.000464485 0 0 0
0.311406 0.0834234 -0.000701752 2 0 0
0.311591 0.0834849 -0.000445067 0 0 0
0.311326 0.0837639 -0.000663515 0 0 0
0.311392 0.0838872 -0.000559287 0 0 0
0.311217 0.0839906 -0.000769295 0 0 0
0.31141 0.0842406 -0.000473594 0 0 0
0.311227 0.0843136 -0.00066794 0 0 0
0.311238 0.0846486 -0.00056104 0 0 0
0.311191 0.0845714 -0.000642649 0 0 0
0.310998 0.0847563 -0.000818158 0 0 0
0.31097 0.0845628 -0.000909888 0 0 0
0.310907 0.0849771 -0.000913814 0 0 0
0.310789 0.0845492 -0.00120055 0 0 0
0.310827 0.0854526 -0.00088663 0 0 0
0.311012 0.0850963 -0.000721317 0 0 0
0.311013 0.0854306 -0.000614391 0 0 0
0.311221 0.0853207 -0.000315402 0 0 0
0.310965 0.0857438 -0.000450241 0 0 0
0.311199 0.08563 -0.000149606 0 0 0
0.310923 0.0860554 -0.00026509 0 0 0
0.311166 0.0859349 4.13485e-05 0 0 0
0.310864 0.0863642 -7.56598e-05 0 0 0
0.311123 0.0862534 0.000214938 0 0 0
0.310794 0.0866765 0.000122531 0 0 0
0.311084 0.086572 0.000386478 0 0 0
0.311045 0.086875 0.000557971 0 1 0
0.311405 0.0867758 0.000771704 0 5 0
0.311407 0.0871174 0.000935875 0 5 0
0.311744 0.08705 0.00106624 1 9 0
0.311252 0.0849859 -0.000447656 0 0 0
0.311515 0.0845438 -0.000274886 0 0 0
0.311734 0.0841133 -0.00013511 0 0 0
0.311685 0.0837946 -0.000272831 0 0 0
0.311999 0.0836681 4.91792e-05 0 0 0
0.311947 0.0833856 -0.00010366 0 0 0
0.312252 0.0832795 7.36206e-05 0 0 0
0.311945 0.0830794 -0.000184322 0 0 0
0.31229 0.0829449 3.26108e-06 1 0 0
0.311956 0.0827583 -0.000243407 0 0 0
0.312318 0.0825522 -5.19523e-05 2 0 0
0.311964 0.0824319 -0.0002921 4 0 0
0.312178 0.0822107 -0.000176791 3 1 0
0.312124 0.0818667 -0.000291289 10 4 1
0.311674 0.083454 -0.000360443 0 0 0
0.31153 0.0852009 -2.74107e-05 0 0 0
0.31153 0.0848692 -0.00015524 0 0 0
0.311795 0.0847624 0.000110648 0 0 0
0.311736 0.0844472 -4.51042e-05 0 0 0
0.312042 0.0843398 0.000222076 0 0 0
0.312049 0.0839888 0.000164363 0 0 0
0.312329 0.083588 0.000215961 0 0 0
0.312601 0.0831968 0.000244935 0 0 0
0.312651 0.0828441 0.000160932 6 3 0
0.312733 0.0824614 0.000102428 6 3 0
0.312575 0.0821582 -2.94771e-05 8 4 0
0.31301 0.0820622 -2.90726e-05 11 7 0
0.312866 0.0817598 -0.000146214 7 2 0
0.313447 0.0819337 -9.90731e-05 8 3 0
0.313151 0.0813114 -0.000284227 11 4 1
0.313388 0.0816069 -0.000240558 9 4 1
0.313527 0.0814658 -0.000369238 12 6 3
0.313644 0.0817042 -0.000308995 9 5 2
0.313783 0.0815818 -0.000406955 10 14 11
0.313918 0.0819027 -0.000275281 12 8 6
0.31419 0.0816824 -0.000460594 13 22 20
0.314383 0.0820661 -0.000329981 12 16 16
0.314571 0.08174 -0.000484233 21 29 26
0.314881 0.0816852 -0.000463351 24 38 37
0.315056 0.0814196 -0.000415666 41 57 54
0.315387 0.0813155 -0.000231253 58 79 78
0.315013 0.0811019 -0.000445235 56 66 61
0.315364 0.0809419 -0.000307301 77 89 80
0.314963 0.080747 -0.000505961 67 73 65
0.315362 0.0806021 -0.000381752 89 93 82
0.31511 0.0804535 -0.00052271 71 75 65
0.31539 0.0802559 -0.000391859 83 84 75
0.315107 0.0801749 -0.000512146 74 75 67
0.315434 0.0800985 -0.000341631 95 95 87
0.315105 0.0799503 -0.000444017 77 78 71
0.315429 0.0799244 -0.000262265 97 97 89
0.315115 0.0797258 -0.00034388 83 82 75
0.315422 0.0797401 -0.000204258 98 97 89
0.315306 0.079422 -4.74711e-05 100 101 91
0.315631 0.0797167 3.39859e-05 119 121 109
0.315571 0.0794314 0.000186787 125 126 113
0.315806 0.0797573 0.000358788 129 133 120
0.315722 0.0793623 0.000503636 138 140 124
0.315793 0.0795329 0.000521711 137 139 123
0.31581 0.0794625 0.000663409 138 139 124
0.315727 0.0811165 9.72702e-06 88 101 94
0.315665 0.0807955 -0.000128358 89 101 95
0.31568 0.0804808 -0.000163977 104 107 97
0.315699 0.0801541 -7.93458e-05 115 114 104
0.314238 0.0824456 -7.8382e-05 19 13 5
0.314358 0.0827879 0.000121128 15 9 4
0.314277 0.0830339 0.000370689 7 7 2
0.314226 0.0833009 0.000654713 6 11 5
0.314217 0.0835652 0.000922352 4 11 2
0.314198 0.0838515 0.0011709 3 12 5
0.314227 0.0841528 0.00139094 2 10 2
0.31385 0.084232 0.00125511 3 10 0
0.313864 0.084546 0.00141948 4 10 0
0.313473 0.0842981 0.00117637 0 8 0
0.313477 0.0846141 0.00132423 2 8 0
0.313124 0.0846976 0.00115699 0 7 0
0.313146 0.0850193 0.00128328 3 9 0
0.312763 0.0847818 0.000981145 1 6 0
0.31274 0.0851168 0.0010947 2 8 0
0.312429 0.0848689 0.000777102 0 5 0
0.31243 0.0851964 0.000909417 0 5 0
0.312066 0.0849816 0.000525283 0 2 0
0.312059 0.0853108 0.000658776 0 4 0
0.311774 0.0854087 0.00040323 0 2 0
0.311731 0.0857235 0.000584104 0 2 0
0.31145 0.0858259 0.000315099 0 1 0
0.31143 0.0861456 0.00046124 0 1 0
0.313502 0.0849371 0.0014484 5 10 0
0.313166 0.0853542 0.00137697 3 11 0
0.312778 0.0854488 0.00119462 2 10 0
0.312446 0.0855241 0.00103655 0 6 0
0.312801 0.0857831 0.00128013 4 9 0
0.312467 0.0858557 0.00113436 2 7 0
0.31288 0.0861135 0.00136308 6 12 1
0.312471 0.086209 0.00119351 4 11 0
0.312556 0.086537 0.00127012 3 10 0
0.312084 0.0866281 0.00113401 1 9 0
0.313213 0.0857016 0.00142717 6 11 0
0.312061 0.0856305 0.000810874 0 3 0
0.312074 0.0859587 0.000932163 0 3 0
0.312072 0.0862998 0.00102967 1 9 0
0.311756 0.0863777 0.000851172 0 6 0
0.311749 0.0867069 0.000971305 0 7 0
0.311423 0.086461 0.000609851 0 1 0
0.311748 0.0860485 0.000721604 0 2 0
0.312444 0.0818983 -0.000141191 4 2 0
0.312571 0.081536 -0.000223537 14 8 2
0.31221 0.0814365 -0.00030788 4 1 0
0.312577 0.0810395 -0.000336588 6 1 0
0.311497 0.085514 0.000141167 0 1 0
0.311774 0.0810241 -0.00137362 35 0 0
0.311756 0.0814229 -0.00129264 34 0 0
0.311628 0.0813916 -0.00166333 42 1 0
0.311584 0.0817868 -0.00165415 38 0 0
0.311456 0.0817465 -0.002017 47 2 0
0.311382 0.0821391 -0.00199281 47 2 0
0.311271 0.0820997 -0.00236483 52 4 2
0.311172 0.082494 -0.00232448 52 4 2
0.311066 0.0824586 -0.00270318 51 5 2
0.310929 0.0828548 -0.00261737 48 4 2
0.310814 0.082811 -0.00300001 49 5 3
0.310653 0.0832031 -0.00288739 47 5 3
0.310559 0.0831154 -0.00328421 51 5 3
0.310776 0.0832475 -0.00251654 42 3 2
0.311049 0.082893 -0.00225431 47 3 2
0.311302 0.0825333 -0.00195837 44 2 0
0.31153 0.0821801 -0.00163993 35 0 0
0.311686 0.08183 -0.00127069 32 0 0
0.311609 0.0822286 -0.00123902 26 0 0
0.311491 0.0826148 -0.00118394 22 0 0
0.311382 0.0830032 -0.00111642 15 0 0
0.311253 0.0833992 -0.00103931 10 0 0
0.311139 0.0837654 -0.000963055 4 0 0
0.311429 0.0825768 -0.00159479 30 0 0
0.311317 0.0829674 -0.00153117 25 0 0
0.311168 0.0833609 -0.00143578 18 0 0
0.311023 0.0837783 -0.00135188 8 0 0
0.311059 0.084179 -0.000958461 0 0 0
0.31089 0.0841739 -0.00129725 0 0 0
0.311006 0.0834559 -0.00178648 29 0 0
0.310901 0.0832969 -0.00214677 39 2 1
0.311195 0.0829311 -0.00190615 39 1 0
0.311069 0.0833067 -0.00181382 31 0 0
0.310964 0.0712524 -0.00623855 145 121 99
0.310732 0.0715935 -0.00660981 132 100 78
0.310512 0.0719674 -0.00695084 130 90 67
0.310368 0.0722484 -0.00714975 129 89 66
0.310194 0.0726523 -0.00738813 121 76 54
0.310516 0.0726132 -0.00755819 127 83 60
0.310342 0.0730204 -0.00779293 127 82 59
0.310731 0.0728555 -0.00786117 130 91 66
0.31066 0.0729846 -0.0079838 131 90 65
0.311039 0.0729459 -0.00804999 145 111 80
0.310957 0.0730586 -0.00814505 137 98 70
0.310798 0.0733475 -0.00842253 130 88 62
0.311118 0.0734282 -0.00857233 143 107 78
0.310629 0.0736447 -0.00868144 129 86 60
0.310955 0.0736946 -0.00884016 138 98 69
0.311261 0.0726301 -0.00765335 152 122 93
0.31092 0.0724895 -0.00758559 140 103 76
0.310693 0.072257 -0.00730455 136 94 70
0.311539 0.0723379 -0.00721232 153 129 105
0.311146 0.072206 -0.00724031 144 110 85
0.311351 0.0719402 -0.00687476 146 120 99
0.310849 0.0720264 -0.00708805 140 104 81
0.31105 0.0717238 -0.00673108 146 120 98
0.311776 0.0720962 -0.00678535 152 132 108
0.311532 0.0717386 -0.00655728 148 127 105
0.311263 0.0714534 -0.00636793 145 123 101
0.310045 0.0729916 -0.00760338 117 67 44
0.309888 0.0733177 -0.00784208 119 69 45
0.31018 0.0733846 -0.00804538 119 70 47
0.3097 0.0735589 -0.00818717 113 60 39
0.30999 0.0736768 -0.00835937 115 64 42
0.309545 0.0737012 -0.00856273 110 50 30
0.309831 0.0738719 -0.00867938 113 57 35
0.309798 0.0738762 -0.00870077 115 58 35
0.30968 0.0739419 -0.00902217 107 47 27
0.309544 0.0738796 -0.00895593 107 45 25
0.309552 0.0739101 -0.0094042 112 48 27
0.309367 0.0737755 -0.00927006 109 40 22
0.309225 0.0736298 -0.00959888 105 36 18
0.309075 0.0733184 -0.009411 100 31 15
0.308961 0.0731523 -0.00977084 96 25 11
0.308944 0.0729759 -0.00924188 94 26 12
0.308835 0.072809 -0.00960118 91 20 9
0.308812 0.0726451 -0.00906032 89 21 9
0.308715 0.0724685 -0.00943444 86 18 7
0.308667 0.07232 -0.00888333 85 16 7
0.308582 0.0721318 -0.00926301 81 14 5
0.309098 0.0734881 -0.00995004 101 30 13
0.309199 0.0736888 -0.0100701 107 36 18
0.309439 0.0739066 -0.00984075 110 42 23
0.309833 0.0740871 -0.00950069 114 51 30
0.310138 0.0742514 -0.00963124 118 61 39
0.310294 0.0740978 -0.00929653 120 68 45
0.309977 0.0740352 -0.00915506 118 59 36
0.310122 0.0739191 -0.00884179 120 69 47
0.310437 0.0739203 -0.00899461 126 79 53
0.295287 0.074487 -0.0134938 79 7 2
0.295249 0.0747345 -0.0134897 79 8 2
0.295016 0.0748356 -0.0131031 82 9 3
0.29523 0.0748779 -0.0134809 79 8 2
0.29495 0.0752209 -0.0131013 81 9 3
0.29517 0.07528 -0.0134524 80 8 2
0.295117 0.0756723 -0.013421 83 9 4
0.295351 0.075724 -0.0137394 82 10 3
0.295307 0.076118 -0.013685 82 10 3
0.295062 0.0760657 -0.0133846 84 10 4
0.294825 0.0760124 -0.013053 82 9 3
0.29489 0.0756223 -0.0130739 81 9 3
0.294667 0.0755694 -0.0126987 82 9 4
0.294594 0.0759603 -0.0126947 82 9 4
0.294381 0.0759124 -0.0123289 82 10 4
0.294313 0.076316 -0.0123378 83 10 4
0.294139 0.0760465 -0.0119543 84 9 4
0.294098 0.0762585 -0.0119655 84 10 4
0.293919 0.0760648 -0.0115447 85 10 4
0.293847 0.0764677 -0.0115789 84 10 4
0.293704 0.0761027 -0.0110926 86 10 4
0.293623 0.0764988 -0.0111368 85 10 4
0.293503 0.0761563 -0.0106267 86 10 4
0.293409 0.0765405 -0.0106663 86 11 4
0.293295 0.0761895 -0.0101631 86 9 2
0.293213 0.0765827 -0.0102259 84 9 3
0.293034 0.0764533 -0.00980099 85 10 3
0.292945 0.0768428 -0.00987493 85 9 2
0.292776 0.0766283 -0.00944171 83 7 1
0.292679 0.0770118 -0.00951666 83 7 1
0.292446 0.0770096 -0.00919793 81 6 0
0.292591 0.0773915 -0.00958008 82 7 1
0.292353 0.0773932 -0.00927544 81 6 0
0.29249 0.0777751 -0.00965302 81 7 0
0.292255 0.0777711 -0.00936087 81 6 1
0.292148 0.078145 -0.00945107 82 7 1
0.29186 0.0781167 -0.00923824 81 7 1
0.291748 0.0784869 -0.00934887 81 8 1
0.291452 0.0784493 -0.00915313 83 8 2
0.291347 0.0788175 -0.00925579 83 9 2
0.291144 0.0783984 -0.00900092 83 8 3
0.291044 0.0787715 -0.00908705 84 9 3
0.290818 0.0783416 -0.00886596 84 9 3
0.290719 0.078718 -0.00894442 85 9 3
0.290495 0.0782833 -0.00875267 86 10 4
0.290396 0.0786584 -0.00883048 85 10 4
0.290164 0.0782167 -0.00864869 86 10 5
0.290067 0.0785979 -0.00871371 86 10 5
0.289737 0.0785279 -0.00860373 86 10 4
0.289664 0.0789208 -0.00863481 86 10 5
0.289341 0.0788625 -0.00850393 86 10 5
0.289637 0.07907 -0.00863761 87 11 5
0.289317 0.0790146 -0.00850707 86 11 5
0.289573 0.0794588 -0.00863408 87 12 5
0.289262 0.0794076 -0.00849102 89 12 5
0.289511 0.0798665 -0.00861419 89 12 5
0.289202 0.079809 -0.00846357 89 13 5
0.289151 0.0802032 -0.00843268 91 15 6
0.288889 0.0797601 -0.00830838 90 13 6
0.288841 0.0801482 -0.00826161 90 14 6
0.28858 0.0797006 -0.00814901 89 13 6
0.28853 0.080095 -0.00809703 91 15 7
0.288273 0.0796454 -0.00799613 90 13 6
0.28823 0.0800404 -0.00792448 91 14 6
0.287938 0.0798773 -0.00777907 91 13 7
0.287887 0.0803757 -0.00770626 92 15 7
0.29403 0.0766533 -0.0119627 84 10 4
0.293746 0.0769967 -0.0115911 84 11 3
0.293457 0.0772896 -0.0111954 84 11 4
0.293377 0.0777374 -0.0112139 85 11 3
0.293234 0.0773222 -0.0107607 85 10 3
0.293161 0.0777088 -0.0107909 85 10 3
0.293027 0.0773496 -0.0103436 85 9 2
0.292941 0.0777455 -0.0103756 84 10 2
0.292771 0.0775784 -0.00996795 83 7 1
0.292677 0.0779646 -0.0100244 82 7 1
0.292397 0.0781509 -0.00973281 82 7 0
0.292031 0.0785146 -0.00956576 82 7 1
0.291637 0.0788559 -0.00944695 81 8 2
0.291245 0.0791946 -0.0093491 85 10 3
0.290937 0.0791484 -0.00917654 85 11 3
0.291145 0.0795704 -0.00942486 85 11 4
0.290838 0.0795368 -0.00924882 85 11 4
0.291052 0.0799673 -0.00947069 85 12 5
0.290755 0.0799192 -0.00928702 85 12 5
0.290978 0.0803561 -0.0094833 86 14 5
0.290685 0.0803115 -0.00929484 87 16 6
0.290957 0.080525 -0.0094844 88 17 7
0.290659 0.080476 -0.00929683 87 16 6
0.290597 0.0808671 -0.00928227 90 20 9
0.290301 0.0808174 -0.00909265 89 18 7
0.290236 0.0812097 -0.00908505 90 21 10
0.290007 0.0807627 -0.00890885 89 18 7
0.289942 0.081158 -0.00889737 91 21 10
0.289698 0.0807105 -0.00873681 91 17 8
0.289643 0.0811058 -0.00870453 92 21 10
0.289392 0.0806536 -0.00856856 91 16 7
0.289342 0.0810486 -0.0085284 92 18 8
0.289092 0.080596 -0.00840044 92 16 7
0.289044 0.0809952 -0.00834824 93 18 9
0.288788 0.0805383 -0.0082206 92 16 7
0.288749 0.08094 -0.00816637 92 19 9
0.288492 0.0804834 -0.00804874 92 16 7
0.288446 0.0808819 -0.00799961 93 18 9
0.288187 0.0804338 -0.00787657 92 16 7
0.288138 0.08083 -0.00782051 93 18 9
0.287852 0.0806718 -0.007659 93 18 8
0.289449 0.0802595 -0.00859418 91 15 6
0.289757 0.0803087 -0.00875782 88 13 6
0.289815 0.0799194 -0.00877314 88 12 5
0.290065 0.0803656 -0.00892695 88 14 6
0.290126 0.0799701 -0.00894479 86 12 5
0.290364 0.0804202 -0.00910825 86 15 6
0.290431 0.0800269 -0.00911243 85 13 5
