ply
format ascii 1.0
element vertex 1277
property float x
property float y
property float z
property uchar diffuse_red
property uchar diffuse_green
property uchar diffuse_blue
end_header
0.324267 0.0884668 0.0089578 76 8 3
0.323991 0.0883903 0.00916342 76 8 4
0.324283 0.0888322 0.00913637 76 9 3
0.324004 0.0887563 0.00933679 76 8 4
0.324298 0.0892026 0.00928173 76 9 3
0.324018 0.0891275 0.00949698 77 9 4
0.324011 0.089425 0.00958983 76 7 3
0.323742 0.0890611 0.00971708 77 9 4
0.32372 0.0894556 0.00982962 76 8 2
0.32344 0.0893306 0.0100283 77 7 2
0.3234 0.0897739 0.0101072 77 8 3
0.323116 0.0895468 0.0102702 76 8 3
0.32309 0.0896908 0.0102859 76 8 3
0.322782 0.0896384 0.0104484 76 7 2
0.322703 0.0900388 0.0104155 76 7 2
0.322393 0.0899898 0.0105725 75 7 2
0.322295 0.0903994 0.0105034 74 6 2
0.322204 0.089949 0.0106709 74 7 2
0.322083 0.0903409 0.0106247 73 6 2
0.321816 0.0899278 0.0108588 73 7 1
0.3217 0.0903201 0.0108074 73 7 1
0.321428 0.0899207 0.011039 71 7 2
0.321303 0.0903128 0.0109857 72 7 2
0.32095 0.0899117 0.0112118 71 9 3
0.320901 0.0902992 0.0111492 71 8 3
0.320628 0.0902969 0.0112441 71 10 4
0.32074 0.0907127 0.0110573 72 8 2
0.320238 0.0907039 0.0112517 73 12 4
0.320554 0.0911316 0.0109479 72 9 2
0.320149 0.0911286 0.0111035 74 11 4
0.320358 0.0915643 0.0108256 72 9 3
0.319976 0.0915461 0.0109969 74 13 5
0.320157 0.092002 0.0106987 72 10 4
0.319768 0.0919731 0.0108848 75 16 6
0.319829 0.0920972 0.0107957 76 15 6
0.31958 0.0924087 0.010749 78 15 7
0.319723 0.0924531 0.0106772 76 15 6
0.319292 0.0927751 0.010696 80 21 12
0.319604 0.0928439 0.0105589 78 19 10
0.31918 0.0931243 0.010583 83 25 14
0.319494 0.0931913 0.0104436 77 19 10
0.319063 0.0934711 0.0104347 85 24 13
0.319376 0.0935234 0.0102963 81 21 12
0.319229 0.0938681 0.0100871 84 22 13
0.319558 0.0938748 0.00995647 73 16 8
0.319386 0.0942261 0.00969406 84 20 10
0.319697 0.094266 0.00954356 74 15 7
0.319226 0.0944957 0.00942719 84 20 9
0.319537 0.0945377 0.00926808 80 16 8
0.319153 0.0945832 0.00928403 85 20 9
0.319857 0.0945737 0.00912512 76 10 4
0.320325 0.0943613 0.00923562 72 7 2
0.32064 0.0944004 0.00908618 70 7 2
0.321112 0.0941338 0.00918222 67 6 1
0.321426 0.0941737 0.00902611 67 5 1
0.321741 0.0942128 0.00887716 66 5 0
0.322057 0.0942586 0.0087293 67 5 0
0.322368 0.094309 0.00856939 67 5 0
0.322672 0.0943501 0.00841396 69 5 0
0.322991 0.0943747 0.00825361 68 5 0
0.323302 0.0944064 0.00808045 67 4 0
0.32344 0.0940848 0.00829426 68 4 0
0.323745 0.0941211 0.00812383 68 4 0
0.323877 0.0937896 0.00829555 69 4 0
0.324185 0.0938161 0.00813324 67 3 0
0.323999 0.0934418 0.00846732 68 3 0
0.32431 0.0934769 0.00831069 66 4 0
0.324443 0.0931378 0.00846944 66 4 0
0.324623 0.0935132 0.00813949 66 3 0
0.324752 0.0931728 0.00830596 67 4 0
0.325059 0.0932082 0.0081421 67 3 0
0.325379 0.0932364 0.0079968 66 3 0
0.325683 0.0932857 0.00781075 65 3 0
0.325989 0.093298 0.00761292 66 3 0
0.326416 0.0929578 0.00756821 67 3 0
0.326709 0.0929433 0.00734705 67 4 0
0.326999 0.092935 0.00710531 69 4 0
0.327285 0.0929259 0.0068695 68 3 0
0.327566 0.0929185 0.0066293 68 3 0
0.327854 0.0928994 0.00639979 68 4 0
0.328144 0.0928903 0.00615698 70 5 1
0.328429 0.0928761 0.00590809 71 6 1
0.328704 0.0928568 0.00565609 69 5 1
0.328985 0.0928368 0.00539898 69 5 1
0.329264 0.0928089 0.00513733 70 5 1
0.329664 0.092425 0.00499911 72 7 1
0.329932 0.0924252 0.00473453 73 6 2
0.330215 0.0923687 0.00449489 71 6 2
0.320019 0.0943104 0.00939845 73 12 3
0.320484 0.0940393 0.00948256 67 8 2
0.320784 0.0941144 0.00932577 68 7 1
0.320944 0.0937705 0.00953843 66 7 1
0.321255 0.0938021 0.00938786 64 5 1
0.321571 0.0938398 0.00923072 64 5 1
0.321391 0.0934673 0.00956687 63 4 1
0.3217 0.0935092 0.00940864 65 5 0
0.321511 0.0931157 0.00972032 62 5 1
0.321825 0.0931548 0.00956731 65 4 1
0.321617 0.0927181 0.00981772 63 4 1
0.321931 0.092784 0.00968725 65 4 1
0.321705 0.0923736 0.00988955 65 5 1
0.322033 0.0923785 0.00977239 66 5 1
0.321813 0.0920051 0.00999023 69 6 2
0.322122 0.0920511 0.00985512 69 5 1
0.32192 0.0916419 0.0101129 70 4 1
0.322236 0.091692 0.00998218 70 4 1
0.322039 0.0912785 0.010247 72 6 1
0.322354 0.0913289 0.0101155 72 4 1
0.32247 0.0909641 0.0102305 72 7 1
0.322789 0.0910086 0.0101002 71 6 1
0.322575 0.0905844 0.0103236 74 7 2
0.322892 0.0906348 0.0101911 74 6 2
0.322607 0.0904471 0.0103505 74 7 2
0.322923 0.0904936 0.0102172 74 6 2
0.323017 0.090093 0.0102776 77 7 2
0.322263 0.0905365 0.0104776 73 6 2
0.322158 0.0909138 0.0103684 72 6 1
0.321848 0.0908668 0.0105268 72 5 1
0.321736 0.0912364 0.0104058 72 5 2
0.321422 0.0911948 0.0105657 72 6 2
0.321312 0.0915613 0.0104392 72 6 2
0.320997 0.0915136 0.010594 70 7 2
0.320882 0.0918735 0.0104639 70 7 2
0.32057 0.0918269 0.0106123 72 9 3
0.32077 0.0922316 0.0103398 68 7 2
0.320451 0.0921819 0.0104877 71 8 3
0.32066 0.0926008 0.010237 64 6 2
0.320349 0.0925465 0.0103826 67 9 3
0.320244 0.0929294 0.0102849 65 7 2
0.32003 0.0925007 0.010532 73 13 6
0.319926 0.0928855 0.0104259 72 11 4
0.320139 0.0921391 0.0106375 72 10 4
0.321619 0.0916055 0.010273 70 5 2
0.321502 0.0919642 0.0101491 69 6 2
0.321391 0.0923279 0.0100359 65 5 2
0.321075 0.0922745 0.0101797 68 7 2
0.321292 0.0927008 0.0099507 62 5 1
0.320977 0.0926495 0.0100949 66 6 2
0.32088 0.0930158 0.0100099 62 5 1
0.320555 0.092977 0.0101418 63 7 2
0.320438 0.0933303 0.0100015 59 7 3
0.320129 0.0932904 0.0101505 66 9 4
0.320003 0.0936032 0.0099888 67 10 3
0.319809 0.0932446 0.0102998 72 16 9
0.319691 0.0935721 0.0101378 72 17 9
0.321193 0.0919154 0.0103048 71 7 2
0.3212 0.0930737 0.00987948 61 5 0
0.321075 0.0934262 0.00972041 63 6 0
0.320758 0.0933749 0.00986557 62 5 1
0.320624 0.0937142 0.00968855 64 7 2
0.320312 0.0936628 0.00983078 66 10 3
0.320168 0.0939937 0.00962909 67 10 3
0.321879 0.0938972 0.00907817 65 5 0
0.322194 0.0939361 0.00892542 67 5 0
0.322508 0.0939764 0.00877183 67 4 0
0.322817 0.0940114 0.00860826 67 4 0
0.329182 0.0879326 0.00494961 73 8 3
0.32884 0.0879115 0.00503856 74 9 3
0.328772 0.0876073 0.00478426 72 8 2
0.328492 0.0878857 0.00513267 72 8 3
0.328436 0.0875876 0.00486779 71 8 2
0.32812 0.087682 0.00507637 71 7 3
0.328058 0.0874035 0.00480224 69 7 2
0.327785 0.0876632 0.00517764 70 6 2
0.327714 0.0873905 0.00490193 69 7 2
0.327443 0.0876422 0.00528321 71 6 2
0.327366 0.0873795 0.00499498 68 7 2
0.327122 0.0875969 0.0054231 69 6 2
0.327037 0.0873595 0.00510668 67 6 2
0.326809 0.0875346 0.00556365 67 6 1
0.326701 0.0873065 0.00523933 67 6 1
0.326392 0.0872376 0.00538417 67 6 2
0.326623 0.0871302 0.00496361 65 6 2
0.326309 0.0870726 0.00510255 66 6 2
0.32653 0.0869018 0.00464554 65 6 2
0.326198 0.086867 0.00476863 65 6 2
0.326436 0.0866829 0.00433032 64 7 3
0.326101 0.0866649 0.00444641 65 8 3
0.326336 0.0864732 0.00401609 63 7 3
0.326002 0.0864643 0.0041188 65 8 3
0.326266 0.0863242 0.00378706 63 8 3
0.325925 0.086344 0.00390832 65 8 3
0.325813 0.0861656 0.00357407 63 8 4
0.32547 0.0861893 0.00369273 65 8 5
0.325353 0.0860696 0.00338054 64 9 5
0.325029 0.0860792 0.00353091 66 10 5
0.324886 0.0859798 0.00315655 65 10 6
0.324559 0.085984 0.00330111 67 10 6
0.324401 0.085939 0.00291966 65 9 5
0.324074 0.0859485 0.00306376 64 9 5
0.324001 0.0859443 0.00290447 64 9 5
0.323747 0.0859478 0.00319336 66 10 6
0.323682 0.0859492 0.00304938 67 10 6
0.323367 0.0859245 0.00319951 66 10 6
0.323198 0.0859941 0.00282708 67 10 6
0.322884 0.0859676 0.0029795 71 11 6
0.323025 0.0861423 0.00248937 69 10 6
0.322706 0.0861262 0.00263567 71 11 6
0.322825 0.0863939 0.00212033 68 8 5
0.322512 0.0863726 0.00227628 70 9 5
0.322662 0.0866145 0.00183081 67 9 5
0.322343 0.086608 0.00199326 70 9 5
0.322498 0.0868687 0.00154345 68 9 6
0.322183 0.0868607 0.00171036 70 10 6
0.322334 0.0871585 0.00128208 70 10 6
0.322026 0.0871598 0.00146203 73 9 6
0.322297 0.0872834 0.00123153 73 10 6
0.321984 0.087252 0.00138644 73 10 7
0.322154 0.0876018 0.00102492 71 10 7
0.321846 0.0875743 0.00118698 74 12 8
0.322022 0.0879682 0.00085064 70 11 8
0.321707 0.0879226 0.00100127 71 12 8
0.321892 0.0883321 0.000681168 68 10 7
0.321581 0.0882907 0.00083814 69 11 7
0.321765 0.0887158 0.000531996 66 10 7
0.321448 0.0886901 0.000695746 66 10 6
0.321369 0.0889423 0.000600511 67 10 6
0.321138 0.0886538 0.000839609 66 9 6
0.321059 0.0889008 0.000761618 67 10 6
0.320751 0.0888578 0.000923658 67 9 6
0.320647 0.0892448 0.000816641 66 9 5
0.320343 0.0891894 0.000988869 67 9 5
0.320243 0.0895863 0.000900225 68 8 4
0.319945 0.0895211 0.00108369 66 8 4
0.319855 0.0898995 0.00101413 67 8 3
0.319546 0.0898562 0.00117757 66 7 3
0.319446 0.0902533 0.00110543 68 6 3
0.319217 0.0898093 0.00130259 66 7 3
0.319129 0.0902067 0.00123893 67 6 3
0.318892 0.089757 0.00143867 65 7 3
0.318812 0.0901501 0.00138513 67 7 3
0.318575 0.0897008 0.00155601 62 6 3
0.318499 0.0901014 0.00152528 65 6 2
0.31818 0.0900447 0.00167196 62 5 2
0.31812 0.0904383 0.00167029 66 6 2
0.317795 0.0903812 0.00180516 64 5 2
0.317764 0.0907513 0.00185465 64 5 2
0.317485 0.0903261 0.00194821 62 5 2
0.31745 0.0907118 0.00200535 63 5 2
0.317131 0.0906585 0.00215055 63 5 2
0.317101 0.0910434 0.00222563 65 5 2
0.316865 0.0908209 0.0022994 61 5 2
0.316891 0.0911711 0.00236485 62 4 2
0.316512 0.0911585 0.00252776 63 5 2
0.316539 0.0914996 0.0025961 63 5 2
0.316166 0.0914869 0.00274727 62 5 2
0.316185 0.0918278 0.00282078 63 5 2
0.315813 0.0918114 0.0029918 60 5 2
0.316211 0.092172 0.00291573 65 6 2
0.315846 0.0921461 0.00310062 62 6 2
0.316247 0.0925038 0.00302246 66 6 2
0.315876 0.0924761 0.00322696 65 5 2
0.316083 0.092637 0.00317677 65 6 2
0.315924 0.0928031 0.00335128 65 6 1
0.316095 0.0930224 0.0033521 64 6 1
0.315787 0.0929646 0.00350179 64 5 2
0.315795 0.0933342 0.00366697 63 6 2
0.31548 0.0932825 0.00380368 63 5 2
0.315507 0.0936342 0.00400755 64 6 1
0.315179 0.0935984 0.00412009 62 6 2
0.315219 0.0939324 0.0043514 64 6 2
0.314893 0.0938948 0.00446568 64 6 1
0.314965 0.0942901 0.0047836 66 7 2
0.314568 0.0938548 0.0045853 61 5 1
0.314641 0.0942596 0.00490602 63 7 2
0.314239 0.0938039 0.00470854 61 6 1
0.314312 0.0942277 0.00503338 63 7 1
0.313962 0.094082 0.00507893 60 6 1
0.313987 0.0941866 0.00516562 59 7 2
0.313651 0.0940239 0.00521395 58 6 1
0.313665 0.0941368 0.00529843 58 7 2
0.313324 0.0939871 0.00533816 56 7 1
0.313388 0.0942969 0.00560604 59 8 1
0.313002 0.0939425 0.0054667 55 7 1
0.313069 0.0942612 0.00574717 59 9 2
0.312748 0.0942119 0.00587776 54 9 2
0.313159 0.0945787 0.00608626 64 10 3
0.312845 0.0945289 0.00622295 65 14 4
0.313262 0.094869 0.00642652 71 16 5
0.312941 0.0948436 0.00656064 69 18 6
0.31337 0.0951199 0.00676873 81 24 10
0.312523 0.0945055 0.00634504 61 14 4
0.312104 0.0941822 0.00613225 51 13 4
0.31189 0.0942265 0.00622723 39 13 4
0.31191 0.0939394 0.00594035 45 10 3
0.311479 0.0939438 0.00607163 31 12 4
0.311472 0.0936325 0.00583805 36 9 3
0.311055 0.0936292 0.00593102 24 10 4
0.311044 0.0933267 0.00572865 32 8 4
0.31061 0.0933301 0.00580366 19 9 4
0.310601 0.0930337 0.00562754 23 9 4
0.310207 0.0930446 0.00567244 12 9 4
0.310189 0.0927523 0.00549258 19 9 4
0.309861 0.0927962 0.00550362 16 10 5
0.309832 0.0925147 0.00532404 20 10 5
0.30957 0.0927852 0.00541629 15 9 5
0.309517 0.0925085 0.00524848 13 10 5
0.309268 0.0928807 0.00519104 16 9 4
0.309217 0.0925283 0.00507125 17 10 4
0.308946 0.0926653 0.00482219 16 8 4
0.30892 0.0923096 0.00473738 13 10 4
0.308653 0.0924468 0.00444075 10 11 4
0.308605 0.0921084 0.00435231 9 12 5
0.308374 0.0922407 0.00404239 8 10 4
0.308327 0.0918941 0.00397859 6 11 4
0.308086 0.0920223 0.00367467 6 12 4
0.308073 0.0916593 0.00360331 3 12 4
0.307861 0.0917833 0.00332143 2 14 3
0.308063 0.0913459 0.0033937 4 13 4
0.307866 0.0914338 0.00318596 2 15 3
0.308043 0.0910606 0.00307887 9 14 3
0.307766 0.0912197 0.00281045 4 14 4
0.308091 0.0908168 0.00270515 7 14 3
0.30777 0.0909545 0.0024576 7 14 3
0.308165 0.0905942 0.00228295 5 13 2
0.307798 0.090663 0.00210908 7 13 3
0.308197 0.0903123 0.00188733 3 10 0
0.307773 0.0903714 0.0018156 2 11 2
0.307861 0.0900522 0.00162465 1 8 0
0.307384 0.0901408 0.00153496 0 6 0
0.307383 0.0898149 0.00138638 0 5 0
0.307138 0.0898897 0.00127272 0 6 0
0.312418 0.0941686 0.00598723 53 10 3
0.312362 0.093883 0.00573133 51 8 2
0.31203 0.0938473 0.00583625 46 9 2
0.312297 0.0935301 0.0054578 50 6 1
0.311961 0.0934869 0.00557115 46 7 2
0.311943 0.0933175 0.00545074 46 7 2
0.311933 0.0936343 0.0056799 46 8 2
0.311476 0.0933296 0.0056101 40 8 3
0.328396 0.0874109 0.00470408 70 8 2
0.327983 0.0871233 0.00451703 67 7 2
0.327638 0.087119 0.00461526 66 7 2
0.327295 0.0871207 0.00470469 66 7 2
0.326957 0.0871452 0.00484405 65 6 1
0.326867 0.0869103 0.00453401 65 6 1
0.327561 0.0868602 0.00432838 65 6 2
0.327217 0.0868908 0.00442762 65 6 2
0.327137 0.0866449 0.00412231 63 6 2
0.326786 0.0866777 0.00422504 65 7 2
0.326694 0.0864424 0.00390903 64 7 2
0.323512 0.0860068 0.00268933 67 9 5
0.323344 0.0861439 0.00234731 68 9 5
0.323137 0.0864028 0.00196471 66 9 5
0.32297 0.0866189 0.00166972 67 9 5
0.32281 0.0868728 0.00138621 68 9 6
0.322648 0.0871819 0.00112932 71 9 8
0.322603 0.0872873 0.00104779 71 9 8
0.322466 0.0876255 0.000850387 72 11 7
0.322339 0.0879908 0.000687094 70 11 8
0.322206 0.0883614 0.000526192 68 10 7
0.322077 0.088749 0.000374365 66 10 6
0.321675 0.0890025 0.000433519 66 10 6
0.321247 0.0893466 0.000475474 66 8 4
0.320951 0.089297 0.000644594 65 9 5
0.320845 0.0896851 0.000548047 68 8 4
0.320544 0.0896424 0.000726024 68 8 4
0.320447 0.0900187 0.00064336 69 8 4
0.320147 0.0899654 0.000822317 67 8 4
0.320059 0.0903546 0.000771905 68 7 3
0.319757 0.090305 0.000944985 68 7 3
0.319677 0.0906877 0.000894971 69 7 3
0.319368 0.0906453 0.00107275 67 5 2
0.319609 0.0910882 0.000895193 70 7 2
0.319307 0.091033 0.00106964 70 6 2
0.319255 0.0914165 0.00109747 69 6 2
0.318948 0.0913583 0.00126545 69 6 2
0.318915 0.0917587 0.00134252 69 6 2
0.318646 0.091308 0.00142405 69 6 2
0.318604 0.0917126 0.00150109 68 6 2
0.318315 0.0915132 0.00163773 67 5 2
0.318284 0.0919013 0.00172099 68 6 2
0.317986 0.0918352 0.00188675 69 6 2
0.318266 0.0922864 0.00182286 69 6 2
0.317953 0.0922316 0.00197988 69 6 1
0.318245 0.0926779 0.00193869 68 6 1
0.317937 0.0926082 0.00208656 68 6 1
0.317931 0.0930003 0.00222636 67 6 1
0.31763 0.0925494 0.00224831 68 6 1
0.317622 0.092936 0.00238648 67 6 1
0.317324 0.092495 0.00240892 67 7 1
0.317327 0.0928672 0.00255793 66 6 1
0.317012 0.0924316 0.00255838 66 6 1
0.317016 0.0928178 0.00270837 66 6 1
0.316694 0.0923846 0.00271246 66 6 1
0.316706 0.0927579 0.00286869 66 6 1
0.316617 0.0925253 0.00281736 66 6 1
0.316389 0.0927049 0.0030121 66 6 2
0.316404 0.0930882 0.00319462 65 6 1
0.316715 0.0931493 0.00305103 64 6 2
0.317021 0.0932136 0.00289238 65 7 1
0.317052 0.0935643 0.00309861 62 5 2
0.317334 0.0932902 0.00275248 64 6 2
0.316742 0.0935062 0.00325064 64 6 1
0.316779 0.0938506 0.00347489 62 6 1
0.316468 0.093788 0.00362035 64 6 2
0.316522 0.0941153 0.00387254 65 6 2
0.316202 0.0940758 0.00399122 64 6 2
0.316602 0.0944384 0.00416635 67 8 2
0.316279 0.0944046 0.00428925 67 7 2
0.316688 0.0946974 0.00447448 68 8 3
0.316359 0.0946855 0.00458632 68 9 2
0.316783 0.0949457 0.00477282 70 10 3
0.316445 0.0949321 0.00488925 70 9 3
0.316549 0.0951599 0.00521686 73 11 4
0.316118 0.0949108 0.00501355 70 9 3
0.316227 0.0951281 0.00534846 74 11 5
0.315794 0.0948859 0.00513453 70 9 3
0.315896 0.0950985 0.00547134 71 11 4
0.31547 0.094859 0.00527202 69 9 3
0.315572 0.0950716 0.00560888 72 11 5
0.315141 0.0948289 0.00539607 69 8 3
0.315251 0.0950423 0.00572869 71 10 3
0.314809 0.0948083 0.00551144 68 9 3
0.314919 0.0950281 0.00584376 70 11 4
0.314476 0.0947782 0.00563794 68 9 3
0.314585 0.095007 0.00596783 69 10 3
0.314152 0.0947535 0.00576676 66 9 3
0.314257 0.0949841 0.00609088 69 11 4
0.313831 0.0947132 0.00589402 66 11 3
0.313928 0.0949532 0.0062138 70 12 4
0.313586 0.0949027 0.00630402 72 15 5
0.313705 0.0951539 0.00666008 75 16 6
0.314039 0.0951591 0.00654691 75 16 6
0.314368 0.095179 0.00642683 75 16 6
0.314706 0.0951886 0.00631866 75 14 5
0.315043 0.0951998 0.00620406 75 12 5
0.315375 0.0952069 0.00608444 75 12 5
0.315698 0.0952359 0.00595998 76 13 6
0.316028 0.0952589 0.00583557 76 12 5
0.317009 0.0947389 0.00434157 67 8 3
0.316921 0.0944719 0.00403479 65 7 2
0.316842 0.0941643 0.00374415 63 6 2
0.313501 0.094682 0.00601833 64 10 3
0.313419 0.0943981 0.00571323 60 9 2
0.316422 0.0934464 0.00339346 64 6 1
0.316148 0.093739 0.00374868 62 5 1
0.315872 0.0940253 0.00410948 64 6 2
0.31595 0.0943744 0.00441336 66 7 2
0.316031 0.0946553 0.00470989 69 9 3
0.316111 0.0933942 0.00352988 63 6 1
0.315825 0.0936854 0.00387145 63 6 1
0.315554 0.0939765 0.00423555 63 6 2
0.315624 0.0943437 0.00453293 65 7 2
0.315703 0.0946255 0.00482757 68 8 3
0.315296 0.0943207 0.00466146 65 7 1
0.315376 0.0946015 0.0049544 68 9 3
0.317645 0.0933498 0.00259299 65 6 2
0.317945 0.0934235 0.00243358 63 5 2
0.31826 0.0934755 0.00229595 64 5 1
0.318244 0.0930531 0.00208626 67 6 1
0.318554 0.0931754 0.00195655 65 6 2
0.318558 0.0927324 0.00178295 69 7 2
0.31886 0.0932346 0.00180266 65 7 2
0.318861 0.092792 0.00162413 68 7 2
0.319183 0.093291 0.00166716 65 6 2
0.319174 0.0928503 0.00146938 68 7 2
0.319492 0.0933486 0.00151823 63 6 2
0.319484 0.0928989 0.00134036 67 7 3
0.31857 0.0923417 0.00166855 71 6 2
0.318874 0.0924105 0.00149672 68 7 3
0.318896 0.0920227 0.00139926 69 6 2
0.319179 0.09247 0.00134195 68 7 3
0.319203 0.0920802 0.00123419 70 7 2
0.319489 0.0925233 0.00118336 69 7 3
0.319501 0.0921433 0.00106781 69 7 2
0.319052 0.090602 0.00122264 68 6 2
0.318741 0.0905509 0.00138094 68 6 2
0.318687 0.0909313 0.00139192 67 5 1
0.318382 0.0908757 0.00154755 66 6 2
0.318339 0.0912637 0.00159072 67 6 3
0.318032 0.0912099 0.00177128 65 5 2
0.318007 0.0914517 0.00180314 67 6 1
0.317728 0.0911569 0.00192851 67 6 1
0.317702 0.0913886 0.00197308 67 5 1
0.317414 0.0910999 0.00207862 65 5 1
0.317385 0.0914947 0.00216295 66 6 2
0.317087 0.0912719 0.00228511 65 5 2
0.317063 0.0916585 0.00237561 67 5 1
0.31691 0.0915203 0.00241148 65 5 2
0.316923 0.0918661 0.00247276 67 6 1
0.31656 0.0918473 0.00264367 65 6 2
0.316882 0.0922091 0.00255987 67 7 1
0.316573 0.0921921 0.00271712 65 6 1
0.318072 0.0908097 0.00170687 65 6 2
0.318433 0.0904942 0.00153001 66 5 2
0.317033 0.0920451 0.00246024 67 5 1
0.317677 0.091777 0.00204796 68 6 2
0.317649 0.0921756 0.00215105 69 6 1
0.317345 0.0921099 0.00230934 68 6 2
0.317369 0.0917153 0.00220953 66 6 2
0.318997 0.090982 0.0012312 68 6 1
0.321979 0.0890598 0.000261779 66 8 6
0.321555 0.0894014 0.000294612 65 8 5
0.321144 0.0897402 0.000366781 66 7 3
0.320754 0.0900665 0.000475595 67 7 3
0.32036 0.090396 0.000594614 70 7 3
0.319978 0.0907325 0.000734114 71 7 2
0.328548 0.0881916 0.00538236 74 8 2
0.328222 0.0881598 0.00549809 74 7 2
0.328155 0.0878553 0.0052312 72 7 1
0.32789 0.0881185 0.0056223 73 7 1
0.32782 0.0878307 0.00534855 71 7 1
0.327526 0.0878979 0.00558013 70 6 2
0.327218 0.0878308 0.0057294 69 6 2
0.328281 0.0884696 0.00575503 76 8 3
0.32796 0.0884085 0.00589575 76 8 3
0.327659 0.0883343 0.00605783 74 7 3
0.327573 0.0880574 0.00575594 72 7 2
0.327269 0.0879902 0.00592575 72 6 2
0.326906 0.0877559 0.00588809 69 6 2
0.326508 0.0874462 0.00572506 68 6 2
0.326098 0.0871585 0.00555856 65 6 2
0.325993 0.0870018 0.00525083 65 6 2
0.325683 0.0869273 0.00539757 65 6 2
0.325878 0.0868222 0.0049137 65 7 3
0.325567 0.0867624 0.00505608 65 7 3
0.325505 0.0866766 0.00487136 66 7 3
0.32526 0.0866924 0.00519132 67 8 4
0.325192 0.0866115 0.00501122 66 8 4
0.324949 0.0866107 0.00533403 66 8 4
0.324879 0.0865342 0.00514956 68 9 4
0.324644 0.0865158 0.00548951 68 8 3
0.324573 0.0864398 0.00528997 69 9 5
0.324278 0.0863288 0.00544659 69 9 5
0.324138 0.0862072 0.00507689 69 10 5
0.323977 0.0862017 0.00559143 70 10 5
0.323835 0.0860828 0.00521975 70 10 5
0.323538 0.0859517 0.0053744 72 10 6
0.323398 0.0858696 0.00500407 72 11 6
0.3231 0.085733 0.00515654 72 12 6
0.323285 0.0858177 0.00471436 73 12 6
0.322975 0.0856898 0.00484552 74 12 7
0.323123 0.0857807 0.00433679 73 12 7
0.32282 0.0856731 0.00446567 75 12 7
0.322655 0.0856738 0.00409808 74 12 7
0.322346 0.0855621 0.00423032 72 12 8
0.322592 0.0856833 0.00397124 71 12 8
0.32228 0.0855798 0.00408398 73 13 8
0.322427 0.0857444 0.00360264 70 12 8
0.322103 0.085662 0.00372496 74 12 8
0.321929 0.0857961 0.00337237 73 11 7
0.321625 0.0856918 0.00349691 71 10 7
0.321442 0.0858958 0.00315728 71 10 6
0.321305 0.0855988 0.00360928 72 10 7
0.321091 0.0858561 0.00321544 71 9 5
0.320824 0.085684 0.00340748 72 10 6
0.320613 0.085988 0.00303402 72 9 5
0.320458 0.0856402 0.00342204 73 10 5
0.320287 0.0858958 0.00315136 73 9 4
0.320062 0.0856348 0.00340094 72 10 5
0.3199 0.0858808 0.00311287 70 9 4
0.319656 0.0856235 0.00331398 69 9 5
0.31957 0.0857552 0.00317951 68 9 5
0.319249 0.0856174 0.00322731 66 9 6
0.319411 0.0860414 0.00291291 67 9 4
0.319086 0.0859078 0.00295359 64 8 5
0.318935 0.0862111 0.00273264 62 8 4
0.318599 0.0860807 0.00277084 60 8 5
0.318446 0.0864335 0.00259175 60 7 4
0.318102 0.0863234 0.00263229 59 8 5
0.318003 0.0866539 0.00251621 58 7 4
0.317778 0.0862129 0.00267106 57 8 5
0.317642 0.08661 0.00254525 59 8 4
0.317719 0.0861262 0.00270139 58 8 5
0.317404 0.0865798 0.00257455 59 8 4
0.317307 0.0861812 0.00267521 59 9 5
0.317004 0.0866309 0.00254504 58 9 5
0.316914 0.0862437 0.00264167 58 9 4
0.316592 0.086676 0.00253534 57 9 4
0.316523 0.0862952 0.00260499 58 11 5
0.316202 0.0867347 0.00248935 57 10 5
0.316127 0.0863616 0.00255146 58 11 5
0.315811 0.0867924 0.00244811 57 10 5
0.315745 0.0864227 0.00250801 58 11 5
0.315416 0.0868679 0.00241743 59 10 5
0.315372 0.0865063 0.00242543 61 12 6
0.315002 0.0865841 0.0023303 64 12 6
0.314974 0.0862424 0.00226096 63 13 6
0.314612 0.0863297 0.00209414 63 15 5
0.314923 0.085911 0.00216693 59 15 5
0.314591 0.0860042 0.00198659 55 14 4
0.314858 0.0855878 0.00203624 54 15 5
0.31449 0.0856878 0.00182259 48 15 3
0.314755 0.0852567 0.00195362 41 14 3
0.314425 0.0853469 0.00177285 37 14 2
0.314654 0.0850615 0.00190569 37 14 3
0.314264 0.0849888 0.00174812 29 13 2
0.314644 0.0846787 0.0019565 28 14 4
0.314311 0.0846453 0.00180056 22 13 4
0.314648 0.0842788 0.00199292 22 16 7
0.31433 0.0842432 0.00183223 16 13 5
0.314381 0.0838557 0.00182713 11 15 8
0.314303 0.0838863 0.00178829 11 16 9
0.314385 0.0835219 0.00175795 8 20 15
0.314289 0.0835592 0.0016837 5 18 13
0.314328 0.0831333 0.00145574 2 23 22
0.31455 0.0827931 0.00102061 3 26 36
0.314345 0.0828757 0.00079263 2 22 26
0.314623 0.0826451 0.000470975 7 26 41
0.31403 0.0843072 0.00166061 11 13 4
0.31412 0.0846367 0.00171817 20 12 3
0.313751 0.0847341 0.00155223 13 12 2
0.313878 0.0850757 0.00158347 27 13 2
0.314002 0.0854232 0.00160074 34 14 2
0.314102 0.0857723 0.00166124 41 14 2
0.314221 0.086101 0.0017662 51 14 3
0.314233 0.0864256 0.00190882 61 15 4
0.314254 0.0867427 0.00206517 65 15 5
0.314623 0.0866586 0.00220533 67 13 5
0.314646 0.086999 0.0023008 66 12 4
0.315025 0.0869331 0.00237533 61 11 5
0.31506 0.0872757 0.00242298 62 11 5
0.315471 0.0872324 0.00238213 57 9 5
0.315885 0.0871787 0.00236575 56 9 4
0.316295 0.0871256 0.00238886 57 9 5
0.316688 0.0870709 0.00240672 55 9 5
0.317106 0.0870328 0.00242296 57 8 4
0.317513 0.0869826 0.00242244 58 7 5
0.317864 0.0870721 0.00237719 58 7 4
0.318305 0.0868067 0.00243407 58 7 4
0.318781 0.0865401 0.00253648 61 7 5
0.319262 0.0863331 0.00267812 64 7 4
0.319736 0.0861632 0.00285567 69 9 6
0.320068 0.0862569 0.00277764 70 8 5
0.320229 0.0859959 0.00303311 70 8 4
0.320399 0.0863533 0.00268409 72 9 6
0.320553 0.0860913 0.00294341 73 9 5
0.32077 0.0863535 0.00266258 73 10 5
0.32093 0.0860982 0.00293007 72 9 5
0.321245 0.0861712 0.00280865 70 9 6
0.313438 0.085157 0.00143632 17 12 1
0.313635 0.0855049 0.00145627 25 12 1
0.313756 0.0858507 0.00151788 38 14 2
0.313772 0.086189 0.00160436 48 14 2
0.313865 0.0865078 0.00176272 54 15 3
0.313893 0.0868234 0.0019165 65 15 4
0.314272 0.0870685 0.00219918 64 13 5
0.31467 0.0873378 0.00239344 64 11 5
0.314702 0.0876738 0.00245389 60 10 5
0.315104 0.0876279 0.00244172 58 9 4
0.314747 0.0880262 0.00250211 58 9 5
0.315169 0.0879914 0.00246193 55 7 4
0.314798 0.0883665 0.00255873 56 6 4
0.315228 0.0883392 0.00249973 55 6 4
0.314848 0.0887143 0.00260656 55 6 4
0.315292 0.0886972 0.00251309 55 6 3
0.315234 0.0890643 0.00255189 53 5 3
0.315363 0.0890591 0.00251384 53 5 3
0.315259 0.0894131 0.00261013 53 4 1
0.315433 0.0894163 0.0025447 54 4 1
0.315279 0.0897605 0.00266414 54 4 2
0.315645 0.0897745 0.00251172 55 4 2
0.315291 0.0901121 0.00270975 54 4 2
0.315673 0.0901194 0.00257545 56 4 2
0.315308 0.0904618 0.00277271 56 4 2
0.315701 0.0904586 0.00265109 57 4 2
0.315345 0.0907991 0.0028508 57 5 2
0.315734 0.0908005 0.00273408 56 5 2
0.315368 0.0911444 0.0029249 58 5 2
0.315753 0.0911435 0.00280731 59 4 2
0.315406 0.0914768 0.00302378 59 5 2
0.315782 0.0914781 0.00289697 61 5 2
0.31554 0.0876069 0.00237437 55 7 4
0.315957 0.0875745 0.00230965 54 8 4
0.316392 0.0875356 0.00228362 57 8 5
0.316794 0.0874768 0.00229188 54 8 4
0.317209 0.0874441 0.00228285 56 7 4
0.317626 0.0874022 0.00228026 58 7 4
0.317733 0.0875008 0.00225039 58 7 4
0.318085 0.0875361 0.00221047 58 7 5
0.317963 0.0879453 0.00209987 57 7 4
0.318301 0.0879962 0.00203655 58 8 4
0.318184 0.0884098 0.00191765 61 7 4
0.318531 0.0884452 0.0018397 59 8 5
0.318425 0.0888518 0.00177472 62 7 4
0.318761 0.0889054 0.00167451 65 8 5
0.318662 0.0893082 0.00160386 62 8 4
0.318994 0.0893575 0.00149805 65 8 4
0.318332 0.0892521 0.00171528 62 7 4
0.31825 0.0896449 0.00169024 63 7 3
0.318002 0.0891894 0.00181036 60 7 3
0.317922 0.0895863 0.00178905 61 7 3
0.317658 0.0891322 0.00189532 59 6 3
0.317597 0.0895272 0.00189214 61 6 2
0.317263 0.0894704 0.00199158 59 5 3
0.31753 0.0899274 0.00191074 61 6 3
0.3172 0.0898794 0.00200933 59 5 2
0.317157 0.0902712 0.00207593 60 4 2
0.316818 0.0901358 0.00217236 59 5 2
0.316841 0.0904786 0.00223987 59 5 2
0.316464 0.0904703 0.00237894 59 4 2
0.316489 0.0908144 0.00245313 61 5 2
0.316112 0.0908035 0.00260803 58 4 2
0.316139 0.0911422 0.00268635 61 5 2
0.317852 0.0899837 0.00178581 64 5 2
0.316077 0.0904618 0.00251685 58 4 2
0.316051 0.0901224 0.00243189 56 4 2
0.316026 0.0897791 0.00236809 56 4 2
0.315876 0.0894152 0.00237463 54 4 1
0.3158 0.0890502 0.002372 54 4 2
0.315737 0.0886832 0.0023928 54 5 2
0.31567 0.0883205 0.00239636 54 6 3
0.315611 0.0879764 0.00237873 54 8 4
0.316032 0.0879421 0.00231936 54 7 4
0.316458 0.0879171 0.00223487 54 6 3
0.316887 0.0878868 0.00218082 55 7 4
0.317308 0.0878406 0.00218526 56 7 4
0.31761 0.0878907 0.0021518 58 7 4
0.316102 0.0883071 0.00228586 54 6 3
0.316554 0.0882928 0.00218917 53 6 4
0.316988 0.0882762 0.00210359 56 6 3
0.317426 0.0882402 0.00205918 58 7 3
0.317494 0.0882918 0.00203676 58 7 3
0.317839 0.0883509 0.00198749 58 6 4
0.317742 0.0887424 0.00192371 59 6 3
0.318089 0.0887971 0.00185734 61 7 4
0.3174 0.0886846 0.00198366 57 7 3
0.31732 0.0890801 0.00197214 57 6 3
0.317165 0.0890297 0.00200621 57 6 3
0.317252 0.0894035 0.00199576 58 5 3
0.31679 0.0894094 0.00209458 56 5 2
0.316868 0.0897803 0.00209299 58 5 2
0.316415 0.0897758 0.00223958 58 5 2
0.316434 0.090127 0.00230468 57 4 2
0.316353 0.0894164 0.00220971 55 5 2
0.31628 0.0890428 0.00221969 55 5 2
0.316183 0.088683 0.00225179 54 6 2
0.316656 0.0886659 0.00214106 55 6 3
0.317087 0.0886535 0.00203965 56 6 3
0.316718 0.0890376 0.00210585 55 5 2
0.313348 0.0855524 0.00139111 19 12 1
0.313212 0.0859277 0.00139807 20 13 1
0.313446 0.0862496 0.00150703 42 14 0
0.313493 0.0865895 0.00159451 52 14 2
0.313508 0.0869132 0.00172584 63 15 3
0.313524 0.0872188 0.00194303 65 15 3
0.313878 0.0871482 0.00207456 63 14 5
0.313537 0.0875239 0.00213303 70 14 4
0.313906 0.0874603 0.00223493 66 14 6
0.313925 0.0877831 0.00238973 64 13 5
0.31431 0.0877248 0.00243743 61 11 5
0.314341 0.0880625 0.00252638 60 10 5
0.314287 0.0873944 0.0023218 65 13 6
0.327358 0.0882584 0.00621854 75 7 2
0.326971 0.0879197 0.00609242 71 6 1
0.326611 0.0876742 0.00604356 70 7 2
0.326297 0.0875962 0.00619879 68 6 2
0.326199 0.0873577 0.00587298 66 5 2
0.325896 0.0872846 0.00603172 66 5 2
0.325785 0.0870897 0.0057142 65 6 2
0.325489 0.087006 0.0058558 65 6 2
0.325374 0.0868522 0.00552848 66 6 2
0.327045 0.0881855 0.00637404 73 7 2
0.326673 0.0878525 0.00625874 71 6 2
0.326743 0.0881191 0.00653435 76 7 3
0.326364 0.0877803 0.00642163 70 6 2
0.326001 0.0875243 0.00635291 67 6 2
0.325599 0.0872093 0.00620074 66 5 2
0.325194 0.0869255 0.00604145 66 6 2
0.325069 0.0867501 0.00568398 66 6 3
0.324777 0.0866566 0.00584796 67 7 3
0.324352 0.0864043 0.00565056 69 9 5
0.326445 0.0880489 0.00669964 73 8 2
0.32608 0.087774 0.00665956 70 6 2
0.325697 0.0874422 0.00652381 68 6 2
0.325309 0.0871213 0.00638023 66 5 2
0.324892 0.0868252 0.00620093 65 6 2
0.324481 0.0865485 0.00601513 67 8 3
0.324055 0.086278 0.00582019 69 9 4
0.323679 0.0860577 0.00574404 71 10 5
0.323382 0.0859189 0.00589683 70 10 5
0.323244 0.085812 0.00551588 72 10 6
0.322947 0.0856728 0.00566955 73 12 6
0.322806 0.085592 0.00529861 74 12 7
0.32252 0.0854545 0.00547393 74 13 7
0.322372 0.0854205 0.00510292 75 13 7
0.32222 0.0853044 0.00560578 75 12 7
0.322068 0.0852767 0.00523143 76 13 7
0.321913 0.0851482 0.00574105 75 13 7
0.321764 0.0851233 0.00537096 77 14 8
0.321469 0.0849577 0.00549932 76 13 8
0.321295 0.08498 0.00511536 76 13 7
0.321056 0.0847985 0.00537071 78 13 8
0.32089 0.0848486 0.00500041 78 13 8
0.320747 0.0846215 0.00547167 78 15 8
0.320572 0.0846861 0.0051024 77 13 8
0.320436 0.0844425 0.00556994 78 14 8
0.320265 0.0844615 0.0053175 79 14 8
0.320129 0.084248 0.00566053 78 14 8
0.320029 0.0842369 0.00556466 79 14 8
0.319824 0.0840411 0.00576795 80 16 7
0.31959 0.0839966 0.00556352 81 17 8
0.319517 0.0837979 0.00587171 80 18 7
0.319355 0.0837596 0.00572995 80 18 8
0.31917 0.0835235 0.00598623 77 17 6
0.319127 0.0836845 0.00558194 79 18 9
0.318925 0.0834374 0.00571482 80 19 8
0.31892 0.0836776 0.00528977 82 19 10
0.318702 0.0833494 0.00548117 81 20 9
0.318641 0.0835993 0.00504454 84 20 10
0.31846 0.0832626 0.00523237 84 22 9
0.31838 0.0835455 0.00478972 81 20 11
0.318182 0.0831572 0.00496496 82 21 11
0.318097 0.0834883 0.00455432 79 21 11
0.317936 0.0831532 0.0046971 80 22 11
0.317765 0.0832879 0.00442868 79 22 11
0.317651 0.0829429 0.00461139 77 22 9
0.317459 0.0831124 0.00430067 76 21 10
0.317378 0.082775 0.00450193 75 23 10
0.317136 0.0828023 0.00426614 71 25 12
0.317186 0.082414 0.00461429 64 25 12
0.316907 0.0824584 0.00432764 60 27 13
0.316846 0.0820399 0.00453109 44 28 14
0.31658 0.0820605 0.00429437 42 31 18
0.316448 0.0816811 0.00450634 36 32 19
0.316174 0.0817568 0.00421638 36 38 23
0.316026 0.0815004 0.00444888 32 35 23
0.315786 0.0815207 0.00415251 39 45 33
0.315777 0.0814368 0.00444986 32 34 22
0.315602 0.08144 0.00417496 38 42 31
0.315468 0.0813874 0.00460393 36 42 32
0.315334 0.0813829 0.0042975 44 49 37
0.315007 0.0813515 0.00442113 50 49 35
0.315258 0.0813982 0.00405699 47 45 33
0.314932 0.0812766 0.0040333 56 53 39
0.315094 0.0813283 0.00381653 45 38 26
0.314831 0.081089 0.00377559 68 67 55
0.314994 0.08104 0.00351438 61 52 39
0.314815 0.080741 0.00352252 68 73 64
0.314984 0.0807345 0.00347051 69 73 63
0.314953 0.0804023 0.00342886 66 58 47
0.315158 0.0808012 0.00314691 52 52 43
0.315172 0.0804599 0.00305067 63 59 46
0.315325 0.0805941 0.00267274 66 63 52
0.315324 0.080249 0.0025578 79 75 61
0.315389 0.0806724 0.00233555 71 80 71
0.315398 0.0803769 0.00208199 92 89 74
0.315398 0.0807454 0.00211101 74 80 71
0.315388 0.0804698 0.00178946 87 89 78
0.315372 0.0808652 0.00165068 68 84 78
0.315384 0.0805971 0.0014248 90 99 89
0.315356 0.0809751 0.00125787 71 88 85
0.315385 0.0806912 0.00108888 92 103 95
0.31536 0.0811344 0.000778669 80 94 87
0.315241 0.081154 0.00320568 60 73 66
0.31525 0.0813537 0.00362282 51 64 54
0.315431 0.0815757 0.00345943 43 59 54
0.315477 0.0814999 0.00389283 46 49 36
0.315668 0.0817378 0.00373106 40 50 38
0.315919 0.0817911 0.00394517 36 41 28
0.316087 0.0820386 0.00385345 37 37 25
0.316361 0.0821478 0.00401003 40 35 20
0.316172 0.0823871 0.00367727 40 34 22
0.316469 0.0825228 0.00385272 44 31 19
0.316285 0.0827657 0.00349385 48 31 19
0.316569 0.0828892 0.00371064 53 29 17
0.316385 0.0831573 0.00336799 54 27 15
0.316678 0.0832101 0.00356744 62 26 13
0.316477 0.0834817 0.00326411 60 24 12
0.316746 0.0835339 0.00344086 67 23 11
0.31654 0.0838613 0.00314597 63 20 10
0.31683 0.0838862 0.00333837 66 20 11
0.31659 0.0842454 0.00305568 63 17 9
0.316913 0.0842463 0.003224 64 17 9
0.316655 0.084628 0.00295942 64 16 8
0.317014 0.0846162 0.00308879 65 15 9
0.31672 0.0850171 0.00287437 63 14 8
0.317107 0.0849807 0.00297272 63 13 8
0.317192 0.0853588 0.00287414 60 12 7
0.317479 0.0849603 0.00310096 61 12 7
0.317597 0.0853237 0.00296068 60 11 7
0.317837 0.084943 0.00324555 63 12 8
0.317969 0.0852979 0.0030806 61 11 7
0.318193 0.0849378 0.00338486 64 13 8
0.318348 0.0852841 0.00321657 62 10 7
0.318651 0.0851343 0.00342042 65 11 8
0.318814 0.0854438 0.00323498 63 10 7
0.318981 0.0850875 0.00359354 69 11 8
0.319109 0.0851823 0.003567 68 11 7
0.319301 0.0850544 0.00378014 67 11 7
0.319411 0.0853576 0.00349917 66 9 6
0.319586 0.0851492 0.00382323 72 11 7
0.319824 0.0853877 0.00361251 71 11 6
0.319882 0.085308 0.0037144 71 11 6
0.320133 0.0855147 0.00352583 72 10 6
0.320301 0.0853036 0.00382524 72 10 6
0.320622 0.0854208 0.00372834 73 10 7
0.320678 0.085355 0.0038429 73 10 7
0.320996 0.0854854 0.00372681 71 10 6
0.32117 0.0853338 0.00407895 73 11 6
0.321484 0.0854471 0.00397129 75 12 8
0.321343 0.0852236 0.00443088 74 13 8
0.321655 0.0853497 0.00431945 76 13 8
0.321732 0.0853231 0.0044845 75 12 8
0.322043 0.085448 0.00435618 74 12 8
0.322212 0.0854152 0.00473062 76 13 8
0.32251 0.085547 0.00459394 76 13 8
0.322672 0.0855599 0.00497216 74 13 7
0.321903 0.0852744 0.00486318 76 13 8
0.321424 0.0851826 0.00460563 74 12 7
0.321027 0.0850866 0.00453429 76 13 8
0.320854 0.0852013 0.0041843 73 12 7
0.320539 0.0850736 0.00429133 75 12 7
0.320364 0.0852362 0.00395063 72 11 7
0.320061 0.0850961 0.00406347 74 11 7
0.3216 0.085128 0.00498965 75 13 7
0.321126 0.0850407 0.00474122 76 13 8
0.320704 0.084951 0.00464433 77 13 8
0.320225 0.0849343 0.00439868 75 12 7
0.319836 0.084859 0.00432694 75 12 7
0.319678 0.08503 0.00400193 72 11 7
0.31962 0.0850262 0.0039642 72 11 7
0.320399 0.0847917 0.00473459 75 13 8
0.320513 0.0846701 0.00506084 78 14 8
0.320246 0.0846869 0.00484433 77 13 8
0.320016 0.08447 0.00508583 78 15 8
0.319791 0.0842314 0.0053201 80 16 9
0.319745 0.0844658 0.00486081 81 15 9
0.319527 0.084237 0.00507507 81 16 9
0.319482 0.0844992 0.00463349 77 14 8
0.319255 0.0842078 0.0048643 81 16 10
0.319174 0.0844821 0.00442376 78 15 10
0.318988 0.0841978 0.0046299 81 17 10
0.318893 0.0844877 0.00421122 74 14 9
0.318718 0.0841746 0.00440535 80 17 10
0.318608 0.0844876 0.00399879 73 15 10
0.31845 0.0841673 0.00418681 77 18 10
0.318309 0.0844874 0.00380338 71 15 10
0.318147 0.0841425 0.00400189 75 17 10
0.317897 0.0842533 0.00376397 72 17 10
0.317753 0.0839301 0.00390752 75 20 11
0.317568 0.0842564 0.0035821 70 17 10
0.317424 0.0838919 0.00373791 73 19 10
0.317239 0.0842502 0.00340034 66 17 10
0.317126 0.0838902 0.00354441 67 19 11
0.317352 0.0846114 0.00325053 63 15 8
0.317681 0.0846034 0.00341371 66 15 9
0.318 0.0845495 0.0035972 69 16 10
0.319326 0.0839663 0.0053168 80 17 9
0.319071 0.0839576 0.00503433 82 18 10
0.319967 0.0847102 0.00462164 77 14 8
0.319681 0.0847556 0.00440125 75 13 8
0.319379 0.0847585 0.00419991 75 13 8
0.31908 0.0847792 0.00400448 70 13 8
0.318782 0.0847904 0.00379579 70 12 9
0.318479 0.0848128 0.00360873 66 13 8
0.321861 0.0855174 0.00397462 74 13 8
0.321794 0.0855583 0.00384073 72 12 8
0.31934 0.0854765 0.00337539 68 9 5
0.318929 0.0854648 0.00326225 63 10 7
0.318762 0.0857464 0.00299761 61 8 5
0.318429 0.085596 0.00302627 61 9 6
0.318245 0.0859434 0.00279197 59 8 5
0.317922 0.0858133 0.00284297 58 9 5
0.318113 0.0856557 0.00292642 59 9 6
0.317707 0.085701 0.00284157 58 9 5
0.317629 0.0857297 0.00281011 58 10 6
0.317265 0.085746 0.00277909 59 9 5
0.317225 0.0858012 0.00277139 59 9 5
0.316819 0.0857987 0.00273113 59 10 5
0.316826 0.0858559 0.00271281 59 10 5
0.316438 0.0859236 0.00267122 58 11 6
0.316764 0.0854091 0.0028032 61 12 7
0.316341 0.0856375 0.00270303 60 12 6
0.316008 0.0856377 0.00262873 62 13 6
0.316065 0.0859994 0.00260419 59 13 6
0.315645 0.0857326 0.00250481 62 13 5
0.315691 0.0860776 0.00251806 60 14 6
0.315287 0.0858204 0.00234621 63 14 5
0.315327 0.0861562 0.00239803 62 13 6
0.315231 0.0855311 0.00226069 61 15 6
0.314933 0.0855009 0.00206546 54 15 5
0.314984 0.0851047 0.0020618 48 15 4
0.314982 0.0847016 0.00211529 40 16 6
0.314975 0.0843109 0.00216312 32 18 9
0.314703 0.0838672 0.00200447 17 17 11
0.314452 0.0834556 0.00180604 8 20 15
0.316306 0.0852289 0.00276466 62 14 6
0.315909 0.0856004 0.00260904 62 12 6
0.31667 0.0824288 0.00411072 53 28 16
0.316826 0.0828084 0.00399361 65 26 14
0.317205 0.0831621 0.00405149 74 23 10
0.317589 0.0835291 0.00409402 78 22 10
0.317867 0.083533 0.00431641 79 22 11
0.317983 0.0837845 0.00418669 78 21 11
0.318284 0.0838438 0.00438455 79 20 11
0.317265 0.0835247 0.00385726 75 22 10
0.31699 0.0835284 0.00365359 69 22 11
0.316933 0.0831785 0.00380939 70 24 12
0.318552 0.0838753 0.0046057 81 19 11
0.31881 0.0839027 0.00483722 82 19 11
0.326145 0.0879882 0.00687871 70 6 2
0.325782 0.0876931 0.00682642 69 6 2
0.325475 0.0875499 0.00694636 69 6 2
0.325401 0.0873457 0.00669413 66 5 2
0.32511 0.0872298 0.00687341 67 5 1
0.325015 0.0870199 0.00655258 65 4 2
0.324726 0.0869039 0.00673546 66 4 2
0.324598 0.0867114 0.00635971 65 6 2
0.324302 0.0865877 0.00653086 66 6 2
0.324187 0.0864238 0.00618962 67 7 3
0.323889 0.086304 0.00635813 67 7 3
0.323808 0.0861944 0.00609203 68 8 4
0.323503 0.0860631 0.00624793 69 9 4
0.325847 0.0879169 0.00704501 72 6 2
0.325552 0.0878404 0.00723484 72 6 2
0.325198 0.0874962 0.00717919 69 5 2
0.324825 0.0871261 0.0070637 68 5 2
0.324439 0.0867887 0.00693957 65 4 2
0.324028 0.0864502 0.006708 66 6 3
0.323606 0.0861794 0.00653501 67 7 4
0.323214 0.0859222 0.00639996 70 9 4
0.323091 0.085778 0.00604538 72 10 5
0.322658 0.0855153 0.00582187 72 11 6
0.325261 0.0877525 0.0074277 72 7 2
0.324915 0.0873904 0.00737251 68 5 1
0.324548 0.0870118 0.0072676 67 5 1
0.324163 0.0866664 0.00712872 64 4 1
0.323844 0.086506 0.00722756 63 4 1
0.323726 0.0863334 0.00688478 64 6 3
0.323474 0.0862529 0.007146 66 5 2
0.323442 0.0862057 0.00706092 68 6 3
0.323159 0.0860682 0.00723938 66 6 2
0.323337 0.0860676 0.00675401 68 8 4
0.323039 0.0859005 0.00689001 69 8 4
0.322932 0.0857591 0.006563 70 9 4
0.322802 0.0856234 0.00619824 71 10 5
0.322363 0.0853657 0.00597936 73 11 6
0.324981 0.0876575 0.00762635 69 6 2
0.324633 0.0872664 0.00756789 68 4 1
0.324268 0.0868927 0.00746694 66 4 1
0.323874 0.086557 0.00732789 63 4 1
0.323589 0.0864486 0.00751568 64 5 1
0.323196 0.0861277 0.00734836 66 6 2
0.322885 0.0859181 0.0074176 66 6 2
0.322765 0.0857417 0.00706985 69 7 3
0.322493 0.0855779 0.00726547 67 7 3
0.322357 0.0854108 0.00687453 67 9 4
0.322087 0.0852622 0.00710594 68 9 3
0.321937 0.0851141 0.00667356 71 11 5
0.321781 0.085058 0.00719789 67 8 3
0.321654 0.0849447 0.006837 69 10 4
0.321372 0.0847649 0.00700058 70 10 4
0.321229 0.0846675 0.00662664 73 11 5
0.321022 0.0845466 0.00701548 70 11 4
0.320884 0.0844511 0.00663444 74 13 6
0.320721 0.0843606 0.00713277 68 10 4
0.320582 0.0842671 0.00676604 73 13 6
0.320293 0.0840824 0.00690572 71 13 5
0.320437 0.0842093 0.00638783 77 15 7
0.320143 0.0840183 0.00653085 75 15 7
0.320289 0.084204 0.00603484 77 15 7
0.319978 0.0840085 0.00613282 77 14 6
0.320599 0.084402 0.00594953 78 14 7
0.320739 0.0843984 0.00625655 76 13 7
0.322645 0.0855839 0.00671913 69 9 4
0.322511 0.0854561 0.0063624 72 10 5
0.324713 0.0875612 0.00784532 70 6 2
0.32436 0.0871537 0.00776615 65 4 1
0.323982 0.086783 0.00765258 64 4 1
0.324432 0.0874553 0.00805567 68 6 1
0.324065 0.0870444 0.00795136 66 4 1
0.323692 0.0866787 0.00783461 64 5 1
0.323306 0.0863314 0.00769571 64 5 1
0.322922 0.0859938 0.00755851 65 6 2
0.322598 0.0857596 0.00760359 65 6 2
0.32221 0.0854152 0.0074585 65 7 3
0.321812 0.0850992 0.00729898 66 8 3
0.321492 0.0848881 0.00736686 64 9 3
0.321125 0.0846366 0.00730357 68 10 4
0.321074 0.0845957 0.00716831 69 11 4
0.320855 0.0844756 0.00749013 66 9 3
0.320445 0.0841919 0.00731998 68 11 3
0.320122 0.0839853 0.0073973 65 11 4
0.319988 0.0838907 0.00703197 69 13 4
0.319818 0.0838022 0.00753058 63 11 3
0.319682 0.0836902 0.00716116 69 12 4
0.319515 0.0836008 0.00762183 61 11 2
0.319383 0.0834917 0.00728186 65 13 4
0.319239 0.0834085 0.00778633 55 10 2
0.319111 0.0832652 0.00743112 60 11 2
0.319012 0.0831061 0.00800165 51 9 0
0.318898 0.0829083 0.00766647 56 10 1
0.318807 0.0826113 0.00818417 45 8 0
0.318713 0.082348 0.00787305 48 9 1
0.318636 0.081946 0.00844564 33 7 0
0.318521 0.0817802 0.00811637 36 8 0
0.318396 0.0814752 0.0086796 19 8 0
0.31825 0.0814002 0.00830838 25 10 0
0.317926 0.0812925 0.0084684 18 8 0
0.317742 0.0812378 0.00802989 17 8 0
0.317583 0.0813103 0.00859532 16 8 0
0.317392 0.081274 0.00816653 16 10 1
0.317207 0.0814867 0.00867122 17 8 1
0.317058 0.0814307 0.00833188 16 8 1
0.316853 0.0816134 0.00878288 18 9 1
0.316703 0.081508 0.0084248 17 9 2
0.316478 0.0815946 0.00890774 27 11 4
0.316349 0.0814947 0.00850459 29 11 4
0.316038 0.0814128 0.00869282 42 12 5
0.315911 0.0813267 0.00830022 36 13 5
0.315616 0.0812349 0.00848136 53 15 6
0.315485 0.0811639 0.00809758 51 16 7
0.315197 0.0810554 0.00827905 56 17 7
0.31507 0.0809965 0.00790817 55 16 6
0.3148 0.0808698 0.00808951 61 20 10
0.314682 0.080821 0.00774057 60 20 10
0.314441 0.0806945 0.00792133 61 22 12
0.314327 0.0806462 0.00764776 61 26 15
0.314047 0.0804932 0.0078771 63 24 13
0.314079 0.08053 0.00737791 61 26 15
0.313728 0.080325 0.00741996 62 27 16
0.313744 0.0803731 0.00700609 58 23 15
0.313257 0.080137 0.00715276 58 20 6
0.313284 0.0802044 0.00662343 56 20 10
0.312785 0.0798985 0.00680954 56 18 4
0.312693 0.0800212 0.00644354 53 15 1
0.312553 0.0796243 0.00669542 67 28 8
0.312538 0.0797412 0.00631625 62 22 4
0.312576 0.0793884 0.00624532 70 30 11
0.312629 0.0794913 0.00591632 63 28 8
0.312834 0.0791326 0.00582725 71 35 14
0.312872 0.0792387 0.00544433 62 28 9
0.313166 0.0788433 0.00541009 72 39 18
0.312946 0.07934 0.00506899 58 22 7
0.313259 0.0790229 0.00484394 62 31 13
0.313033 0.0794336 0.00471891 50 17 5
0.313484 0.0790902 0.0045221 58 29 15
0.313283 0.0795376 0.00439799 46 18 9
0.313599 0.0795816 0.00415212 45 24 15
0.313433 0.0799679 0.00404611 39 17 10
0.313835 0.0799647 0.00391897 41 24 17
0.313736 0.0803459 0.00389147 39 17 8
0.314113 0.0803002 0.00379244 50 32 23
0.313832 0.0805395 0.00387012 40 18 8
0.314302 0.0806287 0.00371462 51 35 25
0.314084 0.0808352 0.0038938 50 33 21
0.314317 0.0809936 0.00388246 59 41 24
0.314121 0.0811823 0.00407135 48 28 16
0.314461 0.081107 0.00392244 59 44 28
0.314358 0.081265 0.00416412 52 33 20
0.314598 0.0812056 0.00396737 58 45 30
0.31467 0.0812446 0.00404477 55 46 33
0.314544 0.0808681 0.00367963 59 48 37
0.314586 0.0804097 0.00359692 60 53 46
0.314616 0.0800106 0.00357838 57 45 39
0.314924 0.0800562 0.00328173 65 57 48
0.314654 0.0796479 0.00352399 57 47 42
0.314958 0.0797085 0.00320525 61 56 50
0.314692 0.0792852 0.00348701 73 65 59
0.314985 0.0793674 0.00311366 86 81 70
0.31477 0.0789435 0.0033624 89 82 73
0.314987 0.0790284 0.00302855 98 93 82
0.314973 0.0786874 0.00296116 115 108 93
0.315193 0.0787784 0.00259045 125 116 98
0.315177 0.0784414 0.00251623 136 124 104
0.315299 0.0785545 0.00209222 137 128 108
0.315124 0.0781246 0.00233787 148 134 113
0.315211 0.0782428 0.00194863 146 137 117
0.315164 0.0801337 0.00294285 64 59 45
0.315328 0.0798946 0.00249246 89 78 61
0.315412 0.0800011 0.00211103 100 91 75
0.315342 0.0795575 0.0023784 105 94 77
0.31542 0.0796654 0.00201272 109 99 84
0.315362 0.0792304 0.00227151 114 104 86
0.315431 0.0793267 0.00192002 117 110 96
0.315351 0.078896 0.00217844 129 120 102
0.315399 0.0789974 0.00180505 133 127 110
0.315319 0.0786744 0.00168797 145 141 125
0.31537 0.0791204 0.00142098 137 135 123
0.315435 0.0794454 0.00154881 123 120 106
0.31538 0.0795738 0.00113952 119 123 113
0.315428 0.0799038 0.00124252 109 114 106
0.315436 0.0797811 0.00164171 109 108 95
0.315404 0.0801225 0.00171703 101 98 83
0.315421 0.0802555 0.0013428 106 110 101
0.315413 0.0803662 0.000945348 112 117 105
0.315194 0.0791151 0.00267898 108 102 84
0.315182 0.0794572 0.00277066 98 91 73
0.315157 0.0797834 0.0029199 70 65 53
0.314379 0.0800827 0.00364412 52 40 33
0.314214 0.0799691 0.00374172 54 40 31
0.314317 0.0795988 0.00374686 54 40 31
0.314384 0.0792281 0.00373497 65 52 47
0.314709 0.0789246 0.00344045 87 79 72
0.314726 0.0785886 0.0033596 104 97 83
0.314789 0.0786069 0.00327452 104 99 85
0.314762 0.0782722 0.00319302 118 110 94
0.314937 0.0783527 0.0028666 127 119 100
0.314712 0.0779479 0.00308455 125 118 101
0.314915 0.0780318 0.0027233 137 128 106
0.314807 0.077674 0.00262118 156 144 122
0.31497 0.0778152 0.00229598 153 141 120
0.314599 0.0773964 0.00281171 151 142 117
0.314407 0.0770636 0.00299912 146 138 116
0.314412 0.0772178 0.00311594 141 135 114
0.314201 0.0769685 0.0034092 133 127 107
0.314373 0.0771988 0.00324318 137 131 110
0.314216 0.0771107 0.00357712 128 122 104
0.314377 0.0775071 0.00345134 125 119 102
0.314174 0.0774172 0.00378527 118 109 91
0.314199 0.0777504 0.00386187 109 101 84
0.314 0.077662 0.0042181 107 95 77
0.313985 0.0780009 0.00427098 96 81 63
0.313816 0.0778862 0.00468182 97 76 53
0.313762 0.0782466 0.00468068 91 66 43
0.313627 0.078127 0.0051263 91 63 36
0.313468 0.0785442 0.0050131 78 48 24
0.313405 0.0783483 0.00560874 82 53 30
0.313167 0.0787261 0.00582154 76 47 28
0.312867 0.0790078 0.00624291 84 47 25
0.312672 0.0792562 0.00665027 74 37 14
0.312701 0.079488 0.00711706 66 31 12
0.312833 0.0797965 0.00727379 61 21 4
0.313138 0.0800283 0.00756958 65 25 9
0.313567 0.0802305 0.00770881 61 24 12
0.313377 0.080155 0.00808382 63 25 10
0.313792 0.0803854 0.00824375 59 22 10
0.313574 0.080316 0.00861401 62 24 11
0.313993 0.080552 0.00880094 59 20 8
0.31377 0.0805127 0.00916107 60 21 9
0.314289 0.0807621 0.0093583 60 21 13
0.314001 0.0806878 0.00969886 60 22 13
0.314489 0.0809071 0.00990155 60 18 8
0.314242 0.0808416 0.0102247 62 20 12
0.314704 0.081048 0.0103079 57 19 10
0.314631 0.081034 0.0105984 59 20 10
0.315113 0.0812997 0.0105887 59 21 12
0.31484 0.0811797 0.0109476 61 23 13
0.315206 0.0814492 0.0110365 60 23 13
0.314951 0.0813306 0.0113339 63 26 16
0.315293 0.0816298 0.0114252 56 20 11
0.315067 0.0815145 0.011713 61 25 16
0.315415 0.0818656 0.0117881 56 23 13
0.315195 0.0817367 0.0120599 58 27 20
0.315545 0.082137 0.012131 57 26 16
0.315284 0.0820292 0.0124174 54 25 18
0.315632 0.0824365 0.0124907 50 22 16
0.315342 0.0823793 0.0128084 51 26 23
0.31576 0.0828311 0.0127916 56 28 18
0.315492 0.0828151 0.0131191 47 22 18
0.315888 0.0833653 0.0131779 52 30 20
0.315606 0.0832877 0.0134714 44 25 21
0.315759 0.0837608 0.0137404 43 23 20
0.31556 0.0832906 0.0139825 39 23 29
0.315775 0.0833936 0.0142495 34 21 22
0.315721 0.0829102 0.0143581 39 28 33
0.315955 0.0829746 0.0146151 31 32 43
0.315901 0.0824705 0.0147329 37 42 55
0.316126 0.0825402 0.0149938 36 43 57
0.316066 0.082046 0.015117 54 63 70
0.316291 0.0820968 0.0153799 72 81 80
0.316237 0.0815631 0.0154952 91 94 87
0.316452 0.0816341 0.0157615 93 95 89
0.316344 0.0812164 0.0159191 103 106 96
0.316559 0.0812876 0.0161891 116 115 103
0.31644 0.0808925 0.0163541 126 124 108
0.316639 0.0810065 0.0166372 130 127 110
0.316492 0.080648 0.016818 137 131 113
0.316681 0.0807698 0.017109 143 135 113
0.316517 0.0804388 0.0173021 149 140 115
0.316685 0.0805957 0.0176065 154 145 118
0.316552 0.0803933 0.017763 154 145 117
0.316741 0.080614 0.0180431 161 149 121
0.316525 0.0803342 0.018293 160 149 121
0.316698 0.0805915 0.018577 162 152 123
0.31667 0.0805696 0.018652 162 152 123
0.317015 0.081035 0.0187403 169 158 128
0.31677 0.0807925 0.0189813 164 154 125
0.316865 0.0810338 0.0192964 170 161 130
0.3166 0.080819 0.0195108 168 161 131
0.316666 0.0811173 0.0197952 177 172 139
0.316401 0.0809346 0.0200007 173 168 139
0.316441 0.0812867 0.0202487 187 182 149
0.316154 0.08114 0.020437 183 182 149
0.316171 0.081536 0.0206441 189 187 154
