ply
format ascii 1.0
element vertex 1240
property float x
property float y
property float z
property uchar diffuse_red
property uchar diffuse_green
property uchar diffuse_blue
end_header
0.313963 0.10423 0.0221606 79 12 5
0.313999 0.104656 0.022043 79 11 6
0.314097 0.105041 0.0220044 79 11 6
0.313942 0.105147 0.021748 80 12 7
0.314091 0.105503 0.0217664 78 11 6
0.314056 0.101255 0.0240046 78 11 7
0.31416 0.101573 0.024123 78 11 6
0.314074 0.101681 0.0237751 77 11 7
0.314183 0.102051 0.0238699 77 10 7
0.314085 0.102243 0.0234756 78 10 6
0.314081 0.102682 0.0232532 77 11 6
0.314097 0.103143 0.0230106 78 10 6
0.314113 0.103617 0.0227486 78 12 5
0.314118 0.104083 0.0225035 78 11 6
0.314119 0.104551 0.0222627 79 12 5
0.314085 0.105983 0.0215207 76 11 5
0.314213 0.106349 0.0214984 76 10 5
0.314005 0.106495 0.0211923 76 11 6
0.314164 0.106845 0.0212025 74 10 5
0.31378 0.106635 0.0208887 75 11 6
0.313946 0.106982 0.0209107 73 11 6
0.31355 0.106782 0.0205947 75 12 6
0.313719 0.107131 0.0206044 73 11 6
0.313314 0.106923 0.0202977 73 11 7
0.313477 0.107276 0.0203164 72 11 6
0.313214 0.107413 0.0200445 71 11 6
0.313651 0.107632 0.0203305 70 10 6
0.313382 0.107774 0.0200625 69 11 6
0.313816 0.107996 0.020338 69 10 5
0.313562 0.108129 0.0200742 69 10 6
0.313733 0.108477 0.0200855 67 10 6
0.313435 0.10861 0.0198359 66 10 6
0.313626 0.108968 0.0198326 63 9 6
0.31331 0.109095 0.0195951 64 9 5
0.313491 0.109455 0.0195894 61 8 4
0.313158 0.10957 0.0193832 61 9 5
0.313312 0.109916 0.0194049 58 8 5
0.314262 0.107248 0.0211265 71 10 5
0.314249 0.107716 0.0208754 70 10 5
0.31423 0.1082 0.0206432 68 10 5
0.31411 0.107337 0.020922 71 10 5
0.313888 0.107494 0.0206139 70 10 6
0.31406 0.107848 0.0206282 69 9 5
0.314 0.108348 0.0203497 67 10 5
0.313912 0.108842 0.0200789 65 10 6
0.313818 0.109335 0.0198201 61 9 5
0.313669 0.109801 0.0195963 60 8 5
0.313588 0.11024 0.0194724 57 7 5
0.313085 0.107895 0.0198138 70 12 6
0.313259 0.108254 0.0198295 67 10 6
0.312943 0.108379 0.019595 68 11 6
0.31313 0.108736 0.0196012 66 9 5
0.312833 0.0917064 0.0229154 159 145 115
0.312931 0.0918048 0.0232658 151 139 112
0.313055 0.0918 0.02366 152 143 118
0.313261 0.0918083 0.0231662 148 139 113
0.313443 0.0918657 0.0236334 140 131 107
0.313736 0.091924 0.023326 136 128 104
0.313911 0.0919644 0.0237933 138 129 105
0.314199 0.0921054 0.0235128 139 131 107
0.314363 0.0921487 0.0239463 142 133 108
0.31404 0.092063 0.0230805 137 129 105
0.311465 0.0900624 0.0212594 170 133 98
0.3035 0.0886168 0.0246753 148 119 94
0.303915 0.0885576 0.024674 151 121 98
0.304353 0.0885372 0.0246189 152 120 95
0.304815 0.0885135 0.0245149 155 117 89
0.305255 0.0884909 0.0244624 158 116 86
0.305653 0.0884414 0.0244656 151 109 81
0.306045 0.0883609 0.0245231 148 105 78
0.306419 0.0882785 0.0246063 135 94 68
0.306124 0.0887229 0.0245594 141 101 75
0.306488 0.0886399 0.0246596 133 93 68
0.306175 0.0890727 0.0246456 140 102 75
0.306208 0.0894227 0.0247436 139 101 74
0.306799 0.0882103 0.0246878 134 91 64
0.303875 0.0889094 0.0248304 146 127 108
0.303966 0.0890768 0.0249825 144 125 106
0.304203 0.0888722 0.0248071 148 121 99
0.304323 0.089222 0.0251229 148 128 109
0.304518 0.0890799 0.0248889 149 126 104
0.304843 0.0892715 0.0250095 150 125 105
0.304738 0.0889213 0.0246806 147 117 94
0.30505 0.0891427 0.0247571 149 118 94
0.304841 0.0888603 0.0246129 148 118 93
0.30534 0.0891606 0.0246934 150 116 89
0.305315 0.0888445 0.0245077 154 118 92
0.305774 0.0891321 0.0246025 145 109 80
0.305736 0.0887936 0.0244973 152 115 85
0.304437 0.0886716 0.0246475 150 118 94
0.305771 0.089446 0.0248427 145 111 85
0.306004 0.0897879 0.0250716 157 125 97
0.305684 0.0895475 0.0249857 146 114 91
0.305827 0.0898903 0.0253617 161 135 105
0.305513 0.0896554 0.0252654 152 127 102
0.305656 0.0899478 0.0256972 159 142 118
0.305337 0.0897262 0.025584 153 133 110
0.305497 0.0899894 0.0260493 163 150 124
0.305158 0.0897769 0.0259281 157 142 121
0.304992 0.0898655 0.0262557 156 145 128
0.304655 0.0897041 0.0260792 151 140 123
0.30512 0.0902165 0.0266544 163 160 137
0.305327 0.0900655 0.0263851 159 152 132
0.305368 0.0893396 0.0248645 146 116 92
0.305189 0.0894441 0.0251459 149 123 101
0.304666 0.089377 0.0252861 149 129 109
0.304143 0.0893473 0.0253889 150 135 116
0.305001 0.0895355 0.0254494 148 132 112
0.304486 0.0894695 0.0255792 150 133 115
0.303984 0.0894793 0.0256771 142 132 117
0.304322 0.0895684 0.0258968 143 136 119
0.304825 0.089622 0.0257556 151 136 118
0.300064 0.0857341 0.0234599 137 133 109
0.30016 0.0860728 0.0234335 142 135 108
0.300618 0.0863545 0.0235034 152 135 103
0.301099 0.0865904 0.0237132 157 125 91
0.301249 0.086919 0.023819 160 124 92
0.301651 0.0871641 0.0240497 160 123 90
0.302072 0.0874067 0.0242722 164 120 86
0.302506 0.0876849 0.0244155 162 123 90
0.302889 0.0875916 0.0245182 163 121 87
0.303266 0.0875055 0.0246213 163 116 85
0.303664 0.0874434 0.0246913 164 115 85
0.304072 0.0873839 0.0247246 162 113 83
0.304478 0.0873351 0.024742 163 110 78
0.304914 0.0872702 0.0247816 160 108 77
0.305282 0.087209 0.0248138 156 102 75
0.305745 0.0871897 0.0247286 140 99 73
0.306193 0.0871582 0.0247033 139 98 71
0.306588 0.0871082 0.024673 139 95 65
0.306957 0.0870424 0.024713 140 95 64
0.307403 0.0873261 0.0248126 144 94 63
0.307514 0.0872992 0.0248646 147 96 65
0.307839 0.0875802 0.0250075 155 100 68
0.307955 0.087162 0.0250761 155 100 68
0.308244 0.0874647 0.0251895 162 106 71
0.308381 0.0870196 0.0253055 160 103 69
0.308879 0.0873179 0.0254329 175 112 76
0.308816 0.0869007 0.0255026 164 104 68
0.309122 0.0868433 0.0255882 169 108 72
0.308798 0.0864993 0.0255596 158 101 66
0.309248 0.0864068 0.0256994 170 107 72
0.30882 0.0861092 0.025611 160 102 68
0.30926 0.0860139 0.0257306 171 109 73
0.308838 0.0857304 0.0255978 153 100 67
0.309233 0.0856617 0.0256971 162 105 70
0.309158 0.0853382 0.0255877 156 105 71
0.309451 0.0853142 0.0255807 161 106 70
0.30917 0.0850335 0.0254408 153 105 72
0.309383 0.0850152 0.0254231 159 109 74
0.309125 0.0847283 0.0252848 156 112 75
0.309494 0.0847078 0.0252415 157 110 75
0.30907 0.0844474 0.0250904 153 113 77
0.309457 0.0844224 0.0250421 161 117 83
0.309381 0.0841588 0.0247738 164 125 90
0.309633 0.0844173 0.0249951 163 121 85
0.309799 0.084181 0.0245674 170 131 91
0.309967 0.0844395 0.0248382 164 122 85
0.31023 0.0844957 0.024553 166 120 84
0.31038 0.0847682 0.0247789 163 117 82
0.310571 0.084901 0.0243656 163 118 83
0.310657 0.0851917 0.0245533 152 107 76
0.31077 0.0853596 0.0240923 163 113 79
0.310698 0.0855217 0.0246835 149 104 72
0.310798 0.0857019 0.0242103 156 107 74
0.310681 0.0858768 0.024744 145 101 73
0.310745 0.0860676 0.0242557 151 104 73
0.310593 0.0862626 0.0247567 150 101 71
0.310618 0.0864753 0.024226 155 105 71
0.310412 0.0867093 0.0246514 137 94 66
0.310782 0.0862678 0.023731 160 106 74
0.310932 0.0860657 0.0232268 172 117 81
0.311051 0.0858855 0.0226723 176 120 82
0.311196 0.0856852 0.0221711 178 127 91
0.311431 0.0854273 0.0217926 175 129 92
0.311746 0.0851435 0.0214386 181 140 101
0.310839 0.0858947 0.0236903 164 112 78
0.310946 0.085715 0.023134 175 120 83
0.311043 0.085546 0.0225787 177 125 88
0.311214 0.0853446 0.0220945 177 128 91
0.311522 0.0850231 0.0217831 181 139 102
0.311882 0.0847071 0.0215147 184 148 109
0.310842 0.085544 0.0236035 168 116 81
0.310811 0.0852185 0.0234842 170 120 85
0.310928 0.0853901 0.023013 176 126 89
0.310931 0.085042 0.0229374 175 130 92
0.311074 0.0851999 0.0225262 178 133 93
0.311155 0.0847859 0.0225656 180 138 100
0.311338 0.0849421 0.0221531 182 145 103
0.311554 0.0844022 0.0223337 174 150 113
0.311727 0.0845644 0.0219273 178 154 115
0.311942 0.0840682 0.0220875 175 160 126
0.312107 0.0842312 0.0216692 180 158 123
0.312304 0.0837893 0.0217948 180 168 136
0.312424 0.0839304 0.021398 178 168 136
0.312631 0.0834947 0.0214956 178 171 139
0.310696 0.0850536 0.0239232 168 121 86
0.310607 0.0847542 0.023758 169 124 88
0.310769 0.0849008 0.023356 174 129 91
0.310751 0.0845437 0.0232967 178 137 99
0.310963 0.0846675 0.0229275 176 133 95
0.311087 0.084241 0.0229513 183 146 107
0.311338 0.0843055 0.0226593 175 152 114
0.311483 0.0838968 0.0227066 181 158 124
0.311741 0.0839624 0.0224205 175 155 122
0.311875 0.0835727 0.0224673 177 164 132
0.312125 0.0836562 0.0221794 179 167 136
0.312239 0.0832604 0.0222016 180 175 142
0.312476 0.0833631 0.0218868 177 170 139
0.31258 0.0829703 0.0219048 187 180 149
0.312784 0.0830884 0.0215577 184 178 147
0.312325 0.0828791 0.0221987 185 179 147
0.312047 0.082807 0.0224649 180 175 143
0.311762 0.0824042 0.0226391 190 185 151
0.311424 0.082019 0.0227682 193 189 155
0.311075 0.0816583 0.0228453 195 196 160
0.310525 0.081338 0.0228708 197 197 163
0.310495 0.0810238 0.0227184 198 199 166
0.310505 0.0807257 0.0225254 198 202 165
0.30999 0.0807541 0.0225847 192 196 162
0.310398 0.0804287 0.0223412 194 199 164
0.30983 0.0804609 0.0224122 188 192 160
0.310008 0.0802129 0.0222464 185 190 158
0.309558 0.0801692 0.0222526 182 187 156
0.309869 0.0799587 0.0220043 180 188 157
0.309521 0.0799112 0.0220101 177 183 153
0.309889 0.0797697 0.0218063 182 192 161
0.309576 0.0797933 0.0218413 172 181 154
0.309818 0.0795892 0.0215578 168 182 155
0.309125 0.0799121 0.0222094 180 181 151
0.309182 0.0801421 0.0224396 186 190 157
0.309571 0.0804588 0.0224543 189 193 161
0.309234 0.0804271 0.022656 189 192 160
0.30963 0.0807633 0.0226393 193 196 164
0.309287 0.0807341 0.0228258 192 196 163
0.309676 0.0810772 0.022814 194 196 165
0.309329 0.0810471 0.0229858 195 199 165
0.309718 0.0813882 0.0229635 194 194 161
0.309356 0.0813588 0.0231373 192 193 161
0.309751 0.081703 0.0231123 194 192 159
0.309412 0.0816873 0.0232576 193 192 158
0.309496 0.0820175 0.0233523 190 186 153
0.309099 0.0819216 0.023717 188 183 154
0.30945 0.0823412 0.0235065 191 185 151
0.309124 0.0822527 0.0238282 188 180 149
0.309156 0.0826071 0.0238792 185 173 142
0.308814 0.0824855 0.0242842 181 168 137
0.308825 0.0828392 0.0243411 179 165 134
0.308503 0.0827587 0.0246124 176 162 132
0.30852 0.0831374 0.0246213 172 153 121
0.308142 0.0831011 0.0248252 169 148 119
0.308131 0.0834915 0.0247909 163 136 110
0.307764 0.0834888 0.0249098 159 134 109
0.308152 0.083886 0.0247809 156 124 94
0.307754 0.0839142 0.0248447 157 122 94
0.308193 0.0842318 0.0248612 157 119 87
0.307791 0.0842852 0.0248208 155 116 87
0.308233 0.0845526 0.0249978 150 109 77
0.307826 0.0846391 0.024875 153 113 79
0.307889 0.0849688 0.0250018 151 109 76
0.307448 0.0850874 0.0247981 154 109 75
0.307913 0.0852857 0.0251114 146 102 71
0.307461 0.0854306 0.0248774 152 103 71
0.307931 0.0856347 0.025163 148 99 68
0.307465 0.0857789 0.0249181 150 99 67
0.307942 0.0860026 0.0251751 149 97 65
0.307485 0.0861506 0.0249272 149 97 66
0.307959 0.0863798 0.0251583 150 97 66
0.307503 0.0865313 0.0249123 149 97 65
0.307958 0.0867719 0.0251133 151 97 66
0.307504 0.0869163 0.0248754 147 96 64
0.307029 0.0866513 0.0247483 145 94 63
0.306632 0.0867285 0.0246836 140 96 65
0.306595 0.0863532 0.024671 146 99 66
0.306184 0.0864007 0.0247042 145 98 69
0.306184 0.0860398 0.0246705 149 101 70
0.305777 0.0860552 0.0247494 150 101 71
0.305751 0.0857009 0.0246952 156 104 74
0.305386 0.0860593 0.0248323 151 100 70
0.305362 0.0857089 0.0247845 155 102 71
0.305014 0.0860819 0.0249006 153 99 69
0.304968 0.0857318 0.0248466 154 101 70
0.304562 0.0857574 0.0248824 154 100 71
0.304541 0.0854241 0.0248028 155 100 70
0.304097 0.0858139 0.0248643 154 100 71
0.304049 0.0854779 0.0247801 154 101 72
0.303689 0.0858714 0.0248206 151 102 73
0.303625 0.0855301 0.0247544 150 101 72
0.303309 0.0859514 0.0247554 157 106 76
0.303257 0.0856045 0.0246808 153 103 74
0.302873 0.0856918 0.0245772 155 108 77
0.302838 0.0853614 0.0244689 152 106 76
0.302471 0.0854572 0.0243263 149 108 78
0.302798 0.0850402 0.0243407 148 105 77
0.302435 0.0851401 0.0242003 145 107 80
0.302771 0.0847324 0.0241871 150 105 78
0.302356 0.0848435 0.0240209 146 107 79
0.302396 0.0845184 0.0238776 144 110 82
0.302284 0.0845465 0.0238458 144 110 82
0.302372 0.0842126 0.0237125 142 110 82
0.302252 0.0842371 0.0236762 142 111 83
0.30234 0.0838915 0.0235632 141 112 84
0.301954 0.0839648 0.0234612 139 117 89
0.302297 0.0835607 0.0234398 139 115 88
0.301909 0.0836332 0.0233516 138 118 92
0.302246 0.0832144 0.0233396 141 120 91
0.301892 0.0849677 0.0238184 141 112 86
0.30148 0.0854266 0.0237218 146 119 91
0.301047 0.0855371 0.0235301 151 130 97
0.300576 0.0856268 0.0234602 147 137 104
0.300163 0.0856879 0.0234517 138 135 110
0.300594 0.0859914 0.0234759 149 131 98
0.301071 0.0862371 0.02367 154 125 92
0.301184 0.0865643 0.0237588 155 123 92
0.301592 0.0868015 0.0240217 159 122 89
0.301998 0.0870454 0.0242474 160 119 86
0.302428 0.0873114 0.0244183 163 119 86
0.301068 0.0858936 0.0235865 148 123 95
0.301476 0.0861207 0.0238814 152 119 88
0.301532 0.0864546 0.0239678 158 121 89
0.301924 0.0866899 0.0242184 161 120 86
0.302349 0.086937 0.0244212 161 117 85
0.302807 0.0872289 0.0245357 163 117 83
0.301515 0.0857619 0.0238283 148 115 86
0.301815 0.0860017 0.0240847 156 117 85
0.301873 0.0863363 0.024168 158 118 85
0.302211 0.0862383 0.0243319 159 115 82
0.302284 0.0865763 0.0244004 158 114 83
0.302638 0.0864791 0.0245469 157 113 80
0.302711 0.0868452 0.0245534 161 116 83
0.303087 0.0867501 0.0246818 160 114 81
0.303171 0.0871225 0.0246693 163 114 83
0.303466 0.0866744 0.0247746 156 109 78
0.303558 0.0870578 0.0247431 162 112 79
0.303855 0.0866078 0.0248502 156 106 74
0.303959 0.0869939 0.0247942 162 110 77
0.304264 0.0865486 0.0248985 156 105 74
0.30436 0.0869354 0.0248512 164 108 75
0.304654 0.0864814 0.0249387 160 106 72
0.304739 0.086858 0.0249022 163 104 75
0.30508 0.086443 0.0249196 159 102 72
0.305206 0.0868359 0.0248645 152 102 78
0.305402 0.086427 0.024866 151 100 71
0.305639 0.086799 0.0248103 143 99 72
0.305796 0.086412 0.0247895 146 101 71
0.305805 0.0867925 0.0247732 146 98 71
0.306196 0.0867775 0.024698 146 95 70
0.301781 0.0856745 0.0239685 144 112 84
0.302166 0.0858952 0.0242553 154 112 82
0.302578 0.0861271 0.024496 158 111 79
0.303006 0.0863909 0.0246643 158 111 79
0.303379 0.0863047 0.0247833 157 108 77
0.303762 0.0862258 0.0248573 154 104 73
0.304172 0.0861666 0.0249051 155 103 73
0.304593 0.0861199 0.0249252 154 101 70
0.302933 0.0860389 0.0246236 155 108 77
0.302513 0.0857878 0.0244308 157 110 78
0.302123 0.0855598 0.0241633 150 111 82
0.302096 0.0852423 0.0240302 144 109 82
0.301953 0.0852892 0.0239549 146 110 82
0.307028 0.086271 0.024753 147 97 65
0.307021 0.0859025 0.0247276 152 102 68
0.307017 0.0855588 0.0246519 155 106 72
0.306977 0.0852272 0.0245733 155 107 72
0.306953 0.0848636 0.0245241 160 112 78
0.3074 0.0847359 0.0247193 155 111 79
0.30695 0.0844814 0.0245797 157 114 82
0.307381 0.0843591 0.0247461 155 114 81
0.306955 0.0840337 0.0247511 155 115 90
0.307375 0.0839499 0.0248452 153 116 89
0.306974 0.0835709 0.0249498 159 124 101
0.307377 0.0835178 0.0249588 159 129 104
0.307393 0.0831051 0.025071 167 143 116
0.307768 0.0830747 0.0249957 169 147 118
0.308128 0.0827075 0.0248556 175 158 128
0.308478 0.0823988 0.024599 178 166 137
0.308791 0.0821373 0.0242262 185 177 147
0.30658 0.0859977 0.0246384 150 100 68
0.30656 0.085648 0.0245734 157 105 72
0.306528 0.0853295 0.0244526 161 113 77
0.306507 0.0849805 0.0243826 166 116 80
0.306476 0.0846059 0.0244284 163 117 82
0.306503 0.0841511 0.0246047 163 119 89
0.306601 0.0836626 0.0248306 164 124 99
0.306476 0.0832601 0.0249386 165 133 107
0.30686 0.0831752 0.0250646 166 132 107
0.306365 0.0828746 0.0250199 170 141 115
0.30673 0.0827781 0.0251451 170 145 118
0.306256 0.0824922 0.02507 166 145 118
0.306633 0.0824 0.0251988 171 150 122
0.306164 0.0821065 0.025105 163 145 121
0.306566 0.0820262 0.0252137 169 152 127
0.306486 0.0816576 0.0251918 166 154 129
0.306903 0.0815985 0.0252028 172 161 133
0.306835 0.0812415 0.0251648 167 161 135
0.307324 0.0812193 0.025076 178 170 141
0.306932 0.0808821 0.0250775 169 165 137
0.307285 0.0808789 0.0249909 182 176 146
0.307263 0.0805495 0.0248864 175 173 146
0.307619 0.0805614 0.0247404 180 180 149
0.307237 0.0802161 0.024766 177 177 147
0.307591 0.0802461 0.0246013 182 183 152
0.307195 0.0799042 0.0246162 179 181 151
0.307555 0.0799407 0.024434 182 186 155
0.307139 0.079608 0.0244437 177 177 149
0.307503 0.0796479 0.0242489 181 184 152
0.30709 0.0793156 0.024249 179 181 149
0.307447 0.0793558 0.0240439 182 182 150
0.306767 0.079557 0.0245534 176 177 147
0.306763 0.0795929 0.0245793 173 174 143
0.306388 0.0796055 0.0246607 172 172 143
0.306202 0.0799373 0.0248174 164 164 138
0.306055 0.0802306 0.0249011 160 158 135
0.306245 0.0802652 0.0249267 162 162 136
0.305836 0.080333 0.0248909 157 155 132
0.305906 0.0806763 0.0249644 157 155 132
0.305517 0.0807682 0.0248523 154 150 128
0.305962 0.0810205 0.0250249 157 150 129
0.305587 0.0811184 0.0248936 155 149 127
0.306025 0.0813804 0.0250727 156 146 127
0.305658 0.0814793 0.0249244 155 145 123
0.306089 0.0817377 0.0251079 162 147 124
0.305737 0.0818361 0.0249333 158 142 121
0.305799 0.0822185 0.0249139 161 141 116
0.305891 0.0826039 0.024863 168 142 116
0.306016 0.0829855 0.0248141 169 136 109
0.306124 0.0833758 0.0247529 168 127 100
0.306245 0.0837711 0.0246695 170 121 93
0.306064 0.0842528 0.0244603 167 118 86
0.306064 0.0846677 0.0243629 165 115 82
0.306089 0.0850253 0.0243972 167 114 81
0.30613 0.0853585 0.024494 163 110 78
0.306164 0.0856919 0.0245967 157 105 74
0.306422 0.0813014 0.02515 164 154 131
0.306534 0.0809277 0.0250966 162 157 134
0.306506 0.0805801 0.0250223 163 162 138
0.306885 0.080553 0.0249847 173 170 143
0.306858 0.0802153 0.0248714 170 168 141
0.306372 0.0809513 0.0250979 161 156 133
0.306317 0.0806035 0.0250244 164 162 137
0.306458 0.0802453 0.0249277 167 167 141
0.306422 0.0799153 0.0248079 169 169 141
0.306811 0.0798942 0.0247398 173 173 145
0.305452 0.0804196 0.0247931 154 151 130
0.305166 0.0808702 0.0246821 156 149 129
0.304849 0.0809917 0.0244431 158 149 129
0.30453 0.0811297 0.0241699 159 147 126
0.304221 0.0812804 0.023868 161 145 121
0.303912 0.0814274 0.0235883 161 143 117
0.303582 0.0815527 0.0233843 159 139 112
0.303301 0.0820291 0.0232293 159 135 107
0.302918 0.0824117 0.0232859 158 130 103
0.302582 0.0828071 0.023335 150 124 95
0.305252 0.0812327 0.0246899 156 145 125
0.304926 0.0813604 0.0244261 162 148 126
0.30463 0.0814863 0.0241492 164 148 126
0.304335 0.0816641 0.0238015 162 144 120
0.304019 0.0818261 0.0234941 159 139 111
0.303682 0.0819528 0.0233065 161 139 110
0.303365 0.0823694 0.0232821 160 131 102
0.302984 0.0827566 0.0233562 153 124 93
0.302642 0.0831566 0.0233969 147 118 89
0.302682 0.0834866 0.0235106 143 115 86
0.302712 0.0838107 0.0236717 146 111 83
0.302745 0.0841222 0.0238348 145 108 80
0.305323 0.0815936 0.0247005 155 143 122
0.305012 0.0817226 0.0244147 163 145 124
0.304731 0.0818668 0.0241023 167 147 122
0.304424 0.0820579 0.0237386 163 141 118
0.304114 0.0822043 0.0234746 164 138 109
0.303753 0.0823095 0.02332 162 134 103
0.303797 0.082641 0.0234238 160 128 95
0.303397 0.0826974 0.0233826 156 126 96
0.30382 0.0829545 0.0235783 154 121 91
0.303421 0.0830306 0.0235216 150 120 91
0.303835 0.0832643 0.0237619 152 114 85
0.303453 0.0833412 0.0236939 150 113 85
0.303842 0.0835761 0.0239471 155 113 84
0.303462 0.0836476 0.0238784 150 110 80
0.303861 0.0838855 0.0241163 157 108 77
0.303483 0.0839515 0.0240542 152 107 77
0.303892 0.084193 0.0242725 158 107 76
0.303502 0.0842652 0.0242166 153 107 77
0.303915 0.0845038 0.0244223 156 103 74
0.303526 0.0845747 0.0243703 153 104 73
0.303951 0.0848245 0.0245575 154 104 72
0.30355 0.0848844 0.0245229 150 102 73
0.303584 0.0852072 0.0246522 151 102 72
0.30321 0.0852746 0.0245798 150 103 74
0.303181 0.0849573 0.0244402 150 103 75
0.303152 0.084653 0.0242867 148 104 75
0.303128 0.0843443 0.024131 149 106 76
0.303116 0.0840419 0.0239487 148 106 77
0.303095 0.0837259 0.023778 144 110 82
0.303064 0.083415 0.0236057 148 116 86
0.303035 0.0830947 0.0234556 149 117 88
0.302761 0.0844327 0.0240155 147 109 80
0.305391 0.0819659 0.0246799 161 143 121
0.305122 0.0820877 0.0243915 163 144 120
0.304823 0.0822625 0.024039 167 142 112
0.304516 0.0824331 0.023727 166 137 107
0.304168 0.0825537 0.0235434 162 130 99
0.304204 0.0828691 0.0236788 160 127 96
0.304233 0.0831844 0.0238343 163 122 90
0.304571 0.082771 0.0238249 167 133 99
0.304614 0.0831003 0.0239394 169 126 94
0.304953 0.0829995 0.0240982 170 136 104
0.304648 0.0834254 0.0240652 169 118 89
0.305034 0.0833462 0.024155 171 128 94
0.304689 0.083759 0.0241707 166 114 86
0.305084 0.0836907 0.0242381 170 120 89
0.304797 0.0840742 0.0242964 165 113 83
0.305208 0.084021 0.0243251 169 117 87
0.305244 0.084362 0.0243995 169 115 84
0.305519 0.0839631 0.0243825 174 123 91
0.305644 0.0843247 0.0243972 175 121 88
0.305892 0.083873 0.0245072 174 124 93
0.305663 0.0846846 0.0244104 166 115 82
0.30527 0.0847021 0.0244855 166 112 79
0.304841 0.0843989 0.0244216 163 111 80
0.304873 0.0847211 0.024551 159 106 75
0.304468 0.084761 0.0245711 156 103 72
0.30491 0.0850558 0.0246681 157 104 73
0.304503 0.085086 0.0246969 157 103 74
0.304939 0.085388 0.0247671 156 102 71
0.305336 0.0853643 0.0247164 159 105 74
0.305725 0.0853617 0.0246099 162 109 77
0.30569 0.0850286 0.024507 163 110 78
0.305302 0.0850365 0.0246029 161 108 76
0.303997 0.0851484 0.024681 154 102 72
0.304324 0.0844485 0.0244452 159 106 77
0.304297 0.0841304 0.0243002 161 109 78
0.304286 0.0838169 0.0241434 158 108 80
0.304263 0.0835035 0.0239947 162 116 86
0.305505 0.082338 0.0246529 163 140 116
0.305213 0.0824885 0.0243462 164 142 115
0.304894 0.0826409 0.0240476 166 136 104
0.305286 0.0828618 0.0243364 166 135 104
0.305365 0.0832366 0.0243326 170 127 96
0.305701 0.0831025 0.024578 168 132 107
0.305795 0.0834995 0.0245296 172 129 99
0.305457 0.083599 0.0243615 171 123 92
0.305604 0.0827142 0.024621 166 137 110
0.307153 0.082725 0.0251673 176 152 123
0.307408 0.0826925 0.0251401 173 151 122
0.307391 0.0823074 0.0251718 176 159 130
0.307766 0.0823133 0.0250319 177 161 131
0.307747 0.0819355 0.0250279 179 166 136
0.308117 0.0819635 0.024828 180 171 141
0.308068 0.0816133 0.0247955 180 172 143
0.308444 0.0816926 0.0244903 181 174 144
0.308416 0.0813562 0.0244074 183 181 151
0.308738 0.0814685 0.0240322 188 186 156
0.308425 0.0810391 0.0242511 186 187 154
0.30874 0.0811478 0.0238846 186 187 155
0.308398 0.0807191 0.0241058 187 187 155
0.308708 0.0808294 0.0237365 189 191 160
0.308662 0.0805063 0.0236067 188 189 158
0.309005 0.0809486 0.0233386 193 195 163
0.308961 0.080625 0.0232034 188 191 159
0.309052 0.0812693 0.0234714 190 192 160
0.309066 0.0815892 0.0236106 186 186 157
0.308772 0.0818013 0.0241333 184 181 150
0.30846 0.0820386 0.024556 179 173 143
0.308115 0.0823346 0.0248565 174 161 131
0.307779 0.0826944 0.0250281 174 153 127
0.307058 0.0823399 0.0252053 173 155 127
0.306984 0.081962 0.0252268 174 158 130
0.307404 0.0819276 0.0251612 179 164 134
0.307325 0.0815641 0.0251394 178 168 138
0.307705 0.0815759 0.025009 180 170 138
0.307706 0.0812287 0.024935 184 177 147
0.30767 0.0808967 0.0248389 183 180 149
0.308029 0.080942 0.0246125 184 184 153
0.307983 0.0806149 0.0244996 185 185 154
0.308075 0.081281 0.0247052 183 180 150
0.307947 0.0802947 0.0243661 184 186 155
0.307896 0.0799962 0.0241952 182 185 154
0.307835 0.0797026 0.0240038 182 185 153
0.307787 0.0794199 0.0237849 184 184 152
0.308353 0.0803994 0.0239822 186 189 155
0.308585 0.0801883 0.0234778 189 190 158
0.308916 0.0803338 0.0230091 190 192 161
0.308393 0.086623 0.0253487 156 99 68
0.308419 0.0862277 0.025404 153 98 66
0.308384 0.085861 0.0254373 152 99 67
0.308353 0.085504 0.0253906 149 99 68
0.308808 0.0853966 0.0255444 154 102 70
0.308756 0.085082 0.0254219 153 105 71
0.30834 0.0851727 0.0253004 149 102 70
0.308302 0.0848607 0.025169 150 108 75
0.308716 0.0847788 0.0252636 150 105 73
0.308657 0.0844924 0.025075 153 113 80
0.309005 0.0841662 0.0248452 161 122 87
0.308934 0.0838696 0.0246148 166 137 100
0.309312 0.0839131 0.0244413 171 138 99
0.308874 0.0835576 0.0244369 172 144 110
0.30924 0.0836214 0.0241857 179 150 114
0.308843 0.0832035 0.0243582 176 153 120
0.309221 0.0833063 0.0240144 182 156 120
0.309187 0.0829585 0.0239368 187 171 134
0.309528 0.0830395 0.0236339 189 169 132
0.309509 0.0826898 0.0235684 189 178 144
0.30986 0.0826929 0.0234496 191 178 145
0.309816 0.0823549 0.0233596 193 185 151
0.310267 0.0826676 0.0233821 190 181 146
0.31026 0.0823292 0.0232982 193 186 153
0.310661 0.0826676 0.023278 193 183 149
0.310636 0.0823174 0.0232067 195 190 156
0.311041 0.0826889 0.0231139 191 180 146
0.311064 0.0823293 0.0230417 191 184 151
0.311401 0.0827078 0.0229138 188 179 146
0.311427 0.0823599 0.0228533 190 184 150
0.311732 0.0827584 0.0226951 186 180 147
0.311083 0.0819858 0.0229502 193 191 156
0.310564 0.081655 0.0230062 198 196 162
0.31013 0.0813641 0.0229133 197 195 162
0.310049 0.0810594 0.0227605 194 198 163
0.310171 0.0816779 0.0230641 195 192 159
0.310216 0.0819962 0.0231961 193 190 158
0.310589 0.0819778 0.0231171 196 193 159
0.309789 0.0820244 0.0232473 193 189 156
0.308508 0.0835086 0.0246278 167 143 112
0.308546 0.0838746 0.0246999 164 129 97
0.308607 0.0841877 0.0248764 162 126 91
0.309621 0.0839364 0.0242603 173 137 97
0.310079 0.0842298 0.0242762 175 132 93
0.309933 0.0839787 0.024021 174 138 99
0.310308 0.0843328 0.023938 175 134 97
0.310231 0.084036 0.0237644 176 137 99
0.310536 0.0844343 0.0236248 178 136 99
0.310518 0.0841147 0.0234999 180 142 103
0.310808 0.0841699 0.0232281 181 142 104
0.310882 0.0837882 0.0232025 180 152 117
0.311194 0.0838446 0.0229687 181 157 122
0.310955 0.0834119 0.0231904 185 165 132
0.311287 0.0834483 0.0229728 185 165 131
0.31101 0.0830415 0.023159 187 173 138
0.311356 0.0830748 0.0229545 187 174 141
0.310642 0.0830247 0.0233199 186 168 133
0.310275 0.0830245 0.0234376 186 169 135
0.309888 0.0830371 0.0235177 187 170 136
0.309559 0.0833686 0.0237487 185 160 124
0.30946 0.0836501 0.0240263 176 147 105
0.310591 0.0833919 0.0233826 182 162 128
0.31031 0.0833822 0.0234798 183 159 122
0.309924 0.0833811 0.0235996 181 159 123
0.310181 0.0837275 0.0236218 179 148 110
0.309814 0.0836967 0.0238026 179 152 111
0.31054 0.0837585 0.0234175 178 147 110
0.311593 0.0835062 0.0227379 183 167 134
0.31167 0.0831286 0.0227278 184 174 142
0.311971 0.0831791 0.0224779 178 169 138
0.310449 0.0846179 0.024152 169 125 87
0.308771 0.0797907 0.0225463 179 179 147
0.308845 0.0800422 0.0228037 185 186 155
0.30846 0.0796396 0.0230115 183 184 151
0.308522 0.0798963 0.0232823 184 185 153
0.308128 0.0795087 0.0234408 184 186 153
0.308193 0.0797845 0.023666 186 189 155
0.308245 0.0800763 0.0238742 188 190 157
0.309755 0.0846971 0.0251922 163 115 79
0.309841 0.0849914 0.0253619 159 109 72
0.31013 0.0847073 0.0250458 163 116 81
0.310226 0.0850099 0.0251909 153 104 73
0.310476 0.0850674 0.0249515 151 106 75
0.31052 0.0853935 0.0250691 149 102 73
0.310528 0.0857377 0.0251478 144 99 71
0.310473 0.0861051 0.0251849 151 102 73
0.310333 0.0865124 0.0251334 158 107 75
0.310104 0.0869895 0.0249634 151 103 73
0.31026 0.0853062 0.0253469 158 107 73
0.309899 0.085288 0.0255116 163 107 71
0.309909 0.0856064 0.0256441 170 110 75
0.309475 0.0856351 0.0256981 167 106 70
0.309865 0.0859709 0.0256853 174 112 76
0.309442 0.0859898 0.0257644 177 111 76
0.309763 0.0863714 0.0256656 180 117 79
0.309587 0.0868068 0.0255699 176 111 76
0.30936 0.0872721 0.0254023 182 120 80
0.309689 0.0873156 0.0252009 171 112 79
0.309947 0.0868378 0.0253652 164 109 78
0.310092 0.0864086 0.0254703 178 117 81
0.31021 0.0860073 0.0254978 169 112 79
0.310288 0.0856473 0.0254322 155 106 74
0.308425 0.0787998 0.0206958 200 197 151
0.308112 0.078765 0.0209656 202 196 155
0.307898 0.0786941 0.0211985 196 194 154
0.308158 0.0789233 0.021042 194 191 149
0.308013 0.0789989 0.0215817 183 179 143
0.308277 0.0792188 0.0213692 188 185 144
0.308389 0.0793224 0.021756 179 178 142
0.308649 0.0795218 0.02156 180 178 145
0.308554 0.0794743 0.0212586 189 187 145
0.30845 0.0792663 0.0208854 197 188 145
0.309875 0.07868 0.0202428 193 195 162
0.309506 0.0787171 0.0203143 193 193 161
0.309974 0.0789006 0.0205853 184 190 161
0.309605 0.0789967 0.0206308 182 182 154
0.31006 0.0790939 0.0209234 175 188 160
0.3097 0.0792286 0.0209632 173 183 155
0.310122 0.0793128 0.0212534 175 187 159
0.309764 0.0793991 0.0212607 162 182 156
0.310207 0.0796081 0.0216279 182 196 164
0.310258 0.0799213 0.021961 194 199 164
0.310317 0.0802462 0.0222186 194 200 165
0.310668 0.097945 0.0306145 85 24 12
0.310296 0.0979205 0.0307813 83 23 12
0.309914 0.097915 0.030917 81 23 12
0.309895 0.0975729 0.0308638 81 24 13
0.309541 0.0979113 0.0310352 79 19 10
0.309582 0.0977343 0.0309832 79 20 11
0.309255 0.0976557 0.0310566 80 21 12
0.309312 0.0972075 0.0310423 81 27 18
0.308915 0.0975558 0.0311032 79 21 13
0.308984 0.0970972 0.0311156 80 27 19
0.308757 0.097246 0.0311267 79 26 19
0.308648 0.097 0.031155 81 29 21
0.308332 0.0972853 0.0311156 82 27 18
0.308289 0.096904 0.0311521 81 30 23
0.308236 0.0969461 0.0311498 83 32 23
0.308046 0.0965475 0.031313 81 36 30
0.307823 0.0969847 0.0311047 84 34 25
0.307683 0.0966219 0.0311997 83 36 27
0.30742 0.0970318 0.0310742 86 31 21
0.307309 0.0966787 0.0311038 88 38 28
0.307002 0.0970712 0.0310598 87 33 23
0.306929 0.0967367 0.0310106 89 36 24
0.306599 0.0971283 0.0310083 88 30 18
0.306542 0.0967974 0.0309426 91 36 24
0.306202 0.0971971 0.0309462 89 32 21
0.306152 0.0968617 0.0308715 93 36 23
0.305812 0.0972728 0.0308758 86 30 18
0.305763 0.0969375 0.03079 94 37 23
0.305426 0.0973491 0.0307851 88 34 20
0.305375 0.0970102 0.0306947 96 39 24
0.304996 0.0971023 0.030587 103 46 27
0.305314 0.0966778 0.0306257 107 52 34
0.304936 0.096765 0.0305098 113 58 37
0.304874 0.0964243 0.0304813 116 68 45
0.304499 0.0965077 0.0303521 117 61 39
0.304404 0.0961501 0.030387 122 83 56
0.304058 0.0962375 0.0302243 127 80 53
0.304003 0.0958324 0.0303485 130 100 77
0.303683 0.0959398 0.0301356 134 99 68
0.303747 0.0954828 0.0303634 134 111 91
0.303432 0.0955961 0.0301392 134 108 84
0.303537 0.0951189 0.0303359 144 130 109
0.303224 0.0952572 0.0301225 143 126 107
0.30331 0.0948153 0.0302341 152 139 117
0.30307 0.0948942 0.0300842 153 141 119
0.303224 0.0944402 0.0302092 156 148 126
0.302868 0.0945662 0.0299762 159 149 128
0.302811 0.0942017 0.0299533 161 154 131
0.302482 0.0943228 0.0297385 161 153 130
0.302405 0.0939656 0.0297122 165 159 136
0.302076 0.0940901 0.0294873 165 161 137
0.301996 0.0937194 0.0294825 168 163 140
0.301657 0.0938431 0.0292643 167 163 140
0.301583 0.093478 0.0292585 169 164 142
0.301243 0.0936034 0.0290357 172 167 144
0.301179 0.0932363 0.0290312 172 168 146
0.300853 0.0933556 0.0287976 171 171 147
0.300896 0.0929532 0.0288531 173 170 148
0.300754 0.0929999 0.028751 173 172 148
0.300717 0.0926454 0.0286934 170 168 144
0.300409 0.0927864 0.0284217 170 169 146
0.300401 0.0924579 0.0283202 165 162 143
0.300091 0.0926129 0.0280154 170 166 146
0.300378 0.0921688 0.0281417 161 157 138
0.300082 0.0923223 0.0278317 161 156 136
0.300383 0.0918932 0.0279173 150 147 129
0.300085 0.092039 0.0276082 152 149 130
0.300408 0.0916203 0.0276731 140 137 120
0.300119 0.0917798 0.027344 138 135 116
0.300435 0.0913713 0.0274065 131 129 112
0.300146 0.0915205 0.0270826 130 126 110
0.300542 0.0911856 0.0270467 114 113 101
0.300234 0.0913178 0.0267426 117 113 99
0.300694 0.0910696 0.0265304 101 100 89
0.300346 0.0911734 0.0262898 104 100 91
0.300837 0.0909987 0.02585 99 94 81
0.300525 0.0910981 0.0255745 100 92 80
0.301043 0.0909136 0.0252085 111 103 87
0.300904 0.0909745 0.0248788 109 99 84
0.301372 0.0905285 0.024758 128 113 94
0.301071 0.0905937 0.0243971 135 118 94
0.301382 0.0901186 0.0244419 147 124 102
0.301056 0.0902302 0.0241917 149 125 100
0.301357 0.0897901 0.0242583 152 123 98
0.301008 0.0899118 0.0240352 158 129 100
0.301308 0.0894667 0.0240983 157 126 99
0.300952 0.0895751 0.0238804 159 129 98
0.301261 0.0891295 0.0239673 158 125 94
0.300909 0.0892406 0.023769 159 128 95
0.30087 0.088908 0.0236929 157 132 95
0.300509 0.0890049 0.0235441 152 140 103
0.300446 0.0886512 0.0235002 145 131 98
0.300073 0.0887417 0.0233778 150 142 109
0.300013 0.0883877 0.0233132 143 138 113
0.299645 0.0884898 0.0231786 151 147 122
0.29957 0.0881304 0.0231549 146 142 120
0.299206 0.088241 0.0229714 147 145 127
0.299233 0.0878303 0.0230552 143 145 129
0.2991 0.0878748 0.0229821 140 144 128
0.299023 0.0874913 0.0230126 141 144 128
0.298696 0.0875998 0.0228099 127 135 122
0.2986 0.0872367 0.022836 120 131 119
0.298276 0.0873629 0.0226028 111 122 114
0.298428 0.0872173 0.0227266 112 121 112
0.297931 0.0872014 0.0224338 99 114 108
0.298068 0.086788 0.0226109 92 110 105
0.297546 0.0867707 0.0223077 75 98 97
0.297724 0.0863216 0.0225398 68 91 91
0.297253 0.0862938 0.022278 50 76 79
0.297287 0.0862103 0.0223334 47 68 71
0.2969 0.0860798 0.0222125 47 64 65
0.297017 0.0857336 0.0224014 64 75 68
0.296672 0.085661 0.0224616 76 81 68
0.296793 0.0853067 0.0226443 86 92 77
0.296345 0.0855974 0.0225712 75 78 62
0.296468 0.085238 0.0227457 74 79 63
0.296143 0.0851789 0.0228671 50 61 43
0.296589 0.0848961 0.0229229 74 81 64
0.296256 0.0848375 0.0230228 47 61 42
0.296398 0.0844735 0.0232423 44 59 40
0.296054 0.084421 0.0233122 36 47 31
0.29619 0.0840539 0.0235142 35 46 30
0.295819 0.0839725 0.0234985 29 35 20
0.295928 0.0835979 0.0236371 29 35 21
0.295505 0.0834986 0.0235297 30 26 13
0.295597 0.0831184 0.0236346 31 26 14
0.295218 0.0830373 0.0235711 29 22 11
0.295283 0.0827087 0.0236171 29 21 10
0.294855 0.0829846 0.0235372 29 15 4
0.296724 0.0845267 0.0231289 71 79 64
0.297039 0.0845799 0.0229845 89 96 79
0.29736 0.0846334 0.0228693 91 99 86
0.297615 0.0850784 0.0227111 83 98 90
0.297914 0.0855741 0.0227527 73 92 90
0.298368 0.0857046 0.0229907 91 106 100
0.298721 0.086231 0.0230817 111 121 113
0.299119 0.0864967 0.0232228 127 132 120
0.299085 0.0866191 0.0231853 132 136 123
0.299303 0.0870044 0.0232177 142 144 127
0.298962 0.0870778 0.0230493 136 142 125
0.298944 0.0871188 0.0230331 136 141 125
0.299771 0.0873025 0.0232844 151 146 122
0.299328 0.087401 0.0231662 148 148 129
0.299777 0.0876927 0.0232421 144 142 120
0.299476 0.0877569 0.0231628 142 143 125
0.300192 0.0876108 0.0233157 148 141 113
0.299941 0.0880433 0.023268 145 139 113
0.300323 0.0879555 0.0233767 150 137 103
0.298578 0.0867046 0.0229193 107 121 112
0.29819 0.0863698 0.0227733 84 103 102
0.298491 0.0870178 0.0228054 104 118 110
0.296924 0.084943 0.0228347 84 88 72
0.297132 0.085367 0.0225655 73 87 79
0.297397 0.0858464 0.0224744 65 84 82
0.297251 0.0850018 0.0227231 80 89 80
0.297507 0.0854543 0.0225841 65 81 77
0.297832 0.0859424 0.0226704 63 87 87
0.298276 0.0860763 0.0228822 83 103 100
0.309645 0.0972204 0.0309317 82 28 18
0.308747 0.0966605 0.0313155 80 31 25
0.308404 0.096565 0.0313465 79 36 31
0.308532 0.0962499 0.0315795 82 44 41
0.308181 0.096144 0.0316007 82 47 44
0.308051 0.096458 0.0313585 81 36 30
0.307823 0.09603 0.0315934 85 52 47
0.296285 0.081657 0.0239677 41 24 11
0.296234 0.0820396 0.023972 36 26 14
0.29617 0.082457 0.0239464 35 26 14
0.296526 0.0829507 0.0239451 32 43 29
0.296871 0.083041 0.0238861 39 54 37
0.296766 0.0833926 0.0237572 41 54 37
0.29709 0.0834553 0.0236351 67 78 62
0.284848 0.0794643 0.0162175 55 1 0
0.285331 0.0791655 0.0160367 55 2 0
0.285096 0.0796501 0.0158597 56 2 0
0.285491 0.0793296 0.0156646 55 3 0
0.285235 0.0798176 0.0154736 56 3 0
0.285743 0.0788361 0.0158412 51 3 0
0.285585 0.0786477 0.0161986 55 1 0
0.285972 0.0781303 0.0163451 53 2 0
0.286179 0.0778087 0.016612 53 3 0
0.286356 0.0775248 0.0169155 54 3 1
0.286515 0.0772566 0.0172159 54 3 1
0.286692 0.077036 0.0175512 56 3 1
0.286837 0.0768349 0.0178676 58 3 1
0.286961 0.0766696 0.0180925 57 4 1
0.287165 0.0763665 0.0184965 60 3 1
0.287315 0.0761578 0.0187979 60 4 1
0.287487 0.0759482 0.0191244 61 4 1
0.287637 0.0757646 0.0194501 62 4 2
0.287797 0.0755806 0.0197789 62 5 2
0.287946 0.0754061 0.0201103 63 5 2
0.288095 0.0752403 0.0204342 63 6 3
0.288265 0.0750931 0.0207691 65 6 3
0.288409 0.074988 0.0210816 64 7 3
0.28857 0.0748909 0.0214637 65 8 4
0.288732 0.0748223 0.0218295 65 9 4
0.289106 0.0747072 0.0219319 67 8 4
0.286042 0.0783237 0.0160163 51 3 1
0.286335 0.0779579 0.0161911 51 3 1
0.291659 0.0741205 0.0213414 66 9 5
0.293482 0.0742962 0.0216898 57 7 2
0.293725 0.0742524 0.0213955 53 8 3
0.295971 0.0746236 0.0209667 25 7 0
0.295681 0.0747238 0.0211741 41 7 0
0.295334 0.0745913 0.0209786 39 7 0
0.295204 0.0746733 0.0212888 40 8 0
0.294973 0.0746812 0.0216098 44 6 1
0.294735 0.0746859 0.0219481 50 7 0
0.294268 0.0746062 0.0221165 52 7 1
0.294091 0.074705 0.0224284 57 5 1
0.293571 0.0746527 0.022554 61 6 1
0.293387 0.0747683 0.022846 61 6 2
0.293058 0.0746207 0.0226758 62 6 2
0.292873 0.0747354 0.0229675 63 6 2
0.292532 0.0745903 0.0227821 61 6 3
0.292351 0.0747235 0.0230641 64 6 2
0.292097 0.0746143 0.0229284 65 6 3
0.29216 0.0748519 0.0233357 65 6 3
0.291889 0.0747328 0.0231968 65 7 3
0.291964 0.074988 0.0236031 64 6 3
0.29168 0.0748679 0.0234535 64 5 2
0.29148 0.075006 0.0237163 64 7 2
0.291341 0.0747266 0.0232684 66 7 3
0.29114 0.0748718 0.023526 64 7 2
0.290974 0.0745975 0.0230485 67 8 4
0.290768 0.0747393 0.0233159 65 8 4
0.290438 0.0746551 0.0230865 67 9 4
0.290232 0.0747997 0.0233453 65 8 4
0.289885 0.0747331 0.0230923 68 10 5
0.28968 0.0748859 0.0233518 69 9 4
0.289325 0.0748637 0.0230594 68 10 5
0.289141 0.075 0.0233297 68 10 5
0.288799 0.0749999 0.0230423 66 10 5
0.288597 0.0751384 0.0232979 64 10 5
0.28828 0.075153 0.0230242 63 9 5
0.288096 0.0752979 0.0232907 65 9 6
0.287728 0.0753301 0.0229544 62 9 4
0.287576 0.0754547 0.0232558 61 8 4
0.287235 0.0755022 0.0229339 57 8 4
0.28706 0.0756246 0.0232237 57 8 4
0.286758 0.0756963 0.022933 59 8 4
0.286568 0.0758279 0.0231882 57 9 4
0.286218 0.0759337 0.0228208 62 8 4
0.286022 0.0760667 0.0230844 62 8 4
0.285884 0.0761234 0.0230057 64 9 5
0.285835 0.0762152 0.0233445 63 9 5
0.285478 0.0763522 0.0231675 63 9 6
0.285338 0.0764431 0.0232839 63 10 6
0.285136 0.0765525 0.0233163 63 10 7
0.285283 0.0765835 0.0237135 61 9 6
0.284788 0.0767602 0.0234717 65 10 7
0.284934 0.0767948 0.0238513 65 10 7
0.284441 0.0769761 0.0236306 66 10 7
0.284584 0.0770086 0.0240015 68 11 7
0.284091 0.0771776 0.0237661 68 10 8
0.284247 0.077215 0.0241453 71 12 8
0.283754 0.0773858 0.0239241 70 11 7
0.2839 0.0774186 0.0243031 72 12 8
0.283453 0.0776033 0.024236 72 12 8
0.283539 0.0776253 0.0244646 73 12 8
0.283119 0.0778184 0.0244514 75 12 7
0.283207 0.0778276 0.0246188 75 12 7
0.282817 0.078028 0.0246948 74 12 7
0.283317 0.0779159 0.024981 76 12 8
0.282958 0.0781239 0.025128 75 12 8
0.283457 0.0780217 0.0253638 76 12 8
0.283101 0.0782202 0.025505 76 13 8
0.283582 0.0781476 0.0257201 76 13 8
0.283207 0.0783154 0.0258074 76 12 8
0.283706 0.0782876 0.0260733 75 12 7
0.283339 0.0784423 0.0261607 75 12 8
0.283817 0.0784644 0.0264203 74 11 6
0.283458 0.078604 0.0265217 75 12 7
0.283941 0.0786919 0.0268087 71 9 5
0.283578 0.0787839 0.0268679 74 11 5
0.284036 0.0788956 0.0271425 71 9 4
0.283674 0.0789718 0.0272009 72 9 5
0.284126 0.0791227 0.0274659 70 9 4
0.283763 0.0791821 0.0275407 70 8 4
0.284217 0.0793532 0.0277744 69 8 3
0.28386 0.0794016 0.0278607 70 8 4
0.284283 0.0795582 0.0280354 70 8 3
0.283948 0.0796278 0.028181 70 7 2
0.284363 0.0797932 0.0283552 68 7 3
0.284024 0.0798447 0.02851 68 8 3
0.284426 0.0800185 0.0286775 66 6 3
0.284087 0.0800106 0.0287816 66 6 2
0.284175 0.0802172 0.0291004 66 6 2
0.283838 0.0801835 0.0292246 64 5 1
0.284245 0.0804864 0.0294713 62 4 2
0.283936 0.0804228 0.029649 61 4 1
0.284309 0.0807348 0.0298107 62 4 1
0.284016 0.0806426 0.0300202 58 3 0
0.284367 0.0809859 0.0301412 59 3 1
0.284091 0.0808631 0.030379 57 2 0
0.28443 0.0812363 0.0304619 61 2 0
0.284174 0.0811017 0.0307258 56 2 0
0.284473 0.0814508 0.0307113 59 2 0
0.284241 0.0813405 0.0310373 56 2 0
0.284538 0.0817446 0.0310238 58 2 0
0.284309 0.0816286 0.03137 56 2 0
0.284599 0.0820668 0.031326 59 2 0
0.284382 0.0819133 0.0316942 56 1 0
0.284643 0.0823698 0.0316104 59 2 0
0.28445 0.0822219 0.0320427 56 2 0
0.284664 0.0825744 0.031805 58 3 0
0.284503 0.0825289 0.0323801 57 2 0
0.284711 0.0829364 0.0321296 57 2 0
0.284539 0.0828572 0.032669 57 2 1
0.284724 0.083296 0.0323581 55 1 0
0.284554 0.0832044 0.0328988 56 2 0
0.284712 0.0836327 0.0324709 57 1 0
0.284555 0.0835907 0.0330391 55 3 0
0.284539 0.0837353 0.0330767 55 3 0
0.284397 0.0835021 0.0336348 53 3 0
0.284376 0.0837781 0.0336825 56 3 0
0.284253 0.0834294 0.0342106 55 3 0
0.284224 0.0838362 0.0342776 56 2 0
0.284101 0.0833549 0.0347714 59 3 1
0.28407 0.0837326 0.0348653 59 3 1
0.283959 0.0832678 0.0353343 57 3 1
0.283935 0.0836473 0.035425 58 3 1
0.283797 0.0833665 0.0359099 58 4 1
0.283786 0.0835646 0.0359405 58 4 1
0.283617 0.0834875 0.0364517 59 4 1
0.283573 0.0838915 0.0364881 58 3 1
0.283462 0.0834303 0.0369897 60 4 1
0.283409 0.0838003 0.0370417 61 3 2
0.283236 0.0837303 0.0375593 64 5 3
0.283384 0.0840534 0.0370629 59 4 1
0.283195 0.0840792 0.0375708 61 3 1
0.283318 0.0844394 0.037057 59 3 1
0.283121 0.0844643 0.0375655 63 4 2
0.283241 0.0848231 0.0370142 62 3 1
0.283041 0.084844 0.0375163 64 5 1
0.282944 0.0852196 0.0374184 63 4 0
0.282751 0.0851701 0.0378818 65 6 1
0.282628 0.0855048 0.0377184 63 4 0
0.282406 0.0855757 0.0380776 63 4 0
0.282284 0.0858993 0.037882 61 4 0
0.282025 0.0859622 0.0381908 63 3 0
0.281896 0.0862551 0.0379616 63 4 0
0.281605 0.0863128 0.0382095 64 5 0
0.281444 0.0865688 0.037872 66 5 1
0.281285 0.0864045 0.0383683 66 7 1
0.281154 0.0865994 0.0380537 66 6 1
0.280839 0.0866152 0.0382189 70 9 3
0.280693 0.0867551 0.0378747 71 11 4
0.280466 0.0866441 0.0382408 76 15 5
0.28029 0.0867881 0.0378218 76 15 7
0.280149 0.0866212 0.0383713 80 19 8
0.279969 0.0867436 0.0379454 79 18 8
0.279647 0.0866833 0.0380655 87 27 14
0.279503 0.0867454 0.037708 85 24 12
0.279185 0.0866635 0.0378175 90 31 18
0.279354 0.0867944 0.0373408 83 22 11
0.279033 0.086699 0.0374441 87 27 15
0.278956 0.0867104 0.037266 86 27 14
0.278645 0.0865988 0.0373887 94 36 21
0.278494 0.0865847 0.0370141 87 31 17
0.278184 0.0864708 0.037143 93 39 24
0.278204 0.0864769 0.036828 85 29 16
0.277917 0.0863693 0.0371842 94 39 25
0.278103 0.0864369 0.0367719 85 30 16
0.277758 0.086242 0.036628 81 31 18
0.277947 0.0862907 0.0362234 72 21 12
0.277606 0.0860479 0.0361047 65 18 11
0.277773 0.0861023 0.0357065 57 12 6
0.277588 0.0859206 0.0356541 57 13 7
0.277687 0.0858767 0.0352593 54 10 6
0.277425 0.0855462 0.035237 49 6 4
0.27755 0.0854739 0.0348751 50 6 4
0.277287 0.0851342 0.0348893 51 6 3
0.277603 0.0853085 0.0345084 50 4 2
0.27737 0.0849752 0.0345439 55 6 3
0.277674 0.085353 0.0343618 50 4 2
0.277388 0.0848933 0.0344084 55 6 3
0.277602 0.0850541 0.034072 54 6 4
0.277341 0.0845698 0.0341363 57 5 4
0.277532 0.0847323 0.0337667 60 6 5
0.277305 0.0842171 0.0338672 59 6 4
0.277479 0.0843946 0.0334456 62 6 4
0.277276 0.0838679 0.0336406 61 5 3
0.277434 0.0840635 0.0332269 60 6 4
0.277262 0.0834958 0.0334592 64 6 3
0.277435 0.0836568 0.0330257 65 5 2
0.277424 0.0832545 0.0329146 67 5 2
0.277579 0.0834589 0.0324136 66 6 3
0.277597 0.0830328 0.0322955 67 5 2
0.277735 0.0832653 0.0317588 66 4 3
0.277762 0.0828515 0.0316742 66 4 1
0.27785 0.0831749 0.0310933 67 4 3
0.277899 0.0826713 0.0309326 66 4 1
0.277933 0.0830723 0.030285 68 5 3
0.277972 0.0826753 0.0301378 67 4 2
0.278012 0.0829802 0.0294824 67 4 2
0.278089 0.0824659 0.0294113 69 3 1
0.278103 0.0828892 0.0287238 68 4 2
0.278163 0.0825164 0.028701 69 4 1
0.278244 0.0825839 0.0280567 70 5 2
0.278342 0.082206 0.028138 68 4 1
0.27845 0.082152 0.0273948 69 5 1
0.27859 0.0817944 0.0276417 68 5 2
0.278786 0.0814992 0.0270961 70 5 2
0.278949 0.081227 0.0273868 71 6 2
0.279182 0.080915 0.026912 69 5 2
0.279374 0.0807014 0.0272917 69 6 2
0.279625 0.0803877 0.0268165 70 7 3
0.279849 0.0802555 0.0272436 72 9 4
0.280108 0.0799782 0.0267503 73 10 5
0.280383 0.079911 0.0272717 75 11 6
0.280596 0.0796855 0.0267619 75 11 6
0.280793 0.0796849 0.0271534 77 12 7
0.281098 0.0794878 0.0268826 78 14 8
0.281222 0.0795275 0.0271868 77 13 7
0.281607 0.0793469 0.0270678 77 14 8
0.281732 0.0794151 0.027389 77 14 8
0.282102 0.0792719 0.0272602 77 13 8
0.282229 0.0793952 0.0276372 75 11 6
0.282596 0.0792758 0.0275188 73 11 6
0.282708 0.0794254 0.0278806 71 10 6
0.283069 0.0793538 0.0277687 71 10 5
0.283172 0.0795382 0.028119 70 9 5
0.283501 0.0794394 0.0279412 68 8 3
0.283596 0.0796476 0.0282746 69 8 3
0.28369 0.0798431 0.0286083 68 7 3
0.283762 0.0799906 0.0288802 67 6 2
0.283416 0.0792656 0.0276619 71 9 4
0.283319 0.0790628 0.0273124 73 9 6
0.283218 0.0788922 0.0269674 73 11 6
0.283099 0.078741 0.0266238 75 12 6
0.282959 0.0785929 0.0262543 75 13 8
0.282832 0.0784781 0.0258941 76 13 8
0.282741 0.0784127 0.0256541 77 13 7
0.282615 0.0783377 0.0253284 76 13 8
0.282469 0.078261 0.0249341 74 12 8
0.282325 0.0782086 0.0245428 72 11 7
0.282638 0.078 0.0243036 73 11 7
0.282166 0.0782117 0.024191 71 10 7
0.282486 0.0780037 0.0239308 71 11 6
0.282025 0.0782249 0.0238388 70 9 5
0.282326 0.078037 0.0235582 70 8 5
0.281863 0.0782821 0.0234961 68 7 4
0.282142 0.0781048 0.0231761 68 8 4
0.281638 0.078402 0.0231185 66 7 3
0.281961 0.0782025 0.0227988 67 7 3
0.281475 0.078533 0.0226763 65 5 2
0.281846 0.0782826 0.0224466 64 5 3
0.281636 0.0784445 0.0221157 63 4 1
0.282119 0.0781157 0.0221805 64 5 2
0.281924 0.0782611 0.0217465 61 4 2
0.282411 0.0779634 0.0218352 61 4 2
0.282236 0.0780906 0.0214718 60 4 1
0.282737 0.0778012 0.0215571 60 4 1
0.282568 0.077932 0.0211866 58 4 1
0.283061 0.0776748 0.0213218 60 4 2
0.282893 0.07781 0.0209536 59 3 1
0.283363 0.0775582 0.0210966 59 4 2
0.283189 0.0777088 0.0207332 58 3 1
0.283667 0.0774357 0.0208588 59 3 2
0.283491 0.0776001 0.0205062 58 3 1
0.283967 0.0773176 0.0206124 58 3 1
0.283807 0.0774904 0.0202921 57 2 1
0.284268 0.07722 0.0204016 57 3 1
0.284104 0.0773753 0.0200716 57 2 1
0.284579 0.0771008 0.0201432 58 3 1
0.28442 0.0772805 0.0198242 58 3 1
0.284888 0.0770016 0.0199132 58 3 1
0.284726 0.077189 0.0195745 57 2 1
0.285199 0.0769001 0.0196895 58 3 1
0.285039 0.0771013 0.0193529 56 2 1
0.285515 0.0768054 0.0194384 58 3 1
0.285358 0.0770121 0.0191265 57 2 1
0.285838 0.0767274 0.0192179 59 3 1
0.285686 0.0769413 0.0189111 58 2 0
0.286008 0.0768798 0.0187062 58 3 1
0.28585 0.0771101 0.0184078 57 3 0
0.286153 0.0766587 0.0190158 59 3 1
0.285984 0.0765476 0.0194969 59 3 1
0.285667 0.0766115 0.0197552 59 3 1
0.285347 0.076706 0.0200024 59 4 1
0.285049 0.0768171 0.0202363 59 3 2
0.284748 0.0769246 0.0204934 59 4 2
0.284432 0.0770522 0.0207445 60 4 2
0.284133 0.0771557 0.020976 60 4 3
0.28383 0.0772711 0.0212186 62 5 3
0.283521 0.0774033 0.0214624 62 5 3
0.283221 0.0775369 0.0216929 63 6 3
0.282893 0.0776906 0.0219546 64 6 3
0.282544 0.0778734 0.0222063 65 6 3
0.282273 0.0780191 0.0225247 66 6 4
0.286305 0.0764502 0.0193355 59 3 1
0.286467 0.0762526 0.0196493 59 3 1
0.286623 0.0760668 0.0199889 59 4 1
0.286299 0.0761673 0.0201724 60 4 2
0.286452 0.0760097 0.020512 62 5 2
0.286116 0.0761261 0.0207079 61 5 3
0.286275 0.0759771 0.0210479 61 5 3
0.285941 0.0761244 0.0212457 61 6 3
0.286102 0.0759791 0.0216027 61 7 3
0.285773 0.0761346 0.0217928 62 7 4
0.285933 0.0760327 0.0221607 62 8 4
0.285545 0.0762455 0.0222594 63 8 4
0.285688 0.0761828 0.0226326 64 9 5
0.285331 0.0763872 0.0227864 64 8 5
0.285893 0.0760592 0.0224695 64 8 5
0.286396 0.075832 0.0225281 63 8 5
0.286966 0.0755724 0.0226718 59 8 4
0.287199 0.0754506 0.0224212 60 8 4
0.287438 0.0753857 0.0226689 58 8 4
0.287634 0.0752768 0.0223824 62 7 4
0.287928 0.0752029 0.0226911 62 9 4
0.288114 0.0750899 0.0224062 64 8 4
0.288486 0.0750244 0.0227625 64 9 5
0.288998 0.0748709 0.0227777 66 9 5
0.289513 0.0747207 0.0227916 69 10 6
0.290082 0.0746024 0.0228247 68 10 5
0.290634 0.0745241 0.0228169 68 8 4
0.291185 0.0744749 0.0227817 67 8 4
0.291544 0.074598 0.0230006 67 8 3
0.291753 0.0744768 0.0227304 65 8 3
0.292297 0.0744929 0.0226497 64 6 3
0.292713 0.0744834 0.022477 62 7 2
0.29251 0.074401 0.0223649 63 6 2
0.287672 0.0752459 0.0222532 65 8 4
0.287487 0.0752992 0.0218839 65 7 4
0.28732 0.07541 0.021515 64 7 3
0.287264 0.0754509 0.0213608 64 7 3
0.287104 0.0755769 0.0210074 62 5 3
0.286943 0.0757359 0.020664 61 5 3
0.286788 0.0758911 0.0203294 61 5 2
0.286608 0.0758517 0.020858 62 5 3
0.286451 0.0758232 0.0214309 61 6 3
