ply
format ascii 1.0
element vertex 1266
property float x
property float y
property float z
property uchar diffuse_red
property uchar diffuse_green
property uchar diffuse_blue
end_header
0.225815 0.0586267 -0.0322206 53 3 1
0.226016 0.0585618 -0.0318828 53 4 1
0.225795 0.0582187 -0.0322543 55 4 1
0.226006 0.0581639 -0.0319093 55 4 1
0.225799 0.0577889 -0.0323137 58 4 1
0.226003 0.057745 -0.031966 58 3 1
0.225815 0.0575705 -0.0323625 58 4 1
0.226021 0.0574551 -0.0320273 58 3 2
0.225853 0.0571797 -0.0324904 59 4 2
0.226053 0.0570787 -0.0321509 60 4 1
0.225925 0.05681 -0.0326369 60 4 2
0.226117 0.0566898 -0.0322917 61 3 1
0.226214 0.0563333 -0.0324842 62 5 2
0.226404 0.056235 -0.0321413 62 4 1
0.226509 0.0558867 -0.0323453 60 4 2
0.226717 0.0557849 -0.0320072 62 4 1
0.226798 0.0555493 -0.032166 62 3 2
0.227022 0.0554106 -0.0318618 62 3 1
0.227134 0.0551059 -0.0320946 65 5 2
0.227344 0.054968 -0.0317974 65 4 2
0.227473 0.0546736 -0.032058 68 6 4
0.227699 0.0545458 -0.0317721 65 5 3
0.227795 0.0543898 -0.0319534 68 7 4
0.228042 0.0542429 -0.0317047 68 7 4
0.22821 0.0540192 -0.0320069 68 7 4
0.228446 0.0538653 -0.031753 70 8 5
0.22862 0.0536735 -0.0320677 70 9 6
0.228869 0.05354 -0.0318153 71 9 5
0.229052 0.0533818 -0.0321461 71 9 6
0.229314 0.0532431 -0.0319237 71 10 6
0.229502 0.0531324 -0.0322549 72 9 7
0.229761 0.0530068 -0.0320363 71 9 7
0.22995 0.0529331 -0.0323504 71 9 7
0.230129 0.0528509 -0.0320289 71 10 7
0.230365 0.0527714 -0.0323134 73 9 7
0.230417 0.0527331 -0.031847 73 11 7
0.230671 0.0526597 -0.0321291 72 10 7
0.230728 0.0526365 -0.0316478 74 11 8
0.230956 0.0525751 -0.0319781 73 10 7
0.231203 0.0524997 -0.031779 72 11 7
0.231423 0.052462 -0.0321188 72 10 7
0.231508 0.0524135 -0.0316142 75 11 8
0.231725 0.0523844 -0.0319609 73 11 7
0.232008 0.0523259 -0.0317704 73 10 8
0.232207 0.0523261 -0.0321141 71 10 7
0.232507 0.0522553 -0.0319341 71 10 7
0.232662 0.0522917 -0.0321839 70 9 7
0.232957 0.0522243 -0.0320058 70 9 7
0.233162 0.0522895 -0.0323459 68 9 6
0.233463 0.0522395 -0.0321694 68 9 6
0.233672 0.052366 -0.0324979 68 9 7
0.233971 0.0523069 -0.0323253 68 9 6
0.234178 0.0524977 -0.0326315 69 9 7
0.234481 0.0524526 -0.0324587 69 10 7
0.234569 0.0525555 -0.0325828 70 10 7
0.234867 0.0524986 -0.0324179 70 10 8
0.23505 0.0527785 -0.0326762 71 10 8
0.235354 0.0527251 -0.032508 72 10 8
0.235437 0.0528719 -0.0326219 72 10 8
0.235743 0.0528234 -0.0324574 72 10 8
0.235904 0.0531366 -0.032669 73 10 8
0.236044 0.0527925 -0.0322817 72 10 7
0.236206 0.0530981 -0.0325009 74 10 7
0.23651 0.0530536 -0.0323307 72 9 6
0.236661 0.0533735 -0.0325346 74 9 6
0.236967 0.0533288 -0.0323649 75 9 6
0.23711 0.0536624 -0.0325611 77 9 6
0.237416 0.0536226 -0.03239 78 9 6
0.237501 0.0538157 -0.0325019 77 9 6
0.237805 0.0537857 -0.0323306 76 10 6
0.237643 0.0541388 -0.0326931 79 9 6
0.237949 0.0541054 -0.0325115 78 10 6
0.238087 0.0544289 -0.0326943 79 9 6
0.238242 0.0540784 -0.0323344 78 9 6
0.238384 0.0544001 -0.0325167 78 9 6
0.238553 0.0540427 -0.0321696 79 10 6
0.238694 0.0543652 -0.0323507 79 10 7
0.238999 0.0543229 -0.0321896 78 10 7
0.239128 0.0546579 -0.0323564 78 9 6
0.239439 0.0546163 -0.0322006 77 9 6
0.239574 0.0549514 -0.0323673 77 8 6
0.239883 0.054905 -0.0322087 78 9 6
0.240024 0.0552375 -0.0323843 80 9 6
0.240327 0.0552051 -0.0322122 79 10 6
0.240457 0.0555451 -0.0323786 82 9 6
0.240755 0.055522 -0.0321994 80 9 6
0.240567 0.055906 -0.0325076 82 9 6
0.240864 0.0558791 -0.0323295 82 9 6
0.240662 0.0562413 -0.0326046 81 9 6
0.240956 0.0562136 -0.0324286 81 9 6
0.240744 0.0566266 -0.0326886 83 10 5
0.241038 0.0565966 -0.0325049 82 9 5
0.241118 0.0569879 -0.0325725 83 10 5
0.24142 0.0569562 -0.0323979 81 9 5
0.241432 0.0570583 -0.0324101 80 9 5
0.241715 0.0569323 -0.0322144 80 8 5
0.241798 0.0574245 -0.0322724 82 9 5
0.24208 0.0573029 -0.0320736 79 8 5
0.242158 0.0577952 -0.0321331 80 10 5
0.242458 0.0577629 -0.0319443 82 10 5
0.242515 0.0581625 -0.0319878 81 10 5
0.242808 0.058132 -0.0318015 82 11 6
0.242569 0.0585588 -0.0320054 83 11 6
0.242859 0.0585296 -0.0318225 82 10 5
0.242601 0.0589521 -0.0320084 85 11 6
0.242906 0.0589302 -0.0318334 83 10 5
0.242642 0.0593523 -0.0320067 84 11 5
0.242946 0.0593237 -0.0318335 85 11 5
0.242978 0.0597243 -0.0318327 87 11 6
0.243283 0.0596962 -0.0316622 86 11 5
0.243318 0.060093 -0.0316485 88 12 6
0.243627 0.0600619 -0.031488 87 11 6
0.243651 0.0604713 -0.0314654 89 12 6
0.243955 0.0604396 -0.0313034 88 11 6
0.243671 0.0607729 -0.0314484 89 11 6
0.243985 0.0608411 -0.0312782 89 12 6
0.243689 0.0611825 -0.0314111 90 12 6
0.243996 0.0611492 -0.0312568 90 11 6
0.243697 0.0615734 -0.0313662 90 12 7
0.244015 0.0615508 -0.031218 90 12 7
0.243703 0.0619668 -0.0313211 91 14 8
0.244028 0.0619483 -0.0311693 90 12 7
0.244034 0.0623439 -0.0311319 91 14 8
0.244344 0.0619264 -0.0310265 90 12 7
0.244363 0.0623194 -0.0309836 90 13 7
0.244674 0.062295 -0.0308332 90 13 7
0.244372 0.0627121 -0.0309372 92 14 7
0.244687 0.0626956 -0.0307911 91 13 8
0.244368 0.0631118 -0.0308868 91 14 7
0.244696 0.06309 -0.0307512 92 14 8
0.244374 0.0635107 -0.0308314 93 14 8
0.244699 0.0634879 -0.0306906 93 14 8
0.244368 0.063905 -0.0307603 94 13 8
0.244691 0.0638821 -0.0306181 93 14 8
0.244687 0.0642756 -0.0305338 95 15 8
0.245005 0.0642584 -0.0303943 95 14 8
0.244671 0.06466 -0.030448 95 15 8
0.244984 0.064638 -0.0302997 95 15 8
0.244966 0.0650248 -0.0302101 94 16 8
0.245301 0.0646213 -0.0301504 94 15 8
0.245283 0.0650143 -0.0300641 94 16 8
0.245611 0.064988 -0.0299237 94 15 8
0.245395 0.0651984 -0.0299684 94 16 9
0.245765 0.0651317 -0.0298219 94 15 7
0.245417 0.0655362 -0.0298788 94 16 8
0.245792 0.0654664 -0.0297243 94 17 9
0.245441 0.0658716 -0.0297852 95 18 9
0.245822 0.0658089 -0.0296481 95 18 9
0.245846 0.0661498 -0.0295706 96 19 9
0.246228 0.0660865 -0.0294434 97 20 11
0.24625 0.0664251 -0.0293647 99 23 12
0.24663 0.0663613 -0.0292191 99 24 12
0.246652 0.0667026 -0.0291424 102 27 14
0.24701 0.0666412 -0.0290013 102 29 17
0.247046 0.0669822 -0.0289309 102 30 18
0.247417 0.066919 -0.0287937 103 33 21
0.247443 0.0672728 -0.0287455 106 40 25
0.247829 0.0672035 -0.0286176 106 41 27
0.247855 0.0675575 -0.0285847 112 52 34
0.247865 0.0672077 -0.0286069 106 41 27
0.247891 0.0676085 -0.0285728 112 52 34
0.248211 0.0671898 -0.0284953 105 43 27
0.248232 0.0675835 -0.0284781 119 60 41
0.248552 0.0671728 -0.0283841 109 47 31
0.248584 0.0675661 -0.0283872 121 63 43
0.248901 0.0672695 -0.0282787 120 62 42
0.248955 0.0676649 -0.0283123 122 67 47
0.24931 0.0676141 -0.0282346 126 78 54
0.249032 0.0680289 -0.0284236 130 85 62
0.249401 0.067962 -0.028382 130 90 69
0.249092 0.0681865 -0.0285216 129 87 67
0.249438 0.0680664 -0.0284427 129 90 70
0.249244 0.0684359 -0.0287745 131 96 79
0.249627 0.068344 -0.0287381 129 97 80
0.249459 0.0686982 -0.0290897 133 114 99
0.249839 0.068605 -0.0290501 131 114 97
0.24967 0.0690199 -0.0293856 138 129 111
0.250024 0.0688937 -0.0293304 132 121 103
0.249843 0.0694112 -0.0296169 147 142 122
0.250244 0.0693595 -0.0296025 147 142 123
0.249964 0.0697739 -0.0297132 152 149 127
0.250364 0.069761 -0.0296827 150 147 127
0.250045 0.0702014 -0.0297375 146 149 131
0.250416 0.0701914 -0.0296678 148 150 132
0.250062 0.0706032 -0.0296829 148 148 131
0.250415 0.0705869 -0.029581 141 144 127
0.250333 0.070949 -0.0294015 137 140 122
0.250658 0.0709142 -0.0292551 130 132 115
0.250526 0.071233 -0.0289865 130 129 112
0.250833 0.0712053 -0.0288297 126 121 105
0.25066 0.0715343 -0.0284924 125 115 100
0.250956 0.0714896 -0.0283173 122 110 94
0.25074 0.0718062 -0.0279155 128 113 97
0.251243 0.0714647 -0.028118 122 107 91
0.251038 0.0717519 -0.0277333 128 111 96
0.251525 0.0714229 -0.0279155 123 108 92
0.251299 0.0717012 -0.0275059 128 108 93
0.251812 0.0713659 -0.0277291 125 106 90
0.25154 0.0716557 -0.0272301 124 105 91
0.252072 0.0713191 -0.0274923 125 106 91
0.251744 0.0716363 -0.026877 121 99 87
0.252312 0.0712776 -0.027208 122 103 89
0.251972 0.0715765 -0.0265794 123 93 81
0.252418 0.0713284 -0.0266795 121 99 87
0.252236 0.0714797 -0.0263543 124 94 81
0.252502 0.0713698 -0.0261471 124 86 72
0.25233 0.0715298 -0.0258323 116 70 58
0.252598 0.0713983 -0.0256273 113 66 54
0.252283 0.0715845 -0.0257316 114 67 54
0.252538 0.0714853 -0.0255003 106 55 45
0.252115 0.0718027 -0.0254212 104 52 42
0.252392 0.0717321 -0.0252178 97 42 31
0.252275 0.0720114 -0.0249662 95 38 28
0.252557 0.0719738 -0.0247709 93 34 24
0.252159 0.0723289 -0.024724 92 32 22
0.252449 0.0722906 -0.0245348 90 29 21
0.252339 0.072607 -0.0242998 88 27 18
0.252628 0.0725578 -0.0241122 83 21 12
0.252505 0.0728636 -0.0238585 80 17 10
0.252795 0.0728087 -0.0236701 77 16 10
0.252669 0.0731144 -0.0234031 74 12 6
0.252952 0.0730501 -0.0232104 73 11 6
0.252827 0.0733468 -0.0229607 73 10 6
0.253124 0.0732854 -0.0227711 73 10 5
0.252988 0.0735796 -0.022514 72 9 5
0.253275 0.0735065 -0.0223148 70 9 5
0.253139 0.0737822 -0.0220511 70 9 5
0.253413 0.0737069 -0.0218329 68 8 5
0.253547 0.0738776 -0.0213555 68 10 6
0.253667 0.0740268 -0.0208532 64 9 6
0.253587 0.0741361 -0.0207048 60 9 5
0.253415 0.0743682 -0.0203851 58 9 5
0.253159 0.0745981 -0.0199327 48 7 4
0.252912 0.0748005 -0.0194989 35 6 3
0.253137 0.0747288 -0.0191991 38 7 3
0.252862 0.0738549 -0.0222465 70 10 5
0.25271 0.0736352 -0.0227075 72 10 6
0.252538 0.0734149 -0.0231524 73 11 6
0.252386 0.0731636 -0.023605 74 12 6
0.252092 0.0732187 -0.0237999 79 17 10
0.252222 0.0729184 -0.0240509 83 21 13
0.251931 0.0729643 -0.0242404 84 21 12
0.252043 0.0726517 -0.0244827 89 28 19
0.25175 0.0726967 -0.0246642 90 28 20
0.25187 0.0723646 -0.0249121 93 33 24
0.25157 0.0724233 -0.0251057 97 39 29
0.251984 0.0720558 -0.0251654 96 39 29
0.251698 0.0721261 -0.0253551 99 41 31
0.251844 0.0718841 -0.0256358 109 58 46
0.251572 0.0719793 -0.0258513 117 70 57
0.252011 0.0716902 -0.0259507 118 73 60
0.251744 0.0717871 -0.0261712 126 89 76
0.251407 0.0722067 -0.0255527 106 54 43
0.245319 0.0642274 -0.0302448 94 15 8
0.245016 0.0638581 -0.0304767 94 14 8
0.245325 0.0638326 -0.0303174 93 14 7
0.245014 0.0634658 -0.0305469 93 14 8
0.245327 0.0634389 -0.0303847 92 14 8
0.245319 0.0630408 -0.0304344 92 13 7
0.245628 0.0630123 -0.0302685 92 13 7
0.245307 0.0626418 -0.0304826 91 13 7
0.245612 0.0626207 -0.0303185 90 12 7
0.2453 0.0622515 -0.0305195 90 13 7
0.245596 0.0622193 -0.0303521 91 13 7
0.245281 0.0619298 -0.030548 89 12 7
0.245586 0.0619083 -0.0303743 89 12 7
0.245557 0.0614978 -0.0303981 88 10 5
0.245879 0.0618748 -0.0301999 90 11 7
0.245852 0.0614754 -0.0302123 87 10 5
0.246131 0.0614423 -0.0300094 88 12 7
0.246095 0.0610488 -0.0300073 87 10 6
0.24636 0.0610277 -0.0298019 87 10 6
0.246316 0.0606315 -0.0297938 86 9 5
0.246591 0.0606119 -0.0295724 86 11 5
0.246264 0.0602415 -0.0297652 86 10 5
0.246535 0.060221 -0.029539 86 9 5
0.246203 0.0598426 -0.0297267 85 9 5
0.246472 0.0598261 -0.0294907 85 9 5
0.246147 0.0595004 -0.0296907 85 9 5
0.246399 0.0594325 -0.029438 84 9 6
0.246077 0.0591208 -0.0296336 84 9 5
0.246345 0.0591151 -0.0293983 85 8 7
0.246266 0.058724 -0.0293251 85 9 7
0.246527 0.05873 -0.0290794 85 9 7
0.246445 0.0583456 -0.0289942 85 10 6
0.246705 0.0583526 -0.0287399 86 10 6
0.246611 0.0579799 -0.0286457 87 10 7
0.246859 0.0579907 -0.0283831 87 11 7
0.246769 0.0576677 -0.0282808 86 10 7
0.247104 0.0580088 -0.028108 88 10 7
0.247005 0.0576425 -0.0279922 87 10 7
0.247353 0.0580267 -0.0278305 85 10 7
0.247248 0.0576601 -0.0277103 86 11 6
0.247593 0.0580491 -0.0275491 86 11 8
0.24749 0.0576816 -0.0274268 87 11 7
0.247766 0.0578821 -0.0271874 87 11 7
0.247652 0.0575228 -0.0270431 88 11 7
0.24788 0.0576044 -0.0267379 89 11 8
0.247744 0.0572794 -0.0265537 88 11 7
0.247977 0.0573723 -0.0262434 86 11 7
0.247603 0.0569794 -0.026359 85 10 7
0.247828 0.0570658 -0.0260358 84 10 7
0.247432 0.0566931 -0.0261143 81 10 6
0.247668 0.0567773 -0.0258119 80 10 6
0.247248 0.0564305 -0.025861 79 10 7
0.247491 0.0564996 -0.0255608 78 10 7
0.247072 0.0561765 -0.0256048 79 11 7
0.247317 0.0562416 -0.0253029 79 10 7
0.246889 0.0559176 -0.0253348 81 12 8
0.247127 0.0559876 -0.0250354 81 12 8
0.2467 0.055674 -0.0250565 80 11 8
0.24694 0.0557423 -0.0247557 80 13 8
0.246503 0.0554231 -0.0247739 79 12 8
0.24675 0.0554969 -0.0244696 81 14 8
0.246309 0.055198 -0.0245027 78 13 8
0.246542 0.0552794 -0.0241845 76 13 9
0.246101 0.0549893 -0.0241958 77 13 9
0.246318 0.0550911 -0.0238557 81 15 10
0.245879 0.0548113 -0.0238409 82 16 11
0.246083 0.0549307 -0.0234698 85 18 13
0.245626 0.0546546 -0.0234553 84 18 12
0.245824 0.0547928 -0.023062 88 23 15
0.245364 0.0545157 -0.0230117 90 25 15
0.245561 0.0546729 -0.0226369 102 36 22
0.245112 0.0543999 -0.0226075 107 40 24
0.245309 0.0545523 -0.0222117 126 52 32
0.244855 0.0542972 -0.0221914 133 60 37
0.245041 0.054428 -0.0217874 164 92 54
0.244566 0.0541725 -0.0217422 166 93 54
0.244804 0.0542497 -0.0214231 179 121 78
0.244352 0.0539686 -0.0213969 178 122 75
0.244652 0.0539308 -0.0211921 179 134 98
0.244194 0.0536514 -0.0211915 179 136 97
0.244525 0.0535872 -0.0210517 172 140 107
0.244416 0.0532229 -0.0209411 166 144 117
0.244848 0.0535251 -0.0209425 168 133 104
0.244757 0.0531626 -0.0208255 153 127 104
0.245181 0.0534765 -0.0208187 154 127 104
0.245078 0.0530987 -0.0207043 139 120 103
0.245444 0.0531481 -0.0206124 146 124 106
0.245291 0.052631 -0.0204486 133 122 105
0.245759 0.0530383 -0.0204886 143 124 107
0.245612 0.052485 -0.0202956 127 118 104
0.246076 0.0528762 -0.0203327 132 117 102
0.245916 0.0523968 -0.0201499 124 115 101
0.24638 0.0527516 -0.0201918 122 106 95
0.246235 0.052302 -0.0200149 124 112 97
0.246698 0.0526517 -0.0200528 114 97 88
0.246539 0.0522256 -0.0198697 123 108 92
0.247006 0.0525726 -0.0199151 114 95 86
0.246074 0.0518828 -0.0198143 122 114 101
0.245775 0.0519451 -0.0199865 119 112 100
0.245464 0.0520387 -0.0201411 120 117 104
0.245166 0.0521146 -0.02031 120 113 100
0.244834 0.0521938 -0.0204388 120 118 105
0.244979 0.0527214 -0.0205865 137 130 112
0.244529 0.0522784 -0.0205786 129 121 105
0.244668 0.0528367 -0.0207323 154 138 115
0.244212 0.0524377 -0.0207097 126 126 112
0.244361 0.0530118 -0.0208762 163 147 122
0.243919 0.0526887 -0.0208816 134 121 104
0.244042 0.0531525 -0.0210102 168 144 113
0.24363 0.0529471 -0.0210371 153 137 113
0.243724 0.053276 -0.0211442 164 138 110
0.243432 0.053348 -0.0213024 168 132 98
0.24361 0.0536394 -0.0215693 178 130 87
0.24334 0.0535019 -0.0218052 172 112 66
0.243821 0.0537404 -0.0219051 169 102 62
0.243566 0.053557 -0.0221802 155 82 50
0.244038 0.0537724 -0.0222754 147 72 46
0.243768 0.0535974 -0.0225384 126 59 37
0.244248 0.0538273 -0.0226221 122 51 33
0.24398 0.0536447 -0.0228926 114 44 27
0.244448 0.0539379 -0.0229606 105 37 23
0.244185 0.0537527 -0.0232243 107 35 23
0.244655 0.0540409 -0.0232937 93 26 16
0.244387 0.0538674 -0.0235482 95 26 16
0.244859 0.0541551 -0.0236167 89 22 13
0.244588 0.0539849 -0.0238738 90 21 13
0.245063 0.0542803 -0.0239378 85 17 11
0.244796 0.054113 -0.0241958 85 17 10
0.245267 0.0544252 -0.0242539 80 15 10
0.244989 0.0542694 -0.0245024 81 15 9
0.245188 0.0544462 -0.0247988 81 14 8
0.244915 0.0542967 -0.0250501 77 12 7
0.245107 0.0545062 -0.0253358 78 11 7
0.244782 0.0543064 -0.0255019 78 12 8
0.245021 0.054599 -0.025852 79 11 7
0.24471 0.0544265 -0.0260409 77 10 7
0.244892 0.0546607 -0.0263084 78 11 6
0.244466 0.0543341 -0.0263131 76 10 7
0.244643 0.0545601 -0.0265747 76 10 7
0.244204 0.0542369 -0.0265774 76 10 7
0.244384 0.0544669 -0.0268363 76 10 6
0.243948 0.0541451 -0.0268377 75 10 6
0.244125 0.0543712 -0.0271071 76 10 6
0.243685 0.0540491 -0.027102 76 11 7
0.243864 0.0542844 -0.0273605 75 10 7
0.243429 0.0539652 -0.0273606 78 11 8
0.243609 0.0541876 -0.02763 75 10 7
0.243158 0.053886 -0.0276169 77 11 7
0.243346 0.0541093 -0.0278822 78 11 8
0.242902 0.0538095 -0.0278646 78 10 7
0.243083 0.0540338 -0.0281335 77 10 7
0.24263 0.0537523 -0.0281088 78 11 7
0.242821 0.0539693 -0.0283832 76 10 7
0.242359 0.0536817 -0.0283544 77 11 7
0.242553 0.0539001 -0.0286357 79 10 7
0.242097 0.053605 -0.0286056 77 11 7
0.242283 0.0538302 -0.0288806 79 10 7
0.241828 0.0535341 -0.0288511 78 11 7
0.242019 0.0537554 -0.0291336 78 10 7
0.241561 0.0534664 -0.0291018 78 11 7
0.241756 0.0536905 -0.0293737 77 10 6
0.241295 0.0534046 -0.0293439 76 10 7
0.24148 0.0536336 -0.0296096 77 11 7
0.241205 0.0535929 -0.0298354 77 11 7
0.241382 0.0538443 -0.0300905 75 11 7
0.241102 0.0538007 -0.030319 76 10 7
0.241271 0.0540781 -0.0305495 75 11 7
0.240989 0.0540444 -0.0307671 75 11 7
0.241064 0.0541745 -0.0308691 75 10 6
0.240787 0.0541733 -0.0310971 76 10 7
0.241206 0.0544899 -0.0310628 76 10 6
0.240922 0.0544953 -0.0312735 77 10 7
0.241058 0.0548262 -0.0314478 78 11 7
0.240777 0.0548257 -0.0316572 78 10 6
0.240915 0.0551624 -0.0318391 79 9 7
0.240485 0.0548398 -0.0318452 78 11 6
0.240621 0.0551797 -0.0320263 80 10 7
0.240181 0.0548707 -0.032027 79 10 7
0.241049 0.0554956 -0.0320138 81 9 6
0.241202 0.0551464 -0.0316378 79 10 6
0.241348 0.0548223 -0.0312505 76 10 8
0.241486 0.0544942 -0.0308478 76 10 6
0.241427 0.0543601 -0.0307665 74 10 6
0.241713 0.0544026 -0.0305529 73 9 6
0.241546 0.0541054 -0.0303278 75 10 7
0.241822 0.054145 -0.0300939 75 10 6
0.241655 0.0538813 -0.029861 76 11 7
0.241933 0.0539325 -0.0296327 77 10 7
0.241166 0.0558601 -0.0321478 81 9 6
0.241342 0.0554824 -0.0318181 82 10 7
0.241464 0.0558383 -0.031958 82 9 6
0.241627 0.0554801 -0.0316047 80 9 6
0.241751 0.0558351 -0.0317541 82 9 6
0.241903 0.0554842 -0.031387 80 10 6
0.242027 0.0558343 -0.0315452 82 10 6
0.242185 0.0554869 -0.0311668 79 10 6
0.242318 0.0558271 -0.0313321 81 10 6
0.242463 0.0554949 -0.0309564 78 9 5
0.242594 0.0558393 -0.0311131 80 9 6
0.242744 0.0554937 -0.0307372 79 10 6
0.242867 0.055835 -0.0308895 79 9 6
0.243013 0.0555092 -0.0305035 76 9 6
0.243144 0.0558527 -0.0306685 78 9 6
0.243281 0.0555347 -0.0302676 79 10 6
0.243413 0.0558713 -0.0304423 78 10 6
0.243546 0.0555727 -0.0300223 80 10 6
0.243687 0.0558942 -0.0302037 79 10 6
0.243815 0.0556096 -0.0297754 83 10 6
0.243951 0.0559325 -0.0299556 81 10 6
0.244067 0.0556394 -0.0295117 82 10 7
0.244215 0.0559684 -0.0297058 83 11 7
0.24433 0.0556769 -0.0292675 83 11 6
0.244474 0.0560002 -0.0294572 83 10 7
0.244581 0.0557221 -0.0290024 82 11 6
0.244733 0.0560364 -0.0292056 82 11 7
0.244985 0.056087 -0.0289306 83 11 6
0.244867 0.0563724 -0.0293715 82 10 7
0.245129 0.0564089 -0.0291114 83 11 8
0.24499 0.0567196 -0.0295226 82 9 6
0.245253 0.0567559 -0.0292699 81 9 7
0.245027 0.0568329 -0.0295693 82 9 6
0.245385 0.05721 -0.0294218 83 9 7
0.245124 0.0572006 -0.0296777 84 9 7
0.245223 0.0575773 -0.0297819 84 9 6
0.244964 0.0575721 -0.0300357 83 9 6
0.24532 0.0579498 -0.029889 85 10 7
0.245056 0.0579562 -0.0301249 83 9 7
0.245137 0.0583349 -0.0302117 83 9 6
0.24487 0.0583561 -0.0304389 83 9 5
0.245212 0.0587146 -0.030276 83 10 5
0.24494 0.0587416 -0.030487 83 10 5
0.245285 0.059113 -0.0303195 84 10 5
0.244999 0.0591342 -0.0305286 83 9 4
0.245053 0.0595311 -0.0305563 86 9 5
0.244765 0.0595562 -0.030756 85 9 4
0.245104 0.059935 -0.0305737 87 10 5
0.244816 0.0599621 -0.0307729 87 10 5
0.245154 0.0603272 -0.030586 86 10 5
0.244862 0.0603519 -0.0307785 87 11 5
0.244897 0.0607583 -0.0307695 88 11 7
0.244562 0.0603828 -0.0309583 88 11 6
0.244592 0.0607791 -0.0309439 88 11 5
0.244262 0.0604114 -0.0311374 88 12 6
0.244285 0.0608084 -0.0311183 89 11 6
0.244525 0.0599873 -0.030956 87 10 6
0.244222 0.0600114 -0.0311401 86 11 6
0.243929 0.0600459 -0.0313142 88 10 6
0.243888 0.0596401 -0.0313175 85 10 5
0.243584 0.0596677 -0.0314909 87 11 6
0.24325 0.0592953 -0.0316612 85 11 6
0.244475 0.0595854 -0.0309389 85 10 5
0.244188 0.0596103 -0.0311304 85 11 5
0.244134 0.0592129 -0.0311122 85 10 5
0.243841 0.0592404 -0.0313063 85 10 5
0.243793 0.0588431 -0.0312917 84 10 5
0.243504 0.0588729 -0.0314702 84 10 5
0.243454 0.0584825 -0.0314523 83 10 5
0.243154 0.058507 -0.0316358 83 10 5
0.243401 0.0580851 -0.0314197 82 10 5
0.243099 0.0581035 -0.03161 82 10 5
0.243316 0.0576177 -0.0313592 81 9 5
0.243031 0.0576288 -0.0315627 79 10 5
0.24324 0.0572273 -0.0312894 80 9 5
0.24295 0.0572345 -0.0315029 79 8 5
0.243148 0.0568456 -0.0312088 81 9 5
0.242872 0.0568571 -0.0314231 79 9 5
0.24306 0.0564684 -0.0311162 80 9 6
0.242783 0.0564737 -0.0313416 81 9 6
0.24295 0.0561029 -0.0309972 79 10 6
0.242683 0.0561074 -0.0312175 80 10 5
0.243227 0.0560967 -0.030773 79 9 5
0.243545 0.056223 -0.0305878 80 9 6
0.243808 0.0562442 -0.0303564 79 8 6
0.244074 0.0562742 -0.0301128 81 9 6
0.244343 0.0563134 -0.0298736 81 9 6
0.244607 0.0563413 -0.0296218 82 10 6
0.24334 0.0564611 -0.0308895 80 9 5
0.243609 0.0564534 -0.0306594 80 9 6
0.243923 0.0566164 -0.0304795 80 9 6
0.244128 0.0564548 -0.0301815 81 9 6
0.24424 0.0568198 -0.0302997 82 9 6
0.244498 0.0568278 -0.0300553 83 9 6
0.244605 0.0571917 -0.0301669 81 8 6
0.244762 0.05683 -0.0298087 82 9 6
0.244864 0.0572003 -0.0299261 81 8 6
0.244722 0.056698 -0.0297649 82 9 6
0.244391 0.0564604 -0.0299349 82 9 6
0.24343 0.0568344 -0.0309998 81 9 5
0.243703 0.0568276 -0.0307675 82 10 5
0.243516 0.0572178 -0.0310833 81 8 6
0.243794 0.0571995 -0.0308689 82 9 6
0.243608 0.0576024 -0.0311631 80 9 5
0.243882 0.0575822 -0.0309512 78 9 6
0.243668 0.0579958 -0.0312157 79 9 5
0.243963 0.0579772 -0.0310168 80 9 5
0.243743 0.0584513 -0.0312621 81 9 5
0.244034 0.0584285 -0.031069 80 8 4
0.244087 0.0588188 -0.0310985 83 9 5
0.244377 0.0587945 -0.0309031 84 10 5
0.244431 0.059189 -0.0309221 83 9 5
0.244715 0.0591595 -0.0307273 84 9 5
0.241484 0.0551441 -0.0314264 77 10 6
0.241631 0.0548176 -0.0310309 77 11 6
0.241764 0.0545043 -0.0306228 75 9 6
0.241979 0.0544402 -0.0303258 73 9 6
0.242092 0.0541915 -0.0298708 77 10 6
0.242202 0.0539946 -0.0293891 77 10 7
0.242462 0.0540648 -0.0291402 78 10 7
0.241764 0.055153 -0.0312054 78 10 7
0.241906 0.054822 -0.0308136 75 10 6
0.242033 0.0545287 -0.0303867 74 10 6
0.24226 0.0544878 -0.030097 76 10 6
0.242367 0.0542463 -0.0296346 77 10 6
0.242046 0.055159 -0.0309936 78 10 7
0.242179 0.0548388 -0.0305869 75 10 5
0.242457 0.0548552 -0.0303612 75 9 5
0.242537 0.0545314 -0.0298708 75 9 6
0.242637 0.0543176 -0.0293944 78 10 6
0.242725 0.0541336 -0.0288907 77 10 7
0.242323 0.0551579 -0.0307764 75 10 6
0.242602 0.055173 -0.0305546 77 10 6
0.242875 0.0551875 -0.0303193 76 10 6
0.242725 0.0548783 -0.0301208 74 9 5
0.243137 0.0552195 -0.0300771 77 10 6
0.242973 0.0548722 -0.0298504 76 10 6
0.243245 0.0549343 -0.0296048 77 10 6
0.243078 0.0546547 -0.0293828 78 10 6
0.243342 0.0547229 -0.0291325 80 11 6
0.243168 0.0544604 -0.0288846 78 11 7
0.243436 0.0545329 -0.0286405 78 10 6
0.243261 0.0542796 -0.0283914 78 10 7
0.243522 0.0543504 -0.028141 78 10 7
0.243 0.0542056 -0.0286414 78 10 7
0.242902 0.054393 -0.029137 77 10 6
0.242806 0.0545926 -0.0296283 77 10 6
0.243403 0.0552531 -0.0298237 78 10 6
0.243507 0.0550064 -0.0293637 80 10 6
0.243612 0.0547946 -0.0288862 80 11 6
0.243696 0.0546103 -0.0283905 78 10 7
0.243781 0.054433 -0.0278827 77 10 7
0.243658 0.055296 -0.0295643 81 10 6
0.243772 0.0550771 -0.0291113 81 11 6
0.243873 0.0548716 -0.0286322 81 11 6
0.243961 0.0546967 -0.0281347 79 10 7
0.244051 0.0545253 -0.0276243 77 10 6
0.243914 0.0553348 -0.0293055 80 10 6
0.244173 0.0553792 -0.0290456 80 10 6
0.244422 0.0554246 -0.0287879 81 10 7
0.244836 0.0557834 -0.0287222 81 10 6
0.24468 0.0554776 -0.0285095 82 11 7
0.24509 0.0558229 -0.0284647 83 11 7
0.244924 0.0555306 -0.0282354 83 12 7
0.245259 0.055733 -0.0280991 82 11 7
0.24516 0.0555756 -0.0279689 82 11 6
0.245415 0.0556325 -0.0276991 83 11 7
0.245358 0.0555362 -0.0276153 82 11 7
0.24562 0.0556224 -0.027361 84 12 7
0.245439 0.0553678 -0.0271074 81 11 7
0.245725 0.0555116 -0.0268731 83 11 6
0.245519 0.0552326 -0.0265752 81 11 7
0.245949 0.0555791 -0.0265645 83 11 7
0.245767 0.0553457 -0.0262888 81 11 7
0.246184 0.0556697 -0.0262539 84 11 7
0.246004 0.0554327 -0.0259778 80 11 7
0.246414 0.0557545 -0.0259469 83 11 7
0.246234 0.0555166 -0.025671 80 11 7
0.24665 0.0558418 -0.0256363 80 12 7
0.246465 0.0555934 -0.0253653 80 12 8
0.246839 0.0560865 -0.0259152 84 12 8
0.247018 0.0563429 -0.0261697 86 12 7
0.247197 0.0566068 -0.0264329 83 10 6
0.247368 0.0568864 -0.0266609 85 10 6
0.247522 0.0571929 -0.0268749 87 11 6
0.247412 0.0574571 -0.0273344 88 10 7
0.246608 0.056005 -0.0262222 84 12 7
0.246791 0.0562665 -0.0264827 85 11 8
0.246959 0.0565296 -0.0267334 85 12 7
0.247131 0.05681 -0.0269607 83 10 6
0.247283 0.0571205 -0.0271657 86 11 7
0.24703 0.0570657 -0.0274441 86 11 7
0.247165 0.0573994 -0.0276094 86 10 6
0.246889 0.0572842 -0.0278579 87 10 7
0.246658 0.0572965 -0.028137 87 11 7
0.246516 0.0576297 -0.0285366 86 10 7
0.24635 0.057969 -0.0289039 86 10 6
0.246189 0.0583467 -0.0292453 84 9 6
0.246008 0.0587173 -0.0295696 84 9 6
0.245821 0.0591113 -0.0298658 82 8 5
0.245889 0.0594738 -0.0299128 84 10 5
0.245615 0.0594909 -0.030133 85 10 5
0.245947 0.0598636 -0.0299552 86 10 5
0.245671 0.0598842 -0.030168 85 10 4
0.245999 0.0602534 -0.0299829 86 9 4
0.24573 0.0602795 -0.030196 86 10 5
0.245772 0.0606808 -0.0302068 88 10 5
0.24544 0.0603038 -0.0303913 86 10 5
0.245485 0.0607069 -0.0304063 86 10 5
0.245194 0.0607295 -0.0305919 87 11 6
0.245227 0.0611282 -0.0305843 87 12 6
0.244927 0.0611548 -0.030756 88 12 6
0.244947 0.0615535 -0.0307379 89 12 7
0.24462 0.0611816 -0.0309209 89 11 7
0.244647 0.0615853 -0.0308981 90 13 7
0.244324 0.0615264 -0.0310631 91 11 7
0.244313 0.0611226 -0.0310944 89 12 6
0.245396 0.0599137 -0.0303709 86 10 4
0.24534 0.0595098 -0.0303434 85 10 5
0.245551 0.0590926 -0.0300948 84 9 5
0.245479 0.058711 -0.0300476 83 9 6
0.245743 0.0586782 -0.0297883 83 9 6
0.245407 0.0583247 -0.0299725 84 10 7
0.245669 0.0583335 -0.0297264 83 9 7
0.245586 0.0579483 -0.0296419 84 9 7
0.245831 0.0579555 -0.0293953 86 10 7
0.24548 0.0575811 -0.0295303 84 9 7
0.245737 0.0575824 -0.0292878 85 10 7
0.245634 0.0572173 -0.0291741 85 10 7
0.245505 0.0567983 -0.0290297 84 11 8
0.245882 0.0571869 -0.028907 86 10 6
0.245761 0.0568242 -0.0287657 85 11 7
0.24602 0.0568765 -0.0285041 85 11 7
0.245885 0.0565424 -0.0283371 86 12 9
0.246139 0.0565928 -0.0280701 84 12 7
0.245985 0.0562749 -0.0278675 85 12 8
0.246387 0.0566343 -0.0277977 86 12 7
0.246242 0.0563318 -0.0275954 85 12 8
0.246631 0.0566642 -0.0275115 86 12 7
0.246485 0.0563905 -0.0273222 86 11 8
0.246889 0.0567407 -0.0272535 86 11 6
0.246728 0.0564586 -0.0270292 84 11 7
0.24678 0.0570066 -0.0277121 85 11 7
0.246526 0.0569635 -0.0279752 86 11 8
0.246398 0.0572651 -0.0284054 86 10 7
0.24625 0.0576 -0.0287815 86 9 7
0.245995 0.0575949 -0.0290334 85 9 6
0.246097 0.0579543 -0.0291486 85 9 7
0.245921 0.0583412 -0.0294855 84 9 7
0.246141 0.0572254 -0.0286561 86 11 8
0.246271 0.0569261 -0.0282364 83 11 7
0.245373 0.0564473 -0.0288636 84 11 8
0.245244 0.0561287 -0.0286687 83 11 8
0.245416 0.056029 -0.0283141 83 11 7
0.24558 0.0559066 -0.027931 84 12 7
0.245789 0.055891 -0.0275976 84 11 8
0.245871 0.0557216 -0.0270942 83 11 6
0.246125 0.0558252 -0.0268145 85 11 6
0.246376 0.0559192 -0.0265212 85 12 7
0.246558 0.0561893 -0.0267817 87 12 8
0.246298 0.0560811 -0.0270642 85 12 7
0.246044 0.055983 -0.0273336 84 12 7
0.24583 0.0559655 -0.0276543 85 12 8
0.245682 0.0561089 -0.0280693 84 12 7
0.245735 0.0562187 -0.0281426 86 12 8
0.245486 0.0561683 -0.028409 83 11 7
0.24563 0.0564895 -0.0285988 83 12 7
0.246051 0.0606544 -0.0299937 87 10 5
0.245811 0.0610763 -0.0302138 87 10 5
0.245523 0.0610989 -0.0304041 87 10 5
0.244042 0.055152 -0.0288656 81 10 7
0.244136 0.0549421 -0.0283854 83 11 7
0.244233 0.0547716 -0.0278787 79 10 7
0.244311 0.0546042 -0.0273725 77 10 6
0.244576 0.0546971 -0.027109 77 10 6
0.244816 0.0547909 -0.0268475 78 10 6
0.245076 0.0548922 -0.0265743 79 11 7
0.245328 0.0550017 -0.0263037 80 10 7
0.245149 0.0547645 -0.026035 79 10 7
0.245581 0.0551119 -0.0260245 80 11 7
0.245402 0.054876 -0.0257639 79 11 6
0.245804 0.0551864 -0.0256875 80 11 7
0.245611 0.0549402 -0.0254202 79 12 7
0.246039 0.0552696 -0.0253957 79 12 7
0.245844 0.0550211 -0.0251115 78 11 7
0.246272 0.0553449 -0.0250894 78 12 8
0.246078 0.0551072 -0.0248105 78 13 8
0.245261 0.0551198 -0.0268496 80 10 7
0.245181 0.0552762 -0.0273682 82 10 6
0.244996 0.0553048 -0.0277267 82 11 7
0.244758 0.0552469 -0.0280061 81 11 7
0.244507 0.0551923 -0.0282826 82 11 7
0.244305 0.0552246 -0.028615 83 11 7
0.245004 0.0550271 -0.0271102 80 10 6
0.244931 0.0551895 -0.0276233 80 11 6
0.244668 0.0551032 -0.0278775 82 11 7
0.244401 0.0550269 -0.028131 81 11 7
0.244488 0.0548515 -0.027631 77 10 6
0.244757 0.0549329 -0.0273663 80 10 6
0.245297 0.0547405 -0.0256074 78 10 6
0.24538 0.054654 -0.0250821 78 12 8
0.245462 0.0545938 -0.0245562 80 14 8
0.245662 0.0546904 -0.0241882 79 15 10
0.245429 0.0545161 -0.0238177 85 18 12
0.245874 0.0548778 -0.024511 78 14 9
0.245649 0.0547855 -0.0248246 78 12 8
0.245334 0.0544581 -0.0236745 84 19 12
0.245182 0.0543691 -0.0234441 86 22 14
0.244923 0.0542386 -0.0230283 99 32 20
0.24471 0.0541376 -0.0226762 109 42 27
0.244502 0.0540645 -0.0223253 134 62 39
0.244293 0.0539794 -0.0219989 159 87 54
0.2441 0.0538871 -0.0216701 180 119 74
0.243905 0.0536893 -0.0213794 178 137 95
0.24125 0.0561853 -0.0322435 82 9 6
0.24155 0.0561615 -0.0320589 82 9 6
0.241841 0.0561379 -0.0318592 81 9 6
0.24214 0.0561859 -0.0316758 82 9 6
0.242413 0.0561089 -0.03144 82 10 6
0.242508 0.0564872 -0.0315554 82 9 6
0.245619 0.0515133 -0.0197887 111 111 99
0.245322 0.051576 -0.0199941 106 103 92
0.245003 0.0516592 -0.0201211 114 113 101
0.244686 0.0517397 -0.0202553 114 116 105
0.244492 0.0521745 -0.0205428 125 119 106
0.245252 0.0514251 -0.0198884 103 101 90
0.244942 0.0514963 -0.0200565 108 104 92
0.244634 0.0516026 -0.0201937 113 112 103
0.244335 0.051672 -0.020369 115 108 95
0.244028 0.0517682 -0.0205428 108 104 93
0.243719 0.0519683 -0.0206622 116 115 101
0.243405 0.0521639 -0.0207894 113 114 101
0.243144 0.0524984 -0.0209772 128 118 103
0.243282 0.0529304 -0.0211173 154 133 109
0.242876 0.0528 -0.0211566 142 119 99
0.242977 0.0530467 -0.0212772 159 129 100
0.24257 0.0529783 -0.0213014 134 107 88
0.242778 0.0532835 -0.0215893 161 124 91
0.242259 0.0531065 -0.0214404 139 104 79
0.24247 0.053301 -0.0217507 149 104 67
0.24216 0.0532899 -0.0219247 138 90 58
0.242672 0.0533054 -0.0220807 149 87 52
0.24237 0.0532191 -0.0222834 138 77 47
0.242877 0.0532823 -0.0224349 139 68 42
0.242573 0.0531734 -0.0226377 126 58 37
0.243084 0.0532897 -0.0227825 117 49 30
0.242787 0.0531656 -0.0229875 112 44 28
0.243292 0.0533217 -0.0231289 106 39 25
0.242993 0.0531896 -0.0233343 104 37 23
0.243445 0.0533566 -0.0233912 100 33 20
0.243195 0.053239 -0.0236752 98 28 18
0.243651 0.0534349 -0.0237297 96 27 17
0.243397 0.0533358 -0.0240026 92 23 13
0.243858 0.0535506 -0.0240556 90 20 13
0.243603 0.0534399 -0.0243358 87 20 12
0.244056 0.0536753 -0.0243796 86 17 11
0.243787 0.0535481 -0.0246183 85 16 10
0.244249 0.0538189 -0.0246963 82 15 9
0.243987 0.0536847 -0.0249331 82 15 9
0.244185 0.0538458 -0.0252402 79 13 8
0.243907 0.053711 -0.0254812 78 11 8
0.244107 0.0539022 -0.0257773 76 11 7
0.243826 0.0537791 -0.0260132 77 11 8
0.244018 0.0539923 -0.026297 76 10 7
0.243544 0.0536679 -0.026246 74 10 7
0.243764 0.0539132 -0.0265705 76 10 8
0.2435 0.0538284 -0.0268253 75 11 8
0.242976 0.0533893 -0.0218935 165 115 72
0.243151 0.0533439 -0.0215138 171 128 86
0.244969 0.0538805 -0.0210575 171 126 92
0.245288 0.0538456 -0.020934 162 127 100
0.245529 0.0534224 -0.0207101 143 117 97
0.245626 0.0538084 -0.0208089 165 130 98
0.245946 0.0537435 -0.020688 158 125 98
0.24604 0.0541259 -0.0207721 169 122 88
0.24636 0.0540759 -0.020636 158 120 89
0.246433 0.0544676 -0.0206934 163 113 72
0.246739 0.0544143 -0.0205422 153 99 58
0.246814 0.0548264 -0.0206019 149 76 41
0.247052 0.0543916 -0.0203724 142 89 52
0.247124 0.0548017 -0.0204271 148 77 40
0.247429 0.0547511 -0.0202623 122 52 30
0.247537 0.0551264 -0.0203893 114 43 25
0.247863 0.0550553 -0.0202714 107 42 22
0.247693 0.0554377 -0.0205954 105 35 19
0.248024 0.0553379 -0.0204978 99 32 15
0.248177 0.055594 -0.0207224 94 26 12
0.248404 0.0551174 -0.0204753 77 16 7
0.24864 0.05532 -0.0208928 75 13 5
0.248649 0.0546935 -0.0203308 74 13 6
0.249067 0.0546688 -0.0209955 74 10 3
0.248192 0.0549464 -0.0201549 89 28 16
0.247739 0.0547001 -0.0201025 112 50 27
0.247343 0.0543142 -0.0201939 123 65 41
0.246994 0.0539825 -0.0203366 136 96 70
0.246672 0.05403 -0.0204883 148 103 72
0.246599 0.0536292 -0.0204246 145 113 88
0.24628 0.0536831 -0.0205596 142 114 91
0.246191 0.053304 -0.0204675 138 120 102
0.245858 0.0533592 -0.0205922 144 122 101
0.246417 0.0528749 -0.020233 123 107 95
0.246748 0.0528204 -0.0201137 110 93 87
0.238111 0.0537475 -0.0321582 77 10 6
0.237716 0.0535761 -0.0322144 76 10 6
0.238017 0.0535442 -0.0320432 74 10 7
0.237868 0.0532328 -0.0318369 73 10 7
0.238169 0.05321 -0.0316562 74 10 7
0.238012 0.0529225 -0.0314296 73 10 7
0.238297 0.0529084 -0.0312459 72 10 7
0.238125 0.0526512 -0.0309882 71 11 8
0.238416 0.0526494 -0.0307912 72 10 7
0.23833 0.052549 -0.0306693 72 10 7
0.238625 0.0525778 -0.0304713 72 10 7
0.238432 0.0523667 -0.0301796 72 10 7
0.238721 0.0523975 -0.0299776 71 9 6
0.238529 0.0522187 -0.0296779 71 8 7
0.23881 0.0522553 -0.0294777 72 9 7
0.238459 0.0521617 -0.0295743 71 8 6
0.238551 0.0520488 -0.0290682 73 10 7
0.238255 0.0520088 -0.029259 72 9 7
0.23835 0.0519293 -0.0287432 74 12 8
0.23805 0.0518984 -0.0289307 72 10 8
0.238147 0.0518557 -0.0284118 75 12 9
0.237843 0.0518365 -0.0285943 75 12 9
0.237932 0.0518329 -0.0280649 77 13 9
0.237635 0.0518142 -0.0282527 76 13 9
0.237791 0.0518164 -0.0278223 78 13 10
0.237485 0.0518087 -0.0280035 79 14 10
0.237577 0.0518042 -0.0274798 79 14 10
0.237269 0.051804 -0.0276605 80 14 10
0.237369 0.0518192 -0.0271331 79 15 10
0.237066 0.0518189 -0.027316 80 14 10
0.237169 0.0518369 -0.0267924 80 14 10
0.236865 0.0518443 -0.0269685 81 15 10
0.2367 0.0518894 -0.0266781 80 13 9
0.23656 0.0518431 -0.0271471 80 14 9
0.236391 0.0518984 -0.0268534 78 13 9
0.236257 0.0518452 -0.02732 79 14 9
0.236086 0.051912 -0.0270288 78 13 9
0.235789 0.0519233 -0.0272075 79 13 9
0.235597 0.0520335 -0.0268761 77 12 8
0.235488 0.0519379 -0.0273845 78 13 8
0.235298 0.0520599 -0.0270516 76 12 8
0.235191 0.0519667 -0.0275621 79 13 8
0.235005 0.05209 -0.0272362 76 11 7
0.234888 0.0519991 -0.027742 78 12 8
0.234703 0.0521191 -0.027412 76 11 7
0.234405 0.0521513 -0.0275938 75 11 7
0.234523 0.0522627 -0.027087 74 10 6
0.23422 0.0522952 -0.0272669 72 9 6
0.23435 0.0524429 -0.0267722 73 9 5
0.234043 0.0524707 -0.0269485 71 9 5
0.234215 0.0526052 -0.02652 70 8 4
0.23391 0.0526341 -0.0267015 69 7 3
0.233762 0.052854 -0.0264078 66 5 2
0.233611 0.0526559 -0.0268792 70 8 4
0.23346 0.0528854 -0.0265922 68 7 2
0.233161 0.0529217 -0.0267692 66 6 2
0.233041 0.0531515 -0.0265381 64 5 2
0.232867 0.0529573 -0.0269579 66 6 2
0.232752 0.0531921 -0.0267323 65 5 2
0.232459 0.053222 -0.0269164 64 6 2
0.232332 0.0535109 -0.0266638 63 4 1
0.232049 0.0535549 -0.026862 63 4 1
0.231928 0.0538518 -0.0266149 62 4 1
0.231643 0.0538931 -0.0268101 60 3 1
0.231527 0.0541754 -0.0265665 61 4 1
0.231351 0.0539249 -0.0269979 60 3 1
0.231237 0.0542234 -0.0267642 61 4 1
0.230951 0.0542629 -0.02696 60 3 1
0.230912 0.0543774 -0.0268826 60 3 1
0.23065 0.0544285 -0.027122 59 3 1
0.230563 0.0547793 -0.0269369 60 4 1
0.230305 0.0548367 -0.0271787 59 3 0
0.230245 0.0552003 -0.0270239 59 3 1
0.229986 0.0552651 -0.0272767 59 3 0
0.230192 0.0555673 -0.0268778 59 3 0
0.229941 0.0556398 -0.0271287 59 3 0
0.230172 0.0557238 -0.0268191 58 2 0
0.229921 0.0557706 -0.0270827 59 3 0
0.229881 0.0561536 -0.0269746 58 2 0
0.229631 0.0561966 -0.0272447 57 2 0
0.229606 0.056591 -0.0271448 56 2 1
0.229355 0.0566325 -0.0274274 56 2 1
0.229343 0.0570339 -0.0273522 55 2 1
0.229106 0.0570754 -0.0276118 53 1 1
0.229352 0.0574297 -0.0272869 53 2 1
0.229106 0.0574751 -0.0275451 53 2 1
0.22935 0.0578431 -0.0272225 51 2 1
0.22911 0.0578771 -0.0274995 51 2 1
0.229107 0.0580025 -0.0274927 51 2 1
0.228873 0.0580124 -0.0277803 50 2 0
0.2289 0.0584175 -0.0277622 47 2 1
0.228661 0.058417 -0.0280436 49 2 1
0.228682 0.0586285 -0.0280539 47 2 1
0.22842 0.0584446 -0.0283386 49 2 1
0.228476 0.058852 -0.0283675 47 1 0
0.228244 0.0588483 -0.0286639 48 1 0
0.228513 0.0590965 -0.0283926 46 1 0
0.228288 0.0592156 -0.028704 46 1 0
0.228534 0.0592543 -0.0284172 47 1 0
0.22838 0.0596692 -0.0287988 46 1 0
0.228618 0.0596643 -0.0285009 48 2 0
0.228733 0.0600435 -0.0286499 48 2 0
0.228965 0.0600229 -0.0283489 49 1 0
0.229091 0.0603895 -0.0285109 50 2 1
0.229316 0.0603971 -0.028213 49 2 0
0.229433 0.0606882 -0.0283625 51 3 1
0.229687 0.060754 -0.0280945 52 2 1
0.229574 0.061028 -0.0285537 52 2 1
0.22984 0.0611195 -0.0282933 52 2 1
0.229717 0.0613659 -0.0287501 54 2 1
0.229981 0.0614706 -0.0284949 53 3 1
0.229867 0.0617128 -0.0289526 55 3 2
0.230132 0.0617966 -0.0286985 54 3 2
0.230043 0.0620261 -0.029176 57 3 2
0.230296 0.06212 -0.0289258 56 3 2
0.230208 0.0623336 -0.0294191 57 3 3
0.230465 0.0624263 -0.0291586 58 3 3
0.230388 0.0626128 -0.0296697 57 3 3
0.230647 0.0627149 -0.0294098 58 4 3
0.230577 0.0628552 -0.0299437 59 4 4
0.23083 0.0629515 -0.0296716 59 4 4
0.230946 0.0630879 -0.0298221 61 5 4
0.231104 0.0630498 -0.0294101 59 4 3
0.231233 0.0632012 -0.0295919 60 4 4
0.231361 0.06315 -0.0291465 59 4 4
0.231506 0.0633157 -0.0293542 61 5 5
0.231613 0.0632291 -0.0288833 59 4 3
0.231767 0.0634337 -0.029108 61 5 4
0.231863 0.0633403 -0.0286136 60 4 4
0.232053 0.063555 -0.0288715 60 5 4
0.232121 0.0634361 -0.0283387 59 5 4
0.232325 0.0636977 -0.0286331 60 5 4
0.232372 0.0635628 -0.0280653 60 5 4
0.232596 0.0638342 -0.0283951 60 5 5
0.232835 0.0639501 -0.0281406 61 5 5
0.232795 0.0640421 -0.0286936 62 6 6
0.23305 0.064175 -0.0284452 63 6 6
0.233192 0.0643037 -0.028646 66 7 6
0.23296 0.0640475 -0.0280678 62 6 5
0.233442 0.0644309 -0.0282796 67 9 8
0.233395 0.0643617 -0.0279772 66 8 6
0.233878 0.0647313 -0.0281052 72 10 9
0.233801 0.0646434 -0.0277153 72 10 9
0.234274 0.0650074 -0.0279391 74 12 9
0.234172 0.0649368 -0.0275603 73 11 9
0.234543 0.0652134 -0.0273936 76 14 10
0.23409 0.0648252 -0.0271538 71 11 8
0.234655 0.0652994 -0.0277653 80 15 11
0.23472 0.0653355 -0.0279201 80 15 11
0.234441 0.0650918 -0.0282971 78 13 10
0.234901 0.0654211 -0.0282519 82 15 12
0.234598 0.0651618 -0.0286054 80 13 11
0.235125 0.0654933 -0.0286084 83 16 12
0.234809 0.0652451 -0.0289493 82 13 10
0.235372 0.0655701 -0.0288991 84 15 11
0.235055 0.0653167 -0.0292586 80 13 9
0.23561 0.0656337 -0.0292317 85 15 10
0.235309 0.0653784 -0.0295705 80 13 9
0.235868 0.0656875 -0.029521 83 13 9
0.23558 0.0654382 -0.0298464 81 12 8
0.235876 0.0654867 -0.0301072 79 12 7
0.235512 0.0652915 -0.0302575 78 11 7
0.232963 0.0639498 -0.0276632 62 5 5
0.233363 0.0642433 -0.0274932 64 7 6
0.233761 0.0645905 -0.0274945 69 9 6
0.233778 0.0524583 -0.0271881 71 9 5
0.233923 0.0523203 -0.0274465 73 10 7
0.234103 0.0521794 -0.027774 75 11 7
0.234292 0.0520547 -0.0281043 77 12 8
0.233988 0.052086 -0.02828 77 11 7
0.234157 0.052003 -0.0285715 79 12 8
0.233697 0.0521278 -0.0284659 77 11 7
0.233864 0.0520441 -0.0287581 77 11 8
0.233402 0.0521666 -0.0286542 77 11 7
0.233563 0.0520899 -0.0289344 77 13 8
0.233104 0.0522119 -0.028838 76 11 8
0.233303 0.0521227 -0.0291811 77 13 8
0.232811 0.0522645 -0.0290169 76 12 8
0.233012 0.0521701 -0.0293688 77 13 9
0.232526 0.0523166 -0.0292055 75 12 8
0.232726 0.0522236 -0.0295543 77 13 8
0.232232 0.0523671 -0.0293952 74 12 7
0.232429 0.0522755 -0.0297362 75 12 8
0.231939 0.0524225 -0.0295839 74 12 7
0.232133 0.0523255 -0.0299228 76 12 8
0.231648 0.0524802 -0.0297744 73 11 7
0.231842 0.0523813 -0.0301138 75 12 8
0.23136 0.0525484 -0.029967 73 11 7
0.231554 0.0524486 -0.0303066 75 12 8
0.231075 0.0526217 -0.0301646 72 10 7
0.231271 0.0525226 -0.0305036 75 10 7
0.230792 0.0527028 -0.0303568 72 10 7
0.230984 0.0526033 -0.0306927 73 10 7
0.230515 0.0527994 -0.0305554 71 9 6
0.230703 0.0526839 -0.030892 73 10 7
0.23023 0.0528909 -0.0307578 71 9 6
0.230417 0.0527749 -0.0310918 73 10 7
0.229956 0.0529927 -0.0309766 70 9 7
0.230149 0.0528661 -0.0312953 72 9 7
0.229856 0.0529913 -0.0314785 70 10 7
0.230314 0.0527821 -0.0316196 73 11 7
0.230032 0.0528891 -0.0318187 72 10 7
0.229579 0.0531087 -0.0317033 71 10 7
0.22912 0.0534005 -0.0315683 70 9 6
0.228697 0.0537305 -0.0315047 69 7 4
0.228292 0.0540879 -0.0314471 68 7 4
0.22793 0.0544282 -0.0314875 67 6 3
0.227569 0.0548305 -0.0315096 65 4 2
0.22724 0.0552755 -0.0315642 62 4 1
0.226925 0.0556894 -0.03168 62 4 1
0.22661 0.0561244 -0.0318006 62 4 1
0.226324 0.0565883 -0.0319499 60 3 2
0.226247 0.0569807 -0.0318144 60 3 1
0.226221 0.0573668 -0.0316991 57 4 2
0.22621 0.0576936 -0.0316313 57 4 1
0.226209 0.0580983 -0.0315739 55 3 1
0.226223 0.0585104 -0.0315481 53 3 1
0.226232 0.0587101 -0.0315397 52 3 1
0.22626 0.0589169 -0.0315326 52 3 1
0.226308 0.0593267 -0.0315777 50 2 0
0.226408 0.0597257 -0.0316645 47 1 1
0.226632 0.0597143 -0.0313395 48 2 0
0.226767 0.0601158 -0.0315 48 2 0
0.226979 0.060103 -0.0311862 48 2 0
0.227124 0.0605134 -0.0313803 50 2 1
0.227339 0.0604985 -0.0310606 49 2 1
0.227501 0.0608945 -0.0312611 51 3 1
0.227707 0.0608491 -0.0309169 51 2 1
0.227786 0.0610401 -0.031029 51 2 1
0.228057 0.0611344 -0.030778 52 2 2
0.227912 0.0613075 -0.0312116 52 2 1
0.228209 0.0614339 -0.0309814 53 3 2
0.228115 0.0616582 -0.0314529 51 2 1
0.228368 0.0617213 -0.0312005 52 3 2
0.228292 0.0619571 -0.0316862 52 2 2
0.228563 0.0620184 -0.0314371 52 2 2
0.228477 0.0622258 -0.0319354 52 2 2
0.228759 0.0622934 -0.031689 53 2 2
0.228671 0.0624874 -0.032191 54 2 2
0.22895 0.0625453 -0.0319608 55 3 3
0.228845 0.0627056 -0.0324301 54 2 2
0.229129 0.062751 -0.0322177 54 2 2
0.229031 0.0629153 -0.0327168 56 3 3
0.229316 0.0629635 -0.032504 57 3 3
0.229222 0.0631078 -0.0330049 58 3 3
0.229523 0.0631575 -0.0327913 58 3 3
0.229429 0.0632953 -0.0332949 60 4 3
0.22972 0.0633422 -0.0330962 59 4 3
0.229514 0.0633717 -0.0334128 61 4 3
0.229838 0.0634344 -0.0332546 61 4 3
0.229746 0.0635658 -0.0337672 60 3 3
0.23005 0.0635867 -0.0335754 61 5 4
0.229958 0.0637026 -0.0340816 63 4 4
0.230258 0.0637121 -0.0339033 63 4 4
0.230382 0.0637722 -0.0340935 63 5 4
0.230557 0.0637238 -0.0337257 64 6 5
0.230676 0.063774 -0.0339113 64 6 5
0.230856 0.0637434 -0.0335422 67 7 5
0.230981 0.0637769 -0.0337313 67 8 5
0.231279 0.0638007 -0.033543 67 7 5
0.231494 0.0637839 -0.0338952 67 8 4
0.231583 0.0638203 -0.0333697 69 8 5
0.231795 0.0637845 -0.0337272 69 8 5
0.231891 0.0638489 -0.0332012 69 8 5
0.232102 0.0638044 -0.0335602 68 8 4
0.232198 0.0638849 -0.0330242 68 8 5
0.232421 0.0638316 -0.0333965 68 9 4
0.232502 0.0639296 -0.0328547 68 8 4
0.232732 0.063854 -0.033237 68 8 4
0.232819 0.0639965 -0.0326811 69 9 5
0.233045 0.0638933 -0.033072 68 8 4
0.23312 0.0640652 -0.0325097 70 9 5
0.233363 0.0639381 -0.0329138 68 8 4
0.233686 0.0639936 -0.032759 67 8 3
0.232615 0.0636948 -0.0337388 70 9 4
0.232303 0.0636881 -0.0339051 67 8 4
0.231996 0.0636934 -0.0340754 67 8 4
0.231694 0.0637072 -0.0342493 67 8 4
0.231188 0.0637954 -0.034081 64 8 5
0.230895 0.0638118 -0.0342577 64 8 5
0.232485 0.0635175 -0.0342249 67 9 4
0.232183 0.0635535 -0.0344034 66 8 4
0.227711 0.0613424 -0.0315507 50 2 1
0.227298 0.0609699 -0.0316285 51 2 1
0.227466 0.0612954 -0.0318273 50 2 1
0.227089 0.0609724 -0.031952 50 2 1
0.227241 0.0612832 -0.0321088 50 2 1
0.226858 0.0609243 -0.0322212 48 2 1
0.22704 0.0613351 -0.0324562 49 2 1
0.227206 0.0616616 -0.0326691 50 2 1
0.227358 0.0619773 -0.0328964 52 3 2
0.227254 0.0621916 -0.0333718 51 2 2
0.227533 0.062254 -0.0331395 51 2 1
0.227442 0.0624625 -0.0336083 52 2 1
0.227722 0.0625514 -0.0333808 52 3 1
0.227636 0.0627261 -0.0338634 53 2 2
0.227921 0.0627709 -0.0336344 54 2 2
0.22783 0.0629837 -0.0341192 53 2 1
0.228114 0.0630107 -0.0339015 54 2 2
0.228024 0.0632422 -0.0343937 56 2 2
0.228308 0.063269 -0.0341752 55 3 2
0.228456 0.0634438 -0.0343832 57 3 2
0.228607 0.0632775 -0.0339628 56 3 2
0.228764 0.063466 -0.0341988 58 4 2
0.229066 0.0634811 -0.0340086 57 3 2
0.229148 0.0635611 -0.0341335 58 3 3
0.229359 0.0634834 -0.0338194 59 3 3
0.229451 0.0635623 -0.0339504 60 3 3
0.229663 0.0637162 -0.0342694 60 4 3
0.230166 0.0638223 -0.0344111 62 5 4
0.23059 0.0638479 -0.0344312 62 7 4
0.231105 0.0637874 -0.0346061 64 7 5
0.231396 0.0637353 -0.0344276 65 8 5
0.231594 0.0636533 -0.034766 64 8 5
0.231891 0.0635981 -0.0345836 65 8 4
0.231783 0.0635456 -0.0350972 62 7 5
0.232074 0.0634554 -0.0349064 65 8 4
0.231967 0.0634151 -0.0354343 64 8 4
0.232244 0.0632944 -0.0352317 65 8 5
0.232137 0.0632704 -0.0357649 64 8 5
0.232408 0.0631158 -0.0355546 65 7 4
0.232544 0.0629767 -0.0358305 67 8 5
0.232788 0.0628342 -0.0355692 68 7 4
0.232679 0.0629763 -0.0353493 67 8 4
0.232909 0.0629378 -0.0350357 66 7 4
0.232526 0.0631834 -0.0350333 67 8 5
0.232818 0.0630926 -0.0348445 65 8 5
0.232657 0.0633291 -0.0345317 66 8 4
0.232361 0.0633779 -0.0347182 66 8 4
0.232295 0.0631341 -0.0360902 63 7 5
0.23188 0.0634433 -0.035982 61 7 5
0.231691 0.0635377 -0.0356364 62 7 4
0.231417 0.0636791 -0.0358509 61 7 5
0.231222 0.0637394 -0.0354966 62 7 4
0.230946 0.0638484 -0.0357102 60 7 4
0.23071 0.0638766 -0.0353048 61 7 4
0.230416 0.0639748 -0.0354851 58 6 4
0.230209 0.0639513 -0.0351363 60 6 4
0.229915 0.06403 -0.035329 60 5 4
0.229782 0.0639768 -0.0350986 60 5 3
0.229486 0.0640307 -0.03528 59 4 3
0.229278 0.0639062 -0.0349519 57 3 2
0.229174 0.0640705 -0.0354553 58 4 3
0.228965 0.0639189 -0.0351235 56 3 2
0.228674 0.0639428 -0.0353172 56 3 2
0.228568 0.0638455 -0.0351688 56 3 2
0.22836 0.0639224 -0.0355044 54 3 2
0.228267 0.0638234 -0.0353688 55 3 2
0.227969 0.0637958 -0.0355581 54 3 2
0.227838 0.0636389 -0.0353746 54 3 2
0.227673 0.0637611 -0.0357568 54 2 2
0.227547 0.0636159 -0.0355764 54 2 1
0.227262 0.0635843 -0.0357963 53 2 1
0.227358 0.0633575 -0.0353277 52 2 1
0.227066 0.0633375 -0.0355292 53 3 2
0.227171 0.0631225 -0.035055 52 2 2
0.226878 0.0630838 -0.0352792 51 3 1
0.226974 0.0628635 -0.0347922 51 2 1
0.226784 0.0633024 -0.0357565 51 3 2
0.226685 0.0635266 -0.0362179 50 3 2
0.226581 0.06377 -0.0366965 51 2 2
0.226481 0.0639844 -0.0371787 51 3 1
0.22668 0.0642158 -0.0374448 53 2 1
0.226549 0.0642166 -0.0375585 53 2 1
0.226867 0.0644569 -0.0377173 54 3 1
0.226581 0.0644419 -0.0379243 53 2 1
0.226974 0.064584 -0.0378668 54 3 1
0.226765 0.0646836 -0.0381893 55 3 2
0.227167 0.0648169 -0.0381548 56 3 1
0.227104 0.0648323 -0.0382368 56 3 2
0.227364 0.0650326 -0.0384425 56 3 2
0.227066 0.0650264 -0.0386218 56 3 2
0.227518 0.065199 -0.0386693 56 3 2
0.227263 0.0652438 -0.0389279 57 3 2
0.227726 0.0653977 -0.0389738 56 4 2
0.227417 0.0654127 -0.0391522 57 4 3
0.227636 0.0655903 -0.0394734 56 4 3
0.227164 0.0654408 -0.0394042 58 4 2
0.227387 0.0656377 -0.0396839 57 4 2
0.227011 0.0653814 -0.0393795 58 4 2
0.226994 0.0655443 -0.0397503 55 3 2
0.226623 0.0652856 -0.0394358 57 4 2
0.226595 0.0654555 -0.0398003 57 3 2
0.226241 0.0651711 -0.0394818 57 3 2
0.226216 0.0653469 -0.0398497 55 3 2
0.22598 0.0650708 -0.0395154 56 3 2
0.225871 0.0652331 -0.0398948 55 4 2
0.226075 0.0649256 -0.0391289 55 3 2
0.226267 0.0649865 -0.0391051 55 3 2
0.226652 0.0651005 -0.0390481 55 3 2
0.22704 0.0652073 -0.0390004 57 4 2
0.226192 0.0647419 -0.0387372 54 3 2
0.226308 0.0647815 -0.0387305 55 4 2
0.22668 0.064916 -0.0386727 56 3 2
0.226319 0.0645551 -0.0383503 55 3 2
0.22669 0.0647094 -0.038295 55 3 2
0.226423 0.0643865 -0.0379565 53 2 1
0.226977 0.0635495 -0.0360156 52 2 1
0.226876 0.0637895 -0.0364839 52 3 1
0.226773 0.0639975 -0.0369679 51 3 1
0.227165 0.063804 -0.036284 53 3 1
0.227063 0.0640063 -0.0367515 53 3 1
0.226961 0.0642392 -0.0372389 52 2 1
0.231501 0.0636341 -0.0352906 61 7 5
0.231311 0.0637254 -0.0349635 63 8 5
0.231019 0.0637961 -0.035148 61 7 4
0.230801 0.0638484 -0.0347825 61 6 5
0.232074 0.0633267 -0.0363481 61 6 5
0.231625 0.0636178 -0.0361973 59 6 5
0.231153 0.0638259 -0.0360679 58 6 4
0.230672 0.0639898 -0.0359247 59 6 4
0.230336 0.0641227 -0.0360139 60 6 5
0.230126 0.064083 -0.0356696 60 6 4
0.229845 0.0641909 -0.0358498 58 4 4
0.229626 0.0641081 -0.035511 58 4 3
0.229391 0.0641943 -0.0357858 56 4 3
0.228873 0.064097 -0.0356262 57 4 2
0.228573 0.0641105 -0.035808 54 2 2
0.228171 0.0640208 -0.0358523 54 3 2
0.227878 0.064009 -0.0360447 53 2 1
0.227455 0.0638223 -0.0360648 53 3 1
0.231837 0.0635164 -0.0366321 61 6 5
0.23154 0.063733 -0.0367912 58 6 5
