ply
format ascii 1.0
element vertex 1263
property float x
property float y
property float z
property uchar diffuse_red
property uchar diffuse_green
property uchar diffuse_blue
end_header
0.296238 0.0780844 -0.0281167 60 6 4
0.29629 0.0780315 -0.0277096 61 4 2
0.296589 0.0782538 -0.0277564 62 5 4
0.296647 0.0781636 -0.0274455 64 5 1
0.296963 0.0783279 -0.0274574 66 5 3
0.297048 0.0781674 -0.027085 69 6 2
0.297403 0.0782574 -0.0271007 71 7 3
0.296184 0.078093 -0.0285246 55 7 5
0.296514 0.078333 -0.0281696 59 6 5
0.296885 0.0784617 -0.0278157 62 5 3
0.297289 0.0784682 -0.0274858 68 7 4
0.255927 0.063482 -0.0107512 53 4 1
0.2563 0.0635677 -0.0105487 53 4 1
0.255912 0.0638606 -0.0106577 52 4 1
0.256317 0.0638642 -0.0104793 52 3 1
0.255896 0.064248 -0.0105663 51 3 1
0.256306 0.0642549 -0.0103929 51 3 1
0.255479 0.0642358 -0.0107304 49 3 1
0.255491 0.0638552 -0.0108104 52 5 2
0.256669 0.0636052 -0.0103589 52 3 1
0.25658 0.063997 -0.0103205 51 3 0
0.256951 0.064015 -0.010136 52 4 1
0.256843 0.0644444 -0.010113 51 3 1
0.257199 0.0645164 -0.00995388 50 3 1
0.257523 0.0646285 -0.00982267 49 2 1
0.257566 0.0645768 -0.00981515 48 2 1
0.25795 0.0646051 -0.00969721 49 2 1
0.258196 0.0650969 -0.00964975 48 2 1
0.257698 0.0641554 -0.00980233 50 2 0
0.257443 0.0636577 -0.00997901 51 3 1
0.257307 0.0641006 -0.00996646 51 3 1
0.257052 0.0636272 -0.0101556 52 4 1
0.2567 0.064254 -0.0102201 50 3 1
0.295424 0.07644 -0.0304489 69 6 3
0.295147 0.0762126 -0.0301705 68 5 2
0.295383 0.0767325 -0.0301726 68 6 3
0.295112 0.0764904 -0.02988 68 6 2
0.29537 0.0769179 -0.0299212 67 6 2
0.29569 0.0767069 -0.0307299 69 7 3
0.295652 0.0769794 -0.0304511 67 7 3
0.295624 0.0772245 -0.0301131 65 7 3
0.295616 0.0773648 -0.0297162 64 6 2
0.295961 0.0769489 -0.0310048 67 7 3
0.29592 0.0772208 -0.0307109 67 7 3
0.295892 0.0774934 -0.0303068 64 7 3
0.295875 0.0776575 -0.0299286 60 7 3
0.295871 0.0777527 -0.0295173 55 6 3
0.296131 0.0780583 -0.0297221 49 5 4
0.296141 0.0779467 -0.0301484 58 6 3
0.296151 0.0777854 -0.0305183 64 7 3
0.296169 0.0775557 -0.0308344 67 7 3
0.296412 0.0780798 -0.0307138 61 7 4
0.296181 0.0774599 -0.0309443 68 7 3
0.296232 0.0771931 -0.0312564 69 8 4
0.241377 0.0733269 -0.0249469 0 0 0
0.241302 0.0733661 -0.0245232 0 0 0
0.240945 0.0732699 -0.0245161 0 0 0
0.241011 0.0733161 -0.0241566 0 0 0
0.240653 0.0731949 -0.0243306 0 0 0
0.240684 0.0732153 -0.024085 0 0 0
0.240353 0.0730982 -0.0240337 0 0 0
0.240728 0.073229 -0.0238758 0 0 0
0.240456 0.073136 -0.0236927 0 0 0
0.240764 0.0732345 -0.0235838 0 0 0
0.240431 0.0731163 -0.0234176 0 0 0
0.240114 0.0730123 -0.0236317 0 0 0
0.239784 0.072863 -0.0237811 0 0 0
0.240008 0.072964 -0.0239643 0 0 0
0.241078 0.0733392 -0.0237917 0 0 0
0.241404 0.0734333 -0.0240624 0 0 0
0.307981 0.0796711 -0.0352537 98 87 86
0.308223 0.0798722 -0.0354948 113 102 94
0.308032 0.0799395 -0.0350129 98 86 84
0.308342 0.0802593 -0.0354109 123 112 105
0.308082 0.080295 -0.0348991 94 84 87
0.308336 0.0805602 -0.0352111 119 110 105
0.308073 0.0805971 -0.03471 92 84 89
0.308329 0.080851 -0.0350181 112 102 101
0.30825 0.0811132 -0.0347836 106 98 97
0.308442 0.0813622 -0.0350937 119 113 107
0.308365 0.0816284 -0.034874 113 103 100
0.308506 0.0818862 -0.0351908 122 119 112
0.308398 0.0821421 -0.0349731 120 117 110
0.308486 0.0823986 -0.0353331 134 129 120
0.30838 0.0825822 -0.0350649 126 122 111
0.308371 0.0828673 -0.0353427 136 131 120
0.308264 0.0829226 -0.0349155 125 119 109
0.308258 0.0831919 -0.0352536 135 131 118
0.307738 0.0797575 -0.034795 78 65 74
0.307749 0.0800193 -0.0345599 74 54 67
0.27109 0.0617013 -0.00835894 62 4 1
0.271446 0.0617807 -0.00837337 64 4 1
0.271386 0.0618001 -0.00833166 64 4 1
0.271747 0.0620515 -0.00813888 63 4 1
0.271349 0.0620172 -0.00808515 62 4 1
0.271747 0.0623035 -0.0078769 62 4 2
0.271366 0.0622739 -0.00783033 62 4 1
0.271726 0.0625617 -0.00764106 63 5 2
0.271316 0.0625307 -0.00761322 61 4 1
0.271672 0.0628104 -0.00743871 64 5 2
0.271305 0.0628262 -0.00740026 61 4 1
0.271669 0.0631118 -0.00723453 62 5 2
0.271288 0.063094 -0.00721402 61 5 1
0.27127 0.0633843 -0.00703583 59 3 1
0.270905 0.0630651 -0.007195 58 3 1
0.27087 0.0633648 -0.00701419 56 3 1
0.270479 0.0633279 -0.00700812 56 2 0
0.270469 0.0636334 -0.00682391 54 2 0
0.270061 0.0636177 -0.00683614 50 1 0
0.27044 0.0639481 -0.00666709 52 1 0
0.270035 0.0639335 -0.00667205 51 1 0
0.27041 0.0642771 -0.00651507 50 2 0
0.27001 0.064269 -0.00652243 50 1 0
0.270392 0.0646111 -0.00637056 49 2 1
0.269993 0.0645939 -0.00637717 48 2 1
0.270373 0.0649384 -0.00622684 49 2 1
0.269969 0.0649278 -0.00622175 49 2 1
0.270353 0.0652809 -0.00608579 48 2 1
0.269945 0.065271 -0.00609404 48 2 1
0.270336 0.0656239 -0.00595616 48 2 2
0.269932 0.065625 -0.00597871 47 2 1
0.2697 0.066024 -0.00592521 50 3 2
0.269399 0.0664653 -0.00594817 53 4 2
0.269163 0.066946 -0.00601017 56 4 2
0.268941 0.0674253 -0.00607581 57 4 2
0.268739 0.0679267 -0.00617744 59 4 2
0.268599 0.0684452 -0.00628411 61 5 3
0.268479 0.0689601 -0.00640518 61 6 4
0.26836 0.0694874 -0.00654264 64 8 6
0.268324 0.0700268 -0.00669936 66 8 6
0.270751 0.0652885 -0.00607579 50 3 1
0.270776 0.0649538 -0.00622829 50 2 0
0.270795 0.064625 -0.00636808 50 3 1
0.270834 0.064298 -0.00651964 53 2 0
0.270834 0.063973 -0.00666984 53 2 0
0.270868 0.0636572 -0.00683228 56 3 1
0.271229 0.0649638 -0.00619799 53 4 2
0.271615 0.0646571 -0.00635018 55 6 3
0.27201 0.0646737 -0.00635139 61 10 5
0.27202 0.0643659 -0.00650919 61 10 5
0.272406 0.0643996 -0.0065106 64 12 7
0.272441 0.0640934 -0.00669597 65 13 6
0.272872 0.0641265 -0.00670964 68 14 8
0.273235 0.0641626 -0.00672641 72 18 11
0.273611 0.0641607 -0.006718 74 21 14
0.273229 0.0638851 -0.00689633 72 20 11
0.273639 0.0638709 -0.0069539 73 19 11
0.273265 0.0635646 -0.00708915 71 18 9
0.273626 0.0635864 -0.00716823 75 22 14
0.27328 0.0632812 -0.0073198 73 18 10
0.273672 0.0633658 -0.00739556 75 19 11
0.273306 0.0630479 -0.00758147 73 16 9
0.273684 0.06312 -0.00765269 75 18 10
0.27333 0.0627988 -0.00783756 72 14 8
0.273708 0.0628729 -0.00789587 76 17 9
0.273728 0.062701 -0.0080823 76 15 8
0.272818 0.0638604 -0.00686881 68 14 7
0.272877 0.0635856 -0.00702257 71 17 10
0.272502 0.0637743 -0.00688963 67 12 6
0.272477 0.0635033 -0.00706318 68 11 5
0.272116 0.0637605 -0.00686071 63 8 4
0.272075 0.0634647 -0.00704386 65 8 3
0.271682 0.0637251 -0.00685594 61 6 2
0.271675 0.0634237 -0.00704225 62 6 2
0.271271 0.0636934 -0.00685357 58 4 2
0.272079 0.0631683 -0.00723952 65 9 3
0.272428 0.0632465 -0.00722546 68 11 4
0.27284 0.0632762 -0.0072498 72 15 8
0.272899 0.0629845 -0.00750452 71 13 7
0.272932 0.06273 -0.00775645 69 11 5
0.272973 0.0624996 -0.00801015 68 9 4
0.272559 0.0624206 -0.00795281 66 7 3
0.272152 0.0623528 -0.00791722 64 6 2
0.27253 0.0626645 -0.00769429 67 8 3
0.272121 0.0626082 -0.00765772 64 6 2
0.272461 0.0629525 -0.00744109 68 10 4
0.27203 0.0628702 -0.00743696 66 7 3
0.272007 0.0640579 -0.00667703 61 8 4
0.271621 0.0640235 -0.00667108 59 6 2
0.271227 0.0640006 -0.00667305 56 4 2
0.27122 0.064321 -0.00652468 55 5 2
0.271194 0.0646391 -0.00636395 53 4 2
0.271612 0.0643439 -0.00651041 57 6 3
0.274089 0.0641671 -0.00664592 79 29 21
0.274484 0.0639113 -0.00684942 79 31 22
0.27091 0.0627712 -0.00739594 60 4 1
0.270913 0.0624813 -0.00760098 60 4 0
0.270957 0.0622144 -0.00781747 61 4 1
0.270552 0.0621751 -0.00780755 60 3 1
0.270944 0.061961 -0.00806116 62 4 1
0.270556 0.0619263 -0.00804425 61 4 1
0.270702 0.061847 -0.00812576 61 4 1
0.308307 0.0799763 -0.0356323 120 110 101
0.308504 0.0805214 -0.0357344 137 128 116
0.308522 0.080805 -0.0355187 130 122 111
0.308513 0.0811056 -0.0353272 120 114 108
0.308582 0.0816157 -0.035413 129 125 113
0.308587 0.0820912 -0.0355445 134 130 119
0.308549 0.082368 -0.0357567 134 132 121
0.30843 0.0827031 -0.0356543 139 135 123
0.308656 0.0818333 -0.0357567 143 136 123
0.30864 0.0813682 -0.0356279 135 130 118
0.308661 0.0810706 -0.035831 146 137 120
0.308695 0.0815675 -0.0359358 149 144 128
0.308256 0.0831364 -0.0356927 130 129 116
0.290437 0.0729531 -0.0248687 84 9 3
0.290348 0.0730745 -0.0247789 84 9 3
0.290566 0.0735567 -0.0249451 84 10 5
0.290252 0.0734562 -0.0246672 83 10 5
0.290471 0.0739358 -0.024796 83 9 4
0.290162 0.0738278 -0.024525 83 9 5
0.290432 0.0740924 -0.0247213 84 9 4
0.287366 0.069041 -0.0191009 80 8 2
0.287369 0.0689023 -0.0189021 78 8 2
0.287017 0.0690155 -0.0184276 81 8 3
0.2869 0.0693244 -0.0186728 82 9 3
0.286572 0.0693593 -0.0181126 83 8 3
0.286456 0.0696961 -0.0183986 83 9 4
0.286118 0.0696927 -0.0177577 86 9 4
0.286005 0.0700611 -0.0179925 87 9 3
0.285661 0.0700585 -0.0173793 87 10 4
0.28555 0.0703822 -0.0175771 87 10 3
0.285236 0.0704086 -0.017019 78 8 2
0.285102 0.0707741 -0.0172227 80 8 2
0.284818 0.0707598 -0.0166801 70 5 1
0.284671 0.071112 -0.0168836 75 6 0
0.28437 0.0711111 -0.0164133 69 4 0
0.284242 0.071443 -0.0166193 75 5 0
0.28394 0.0714256 -0.0163267 72 4 0
0.283815 0.0717829 -0.016506 78 5 0
0.283501 0.0717243 -0.0163175 76 6 1
0.283385 0.0720918 -0.0164642 82 6 1
0.283055 0.0720173 -0.016339 81 7 2
0.282945 0.0723919 -0.0164041 83 6 3
0.282615 0.0723073 -0.0163154 84 8 4
0.282837 0.0727771 -0.0164318 84 7 2
0.282503 0.0726918 -0.016342 85 7 4
0.283164 0.0728472 -0.016593 86 6 1
0.283272 0.0724664 -0.0165471 83 5 1
0.283696 0.0721473 -0.0166588 83 6 0
0.284113 0.0718094 -0.0168101 81 6 0
0.284547 0.071441 -0.017073 79 7 1
0.284992 0.0710968 -0.0174315 80 8 2
0.285418 0.0707545 -0.017773 84 9 3
0.285866 0.0704068 -0.01819 85 9 3
0.286329 0.0700381 -0.0186071 85 8 4
0.286777 0.069696 -0.0189262 82 8 3
0.287252 0.0692206 -0.0191398 80 7 2
0.283469 0.0729041 -0.0168036 86 6 0
0.283575 0.0725276 -0.0167498 83 5 0
0.283992 0.0721843 -0.0169392 85 7 1
0.284417 0.0718185 -0.0172658 86 7 1
0.284874 0.0714217 -0.0176363 85 9 2
0.285292 0.0710853 -0.0179793 85 10 3
0.28575 0.0707348 -0.0183676 86 10 3
0.2862 0.070407 -0.0187961 86 10 4
0.286656 0.070053 -0.0191264 82 9 4
0.287027 0.0698805 -0.0195166 82 8 4
0.287138 0.069544 -0.0193265 83 8 3
0.286906 0.0702325 -0.0196707 83 8 4
0.286841 0.0704192 -0.0197349 81 8 3
0.286531 0.070408 -0.0192884 82 9 4
0.286406 0.0707566 -0.0194392 84 9 4
0.286082 0.070738 -0.018948 87 9 4
0.285973 0.0711105 -0.0191216 85 10 4
0.285626 0.0711058 -0.0185777 87 9 4
0.285521 0.0714699 -0.0187498 88 10 4
0.285196 0.0714402 -0.0182211 86 9 3
0.285091 0.0718251 -0.0183687 87 10 3
0.284748 0.0718218 -0.0178251 88 9 3
0.284641 0.0722152 -0.0179125 88 9 3
0.284307 0.0721991 -0.0173752 87 8 1
0.284522 0.0725997 -0.0179124 89 9 3
0.284194 0.0725779 -0.017436 87 9 2
0.284426 0.0729127 -0.0179057 88 9 3
0.284096 0.0729744 -0.0174802 88 8 2
0.284734 0.0730325 -0.0183568 88 9 4
0.284833 0.0726505 -0.018392 88 9 4
0.284957 0.0722685 -0.0184065 87 9 4
0.285294 0.0722318 -0.018858 87 9 4
0.285401 0.0718523 -0.018835 87 10 3
0.285657 0.072131 -0.019294 85 9 3
0.285737 0.0718563 -0.0192875 86 10 3
0.285943 0.0722663 -0.0197143 84 9 3
0.286057 0.0718816 -0.0197177 84 9 3
0.286261 0.0722998 -0.0201688 84 8 3
0.286376 0.0718881 -0.0201416 83 7 3
0.286684 0.0719107 -0.0205604 79 7 2
0.286483 0.0715129 -0.0200861 82 8 3
0.286797 0.0715423 -0.0204937 80 8 3
0.286924 0.0711625 -0.0204195 81 8 3
0.287121 0.0715608 -0.0208716 79 7 2
0.28725 0.0711877 -0.0208231 80 7 2
0.28744 0.0715886 -0.0212311 78 7 2
0.287564 0.0712102 -0.0212047 80 7 3
0.287752 0.0716323 -0.0215783 78 7 2
0.288066 0.0716579 -0.0219769 78 7 3
0.288119 0.0716321 -0.022034 78 7 3
0.288336 0.0719037 -0.022436 77 7 2
0.288563 0.0719904 -0.0227577 78 8 3
0.288839 0.0723284 -0.0231339 80 7 2
0.289065 0.0722351 -0.0233857 81 7 2
0.2883 0.0720594 -0.0224432 77 7 2
0.288347 0.0721897 -0.0225386 77 7 1
0.288182 0.0724526 -0.0224133 77 7 2
0.288377 0.0725088 -0.0226368 78 7 1
0.288122 0.072668 -0.0223957 77 6 2
0.288423 0.0728994 -0.0227406 79 7 1
0.28833 0.073163 -0.0226707 80 7 2
0.288663 0.0728098 -0.0229822 80 7 1
0.288629 0.0732783 -0.0229912 79 7 1
0.28872 0.0732034 -0.0230781 80 7 1
0.288937 0.0733863 -0.0233206 80 8 2
0.288953 0.0731068 -0.0233235 81 7 2
0.28918 0.0730188 -0.0235796 82 8 2
0.289114 0.0726308 -0.023497 81 7 2
0.288889 0.0727208 -0.0232403 80 7 1
0.288606 0.0724215 -0.0228833 79 8 2
0.289249 0.0734007 -0.0236587 82 9 3
0.289555 0.0736098 -0.0239747 83 9 3
0.289856 0.0737204 -0.0242636 83 10 4
0.289763 0.0741006 -0.0241072 84 10 5
0.290065 0.074203 -0.0243665 83 10 5
0.290044 0.0742916 -0.0243203 83 10 4
0.290348 0.0744292 -0.0245267 84 10 5
0.290275 0.0747669 -0.0243051 84 10 4
0.289979 0.0746308 -0.0241172 85 11 5
0.289677 0.0744762 -0.023909 85 10 5
0.289367 0.0743556 -0.0236478 85 9 4
0.289081 0.0741478 -0.0234226 82 8 2
0.288745 0.0741475 -0.0230887 80 8 2
0.288448 0.074029 -0.022799 79 7 1
0.288146 0.0739226 -0.0225003 79 8 2
0.287838 0.0738144 -0.0221865 81 8 3
0.287525 0.0737039 -0.0218532 80 7 3
0.287223 0.0735914 -0.0215331 80 7 3
0.286925 0.0734817 -0.021219 80 7 2
0.286634 0.0733696 -0.0208875 80 8 1
0.286332 0.0732505 -0.0204995 82 8 3
0.286028 0.0731307 -0.020059 82 7 3
0.28573 0.0730118 -0.0196608 82 7 3
0.285387 0.0730435 -0.0192498 85 9 5
0.285075 0.0730245 -0.0188183 87 10 4
0.285131 0.0727725 -0.0188354 86 9 4
0.285247 0.0723918 -0.018857 86 9 4
0.285499 0.0726508 -0.0192695 85 9 3
0.285624 0.0722483 -0.0192983 87 9 3
0.285837 0.0726213 -0.0196962 84 8 3
0.286129 0.0727486 -0.0201349 83 8 3
0.286426 0.0728803 -0.0205926 83 7 2
0.286573 0.0723981 -0.0206453 80 7 2
0.286814 0.0727042 -0.0210556 80 7 3
0.286906 0.0723278 -0.021028 81 7 2
0.287132 0.0726944 -0.0213884 79 6 3
0.287221 0.0723534 -0.0213596 80 6 2
0.287538 0.0723827 -0.0216805 77 6 2
0.287641 0.0720127 -0.0216235 78 7 2
0.287854 0.0724204 -0.022042 77 7 2
0.28796 0.0720397 -0.0220103 77 6 2
0.287328 0.0719761 -0.0212761 77 6 2
0.287002 0.071955 -0.0209386 79 7 3
0.287754 0.0728057 -0.0220433 78 6 2
0.288019 0.0730569 -0.0223581 80 7 2
0.28772 0.0729329 -0.022032 77 6 2
0.28793 0.0734359 -0.0222957 79 6 2
0.28762 0.0733274 -0.021976 80 6 2
0.288235 0.0735443 -0.0226079 80 7 2
0.288537 0.073667 -0.0229146 79 7 2
0.288844 0.0737683 -0.02322 81 7 1
0.289147 0.0738747 -0.0235294 81 8 2
0.289246 0.0734948 -0.0236526 82 9 3
0.28946 0.0739869 -0.0238386 84 10 4
0.287426 0.0727872 -0.0217202 78 6 1
0.287322 0.0732105 -0.0216656 79 7 3
0.287021 0.0731142 -0.0213428 80 6 3
0.286727 0.0730052 -0.0209979 81 8 2
0.285432 0.0728889 -0.0192567 85 9 4
0.285849 0.0714786 -0.0192355 86 9 4
0.286175 0.0714952 -0.0196743 83 9 3
0.286288 0.0711305 -0.0195847 84 9 3
0.286658 0.0709477 -0.0199421 81 8 3
0.286713 0.0707674 -0.0198798 82 9 3
0.287014 0.0708671 -0.0203368 80 8 3
0.287118 0.070498 -0.0202124 81 9 4
0.287367 0.0707837 -0.0207416 80 8 3
0.286605 0.0711332 -0.0200012 80 8 3
0.283892 0.072566 -0.0170327 86 7 0
0.28378 0.0729428 -0.0170941 87 7 1
0.287272 0.0693531 -0.0193335 83 7 3
0.287141 0.0687209 -0.0181892 80 8 3
0.286701 0.0690065 -0.0178232 85 9 3
0.286821 0.0686777 -0.0175225 84 9 3
0.286358 0.0690219 -0.017167 86 10 4
0.286487 0.0686911 -0.016892 85 9 4
0.286029 0.0690063 -0.0165191 88 10 4
0.286155 0.0687056 -0.0163198 88 12 4
0.285719 0.0690604 -0.0160017 85 9 2
0.285852 0.0687326 -0.0158052 85 9 2
0.285411 0.069083 -0.0153887 76 8 1
0.285954 0.0684359 -0.0155228 84 11 4
0.285538 0.0687538 -0.0149513 73 8 1
0.286288 0.0683708 -0.0160848 90 12 3
0.286728 0.0680324 -0.0163597 86 11 5
0.286614 0.0683648 -0.0166233 86 11 4
0.286233 0.0693594 -0.0174787 86 9 4
0.285783 0.0697157 -0.01712 87 10 4
0.285348 0.0700829 -0.0168076 82 8 2
0.284921 0.0704098 -0.0163977 71 5 0
0.28451 0.0707716 -0.016138 64 3 0
0.284069 0.0710835 -0.0160898 67 4 0
0.283621 0.0713807 -0.0161473 72 4 2
0.283174 0.0716509 -0.0162133 76 5 3
0.282728 0.0719249 -0.0162671 82 7 3
0.282277 0.0722096 -0.0162924 87 9 5
0.282166 0.0725861 -0.0163249 87 9 5
0.281823 0.0724713 -0.0163616 90 10 6
0.28171 0.0728557 -0.0163791 90 10 6
0.281367 0.0727453 -0.0164524 91 11 7
0.281259 0.0731295 -0.016491 91 12 8
0.281027 0.0726227 -0.0165539 91 11 8
0.280906 0.0730629 -0.0165785 91 12 8
0.280664 0.0725902 -0.0166627 90 11 8
0.280547 0.0729761 -0.0166789 91 12 8
0.280797 0.0721255 -0.0166204 88 10 7
0.281135 0.0722434 -0.016512 89 12 8
0.281253 0.071866 -0.0164711 89 10 7
0.281583 0.0719842 -0.0163878 88 10 7
0.281709 0.0716083 -0.016321 87 10 7
0.281936 0.0720937 -0.0163204 87 10 6
0.282047 0.0717199 -0.0162653 85 10 6
0.282387 0.0718291 -0.016252 84 8 5
0.282157 0.0713564 -0.0161826 83 8 6
0.282502 0.0714608 -0.0161449 80 9 5
0.282279 0.0709869 -0.0160792 79 9 6
0.282618 0.071097 -0.0160265 78 8 5
0.282397 0.0706246 -0.0159399 78 9 6
0.282736 0.0707339 -0.0158686 74 8 5
0.28251 0.0702724 -0.0157447 75 9 6
0.282848 0.0704077 -0.0156423 72 8 6
0.28263 0.0699365 -0.0154991 74 10 7
0.282967 0.070076 -0.0153551 71 9 6
0.28275 0.0695967 -0.0152267 73 10 6
0.283098 0.0697328 -0.0150494 76 11 6
0.28287 0.0692589 -0.0149234 77 13 8
0.28322 0.0694116 -0.0147191 79 13 7
0.282999 0.0689305 -0.0146376 83 17 10
0.283352 0.0690655 -0.0143793 86 19 11
0.283139 0.0685805 -0.014218 88 22 13
0.283492 0.068756 -0.0139815 94 26 16
0.283262 0.0682983 -0.013819 99 29 18
0.283615 0.0684501 -0.0135976 108 35 21
0.283402 0.0679982 -0.0134136 118 42 25
0.28375 0.068113 -0.0132053 128 50 28
0.28353 0.067628 -0.0131216 145 66 35
0.283878 0.0677276 -0.0130682 146 70 38
0.283962 0.0673552 -0.0131152 162 98 54
0.282052 0.072976 -0.0163486 88 9 5
0.280807 0.0733978 -0.0165948 90 11 8
0.280444 0.0733619 -0.016688 91 12 8
0.285896 0.0693605 -0.016816 87 10 3
0.285473 0.0697529 -0.0165407 81 8 2
0.285043 0.0700997 -0.016126 71 5 0
0.284653 0.0704542 -0.0158295 61 4 0
0.284194 0.070764 -0.0157761 63 3 1
0.283748 0.0710295 -0.0158955 66 4 1
0.283288 0.0712965 -0.0160467 73 6 3
0.282843 0.0715589 -0.0161598 79 8 3
0.281478 0.0723656 -0.0164206 91 11 7
0.282957 0.0712107 -0.0160094 76 8 4
0.283073 0.0708456 -0.0158218 69 7 5
0.28319 0.0705318 -0.0155695 68 6 4
0.283315 0.0702025 -0.0152434 72 7 4
0.283437 0.06988 -0.0149395 77 10 5
0.283572 0.0695339 -0.0145891 83 14 6
0.283696 0.0691937 -0.014256 90 19 9
0.283829 0.0688865 -0.0138666 97 24 13
0.283955 0.0685829 -0.0134684 105 32 18
0.284082 0.0682292 -0.0131739 118 43 24
0.284195 0.0678582 -0.0130947 130 54 32
0.284527 0.0679542 -0.0131611 132 55 32
0.285589 0.0693953 -0.0162191 84 9 2
0.285157 0.0697636 -0.0158588 72 6 1
0.284763 0.0701287 -0.0155052 63 4 1
0.284319 0.0704481 -0.0154696 64 4 1
0.283874 0.0707068 -0.0155932 65 5 2
0.283419 0.070944 -0.0158177 71 5 3
0.283534 0.0706376 -0.0155408 67 6 2
0.283655 0.0703177 -0.0152142 71 7 3
0.283778 0.0699894 -0.0149161 76 10 3
0.283913 0.0696294 -0.0145648 83 14 6
0.284037 0.0693078 -0.0142534 86 18 8
0.284167 0.0689874 -0.0138237 99 26 12
0.28429 0.0686769 -0.0134736 106 34 18
0.28441 0.0683308 -0.013245 117 43 24
0.284625 0.0687718 -0.0134821 99 28 13
0.283994 0.0703958 -0.0152919 67 5 2
0.28412 0.0700705 -0.0150105 71 7 2
0.284247 0.0697131 -0.0146699 76 9 3
0.284377 0.0693888 -0.014323 83 14 5
0.284503 0.06908 -0.0138747 92 20 9
0.28445 0.0701067 -0.015172 67 5 2
0.284577 0.069771 -0.0148702 70 8 2
0.284714 0.0694386 -0.0144831 73 10 4
0.284841 0.0691069 -0.0139465 85 20 7
0.285146 0.0691107 -0.0144512 70 8 2
0.28499 0.069428 -0.0149203 69 5 1
0.284878 0.0697704 -0.015218 67 4 1
0.285298 0.0694149 -0.0156108 74 6 1
0.246005 0.0728014 -0.0234431 7 4 0
0.24577 0.0732131 -0.0234116 0 0 0
0.245986 0.07296 -0.023078 4 2 0
0.27016 0.0618826 -0.00803176 59 4 1
0.269743 0.0621144 -0.00779988 57 2 0
0.269726 0.0624022 -0.00758967 57 3 1
0.263485 0.062423 -0.00834178 50 2 1
0.26342 0.0626747 -0.00824261 50 2 1
0.263313 0.0630575 -0.00812696 49 2 0
0.263576 0.0635145 -0.00794956 48 2 0
0.263822 0.0639783 -0.00782234 48 2 1
0.264091 0.0643407 -0.00774035 50 2 1
0.263981 0.0647098 -0.007794 52 2 1
0.263854 0.065139 -0.00784659 53 2 1
0.263722 0.0655274 -0.00791384 54 2 1
0.263604 0.065928 -0.00800619 55 3 2
0.26349 0.0663183 -0.00812247 55 3 2
0.263392 0.0666922 -0.00828065 55 3 2
0.263286 0.0670408 -0.00845668 56 3 3
0.263609 0.0671972 -0.0083634 58 3 3
0.263154 0.067452 -0.00865627 58 4 3
0.263477 0.0676372 -0.00857853 59 4 4
0.263042 0.0677876 -0.00886437 59 4 4
0.26336 0.0679507 -0.00878616 61 5 4
0.263251 0.068261 -0.00902834 62 5 4
0.263677 0.0681464 -0.00872198 62 5 5
0.263573 0.0684425 -0.00898229 64 6 5
0.264003 0.0683197 -0.00866768 62 5 4
0.263891 0.0686236 -0.00892856 63 5 4
0.264313 0.0685021 -0.00860859 62 5 5
0.264211 0.0687991 -0.00886137 64 6 5
0.264536 0.0689415 -0.00877074 64 6 5
0.264433 0.0692331 -0.00903335 66 7 6
0.264826 0.0691542 -0.00870619 65 7 6
0.264728 0.0694683 -0.00899467 67 7 6
0.265114 0.0694031 -0.00865526 66 7 6
0.265031 0.0696882 -0.00893881 67 8 6
0.265433 0.0696375 -0.00858563 65 7 6
0.26534 0.0699039 -0.00888949 69 8 7
0.265746 0.0698631 -0.00852067 66 7 6
0.265652 0.0701295 -0.00882452 68 9 7
0.266051 0.0701117 -0.00846618 67 9 7
0.265961 0.0703562 -0.00876651 68 8 7
0.266353 0.0703387 -0.0084066 67 9 7
0.266256 0.0705695 -0.00871338 69 9 7
0.266651 0.0705744 -0.00832772 69 9 8
0.266547 0.0708295 -0.0086751 72 9 8
0.26694 0.0708164 -0.0082527 72 10 9
0.266845 0.0710747 -0.00859084 75 11 9
0.267227 0.0710623 -0.00817277 76 12 9
0.267145 0.0713216 -0.00849657 78 12 9
0.267517 0.0713349 -0.00809636 81 14 10
0.26743 0.0715779 -0.00839458 80 13 10
0.26739 0.071717 -0.0085738 81 13 9
0.267305 0.0719193 -0.00891524 80 12 9
0.267213 0.0721132 -0.00925836 80 12 8
0.267339 0.0708726 -0.0079034 75 11 9
0.267396 0.0708001 -0.00779679 73 11 9
0.267326 0.070804 -0.00787553 71 10 9
0.267428 0.0705151 -0.00758664 71 10 8
0.267045 0.0705574 -0.00795812 72 10 9
0.267147 0.0702495 -0.00768224 68 9 7
0.266758 0.0703003 -0.00803957 68 9 7
0.266445 0.0700637 -0.00811671 67 8 7
0.266511 0.0698582 -0.00794002 65 8 6
0.266144 0.0698137 -0.00818514 65 7 6
0.266191 0.0696785 -0.00806833 65 7 6
0.265844 0.0695816 -0.00823902 63 6 6
0.265543 0.0693416 -0.00830443 63 6 6
0.265234 0.0690977 -0.00836923 63 6 6
0.26492 0.0688938 -0.00845692 64 6 5
0.264614 0.0686974 -0.0085435 62 6 5
0.264412 0.0681959 -0.00836877 60 5 4
0.264102 0.0679657 -0.00843762 60 5 4
0.263794 0.0677882 -0.00851093 59 4 4
0.264138 0.067858 -0.00836427 58 5 4
0.263202 0.063461 -0.0080699 50 2 0
0.263084 0.0638851 -0.00805683 51 1 1
0.262959 0.0643259 -0.00809455 51 2 1
0.262864 0.0646741 -0.00813732 52 3 1
0.263459 0.0639256 -0.00793695 49 2 0
0.263316 0.0644058 -0.00798406 50 2 1
0.263199 0.0648192 -0.00803851 52 3 1
0.2637 0.0644202 -0.00787579 49 2 1
0.263656 0.0645608 -0.00788912 49 2 1
0.263529 0.064979 -0.00794693 52 2 1
0.263078 0.0652336 -0.00810497 53 3 2
0.263404 0.0653722 -0.00801236 53 2 2
0.262957 0.0656222 -0.00819033 55 3 2
0.26328 0.0657725 -0.00810241 54 3 2
0.262842 0.0659798 -0.00829976 54 3 1
0.263162 0.0661493 -0.0082114 55 3 2
0.262738 0.0663761 -0.00843738 53 3 2
0.263059 0.0665305 -0.00835358 55 3 3
0.262625 0.0667405 -0.00859736 55 3 2
0.26296 0.0668869 -0.00852686 56 3 3
0.262517 0.0670982 -0.00877413 56 3 3
0.262845 0.0672478 -0.00869767 58 3 3
0.262398 0.0674425 -0.00897368 59 3 3
0.262721 0.0676158 -0.00892983 59 4 3
0.262289 0.0677561 -0.00920985 59 4 3
0.262606 0.0679277 -0.00916344 59 4 3
0.262184 0.0680781 -0.00943017 60 4 4
0.262507 0.0682348 -0.00939764 61 4 3
0.26245 0.0684142 -0.00952734 62 4 4
0.262833 0.0683984 -0.00935035 61 4 4
0.262776 0.0685819 -0.00950745 62 4 4
0.263095 0.0687368 -0.00946322 63 5 5
0.26267 0.0688673 -0.00978208 65 6 5
0.262988 0.0690229 -0.00976912 65 6 4
0.262571 0.0691295 -0.0100781 64 6 4
0.262887 0.069276 -0.0100781 66 6 4
0.262511 0.0692635 -0.0102478 66 7 5
0.262832 0.0694212 -0.0102537 68 7 5
0.262239 0.0689829 -0.0100809 65 5 4
0.261923 0.0688252 -0.0100787 64 5 4
0.262346 0.0687056 -0.00978971 63 5 4
0.26203 0.0685402 -0.00980274 61 4 3
0.26208 0.0683967 -0.00967388 60 4 3
0.239338 0.0725204 -0.0227936 0 0 0
0.239537 0.0725363 -0.0225621 0 0 0
0.239781 0.0727308 -0.0225407 0 0 0
0.239966 0.0727267 -0.0222108 0 0 0
0.240157 0.072929 -0.0224493 0 0 0
0.240303 0.0729155 -0.0221015 0 0 0
0.240536 0.0730788 -0.0222927 0 0 0
0.240651 0.0730701 -0.0219707 0 0 0
0.240886 0.0732199 -0.0221653 0 0 0
0.241003 0.0732167 -0.0218567 0 0 0
0.240168 0.0727361 -0.0219276 0 0 0
0.24048 0.0728553 -0.0217373 0 0 0
0.240812 0.073042 -0.0216568 0 0 0
0.241127 0.0731643 -0.0215419 0 0 0
0.240237 0.0726109 -0.0216647 0 0 0
0.285396 0.0659809 -0.0137506 104 88 77
0.285032 0.0660276 -0.0136511 114 97 86
0.284703 0.0659372 -0.013554 128 108 93
0.285356 0.0661292 -0.0137222 108 90 77
0.285257 0.0665062 -0.0136265 115 79 64
0.285167 0.0668715 -0.0134875 125 76 52
0.285412 0.0673309 -0.0134228 114 57 36
0.284924 0.0664084 -0.0135609 128 102 83
0.28564 0.0678119 -0.0134282 97 36 21
0.270144 0.0621489 -0.00780252 59 2 0
0.270531 0.0624446 -0.00759187 58 3 0
0.270513 0.0627308 -0.00738466 58 3 1
0.270497 0.0630276 -0.00719307 56 2 1
0.270132 0.0624213 -0.0075843 57 2 0
0.270112 0.0627053 -0.00738091 57 2 1
0.270096 0.0630005 -0.00719395 54 2 0
0.270078 0.0633021 -0.00700568 53 2 0
0.28646 0.0640389 -0.0107221 137 126 107
0.286514 0.0642639 -0.0104463 137 119 95
0.286581 0.0644899 -0.0101759 132 102 72
0.286913 0.0648457 -0.0100413 126 89 58
0.287235 0.0652469 -0.00996204 109 64 38
0.287558 0.0656385 -0.00991661 97 45 24
0.287786 0.0659666 -0.00973965 92 36 18
0.286178 0.0644039 -0.0100944 132 105 78
0.286138 0.0646592 -0.00985049 125 89 62
0.286027 0.0650133 -0.00974955 111 64 41
0.285921 0.0653749 -0.00964559 103 53 32
0.285833 0.0656566 -0.00946423 95 42 23
0.285576 0.0658153 -0.00915682 92 37 22
0.285496 0.0658711 -0.00899971 91 37 21
0.285196 0.0658572 -0.00881479 95 41 24
0.285455 0.0659807 -0.00864056 91 34 18
0.285022 0.0659044 -0.00857792 91 33 18
0.285955 0.0661263 -0.00867096 88 29 13
0.286475 0.0662256 -0.00865721 88 28 13
0.286992 0.0663322 -0.00865069 84 24 9
0.287513 0.0664203 -0.00864886 83 22 8
0.288041 0.066494 -0.00862982 81 21 7
0.287751 0.0663822 -0.0089001 86 26 10
0.287466 0.0662468 -0.00915196 88 29 13
0.287234 0.0662914 -0.00890684 86 27 11
0.286971 0.0661622 -0.00915403 90 31 14
0.286712 0.0661848 -0.00890994 87 28 13
0.286756 0.0660452 -0.00932259 89 33 16
0.286443 0.0660508 -0.00916052 91 34 17
0.286502 0.0658655 -0.00951753 92 39 20
0.286244 0.0659586 -0.00928259 90 36 19
0.286283 0.065738 -0.00956452 91 39 21
0.285962 0.0658754 -0.0092763 91 36 19
0.286302 0.0654216 -0.00973299 97 48 28
0.286677 0.06552 -0.00980383 101 50 26
0.28641 0.0650981 -0.00983953 117 70 43
0.286819 0.0651853 -0.00990704 112 65 39
0.286512 0.064762 -0.00996664 126 93 65
0.287114 0.0656105 -0.00985703 96 44 23
0.286727 0.0657471 -0.00970978 91 39 20
0.287531 0.0657705 -0.00983811 96 44 23
0.287265 0.0658852 -0.00971397 89 34 17
0.287522 0.066069 -0.0095357 89 32 15
0.287192 0.0660993 -0.00939536 90 33 16
0.286958 0.0659503 -0.00958049 91 36 18
0.286231 0.0661046 -0.00892214 90 33 16
0.285896 0.0659695 -0.00907276 91 36 19
0.304969 0.0897407 -0.0484526 0 0 0
0.304778 0.0898556 -0.0482453 0 0 0
0.304946 0.0898885 -0.0479673 0 0 0
0.305126 0.0897682 -0.0482568 0 0 0
0.305436 0.089731 -0.048171 0 0 0
0.305693 0.0897475 -0.0477309 0 0 0
0.305299 0.0898402 -0.047806 0 0 0
0.305565 0.0898835 -0.0473255 0 0 0
0.308004 0.0802182 -0.0347857 90 80 85
0.307976 0.0805062 -0.0345863 89 77 83
0.30803 0.0808783 -0.0344791 92 82 86
0.308179 0.0813839 -0.0345722 103 91 91
0.308252 0.0819049 -0.0346652 109 103 101
0.308277 0.0824154 -0.0347647 112 107 101
0.298585 0.0797974 -0.0338115 73 16 8
0.298568 0.0800813 -0.0336062 68 15 8
0.298398 0.0798561 -0.0333205 69 14 7
0.298188 0.0796356 -0.0330569 68 12 6
0.298004 0.079421 -0.0327864 68 11 5
0.283256 0.0634353 -0.00960451 132 122 104
0.283578 0.0635626 -0.00964043 132 120 102
0.283226 0.0636365 -0.00925179 132 115 94
0.283546 0.0637804 -0.00930318 128 113 93
0.283178 0.0638772 -0.00891941 133 112 89
0.283897 0.0636827 -0.00967637 130 118 101
0.28291 0.0634975 -0.00920957 132 118 99
0.28257 0.0635325 -0.00881398 132 116 95
0.282251 0.063474 -0.00853185 131 115 95
0.281929 0.0634237 -0.00827566 126 110 91
0.281623 0.0632611 -0.00819385 128 115 98
0.281287 0.063209 -0.0080143 129 115 98
0.280963 0.0630856 -0.00796463 128 117 101
0.280606 0.0631746 -0.00757144 138 123 104
0.280256 0.0632594 -0.00719712 142 126 104
0.282867 0.0637076 -0.00886973 132 111 87
0.282521 0.0637663 -0.0084784 133 107 82
0.282192 0.0637027 -0.0082329 131 108 86
0.281862 0.0636899 -0.00797462 128 106 84
0.28159 0.0634854 -0.00784299 127 110 91
0.281261 0.0633521 -0.00779983 127 112 96
0.280928 0.0633087 -0.00762262 134 119 101
0.280898 0.0634569 -0.00741202 133 118 99
0.280562 0.0634067 -0.00723882 137 120 100
0.280807 0.0637565 -0.00716286 143 117 89
0.280512 0.0635882 -0.0070357 138 117 96
0.280432 0.0639003 -0.00681757 153 125 95
0.280139 0.0637395 -0.00670134 154 130 101
0.280072 0.0640353 -0.00645243 160 127 94
0.279766 0.063873 -0.00634093 158 134 108
0.279704 0.064174 -0.00613509 161 123 88
0.27942 0.0639953 -0.00604969 156 131 99
0.279351 0.064166 -0.00591183 155 128 96
0.279017 0.0641509 -0.00565016 148 125 100
0.280202 0.063459 -0.00697781 151 134 110
0.282831 0.0639662 -0.00853342 128 100 75
0.282497 0.0639261 -0.00829006 128 100 76
0.282183 0.0638387 -0.0080897 127 101 78
0.28208 0.0641388 -0.00789414 130 93 65
0.281765 0.0640253 -0.00770866 131 93 63
0.281957 0.0644612 -0.00771847 127 80 47
0.281663 0.0643514 -0.0075282 129 86 55
0.281621 0.0647137 -0.00743686 130 79 44
0.281314 0.0645288 -0.00721461 131 88 57
0.281237 0.0649164 -0.00711004 134 75 41
0.280938 0.0646984 -0.00689436 139 89 55
0.280842 0.0651451 -0.00676606 138 73 40
0.28056 0.0648611 -0.00656069 141 90 53
0.280457 0.0652926 -0.00639772 140 77 44
0.280171 0.0650304 -0.00622925 147 96 60
0.28007 0.0654595 -0.00605753 141 73 40
0.279778 0.0652046 -0.00589958 148 98 59
0.279692 0.065608 -0.00570651 138 78 42
0.2794 0.0653209 -0.00555293 141 91 56
0.279327 0.0657214 -0.00532748 127 66 37
0.279039 0.0654278 -0.00519281 130 79 48
0.278953 0.06584 -0.00496305 119 60 34
0.278673 0.0655125 -0.00482155 123 76 46
0.279317 0.0660177 -0.00499198 118 55 31
0.279298 0.0662478 -0.00464455 99 40 23
0.279645 0.0663022 -0.0046629 101 40 21
0.279633 0.0664654 -0.00429945 85 28 14
0.279987 0.0665034 -0.00430471 82 23 9
0.27967 0.0659378 -0.00537894 120 54 30
0.279662 0.0661235 -0.00501811 120 54 30
0.28001 0.0661762 -0.0050341 100 38 20
0.279998 0.0663422 -0.00466758 92 34 17
0.280358 0.0663683 -0.00467324 84 25 10
0.280341 0.0665261 -0.00430169 81 24 12
0.280714 0.066407 -0.00467607 83 26 11
0.280703 0.0665573 -0.00428654 75 17 7
0.281012 0.0664697 -0.00450406 78 21 9
0.281045 0.0666584 -0.00400156 68 14 6
0.281302 0.0665659 -0.00422684 68 15 6
0.281325 0.0667584 -0.00372806 59 9 4
0.281581 0.0666761 -0.00395586 64 12 6
0.281481 0.0668152 -0.00359453 58 9 5
0.281726 0.0667361 -0.00382476 57 9 4
0.281981 0.0666598 -0.00405963 57 9 3
0.281832 0.0665944 -0.00419664 61 11 6
0.281545 0.0664852 -0.00447267 69 14 7
0.281264 0.0663861 -0.00474403 75 20 9
0.280987 0.0662798 -0.00501027 86 26 12
0.280728 0.0662544 -0.00503915 91 32 17
0.280726 0.0661142 -0.00542193 95 34 18
0.280729 0.0659741 -0.0057924 105 40 21
0.281064 0.0658737 -0.00618801 113 44 23
0.280703 0.0658198 -0.00612589 136 59 33
0.280783 0.0655705 -0.00646233 130 60 33
0.280397 0.0656679 -0.00612338 126 58 31
0.281061 0.0654781 -0.00680139 142 75 43
0.281131 0.0657105 -0.00658102 135 61 33
0.280734 0.0663686 -0.00477787 85 27 11
0.280367 0.0662201 -0.00504634 93 32 15
0.280371 0.0660569 -0.00542567 109 44 24
0.280391 0.0659069 -0.005798 131 58 33
0.280028 0.0660234 -0.00539879 123 55 30
0.280043 0.0658197 -0.00574766 131 60 33
0.28135 0.0669442 -0.00324603 52 7 3
0.281084 0.0668449 -0.00349428 60 10 5
0.280839 0.0669332 -0.00327551 58 11 5
0.280794 0.0667476 -0.00377874 69 15 7
0.280692 0.0666789 -0.00392967 70 17 8
0.282379 0.0642228 -0.00807707 123 82 53
0.281569 0.0650722 -0.00731336 136 75 39
0.281445 0.0652663 -0.00714322 136 73 38
0.281157 0.0652923 -0.00700966 142 77 41
0.305012 0.0773073 -0.0299796 50 5 2
0.305271 0.0775931 -0.0303164 53 6 3
0.305176 0.0779372 -0.0301481 53 6 2
0.305429 0.0782318 -0.0304729 54 6 2
0.305136 0.0781078 -0.0300672 46 5 1
0.305335 0.0785972 -0.0303198 51 5 1
0.305083 0.0782974 -0.0299927 51 4 1
0.304988 0.0787084 -0.0298725 44 4 0
0.304729 0.0784468 -0.0295816 43 3 0
0.304609 0.0788806 -0.0295101 45 3 0
0.304829 0.0780294 -0.0296873 44 3 0
0.304921 0.0776655 -0.0298161 48 5 1
0.305662 0.0785441 -0.0308373 54 7 4
0.30557 0.0788899 -0.0306821 54 6 2
0.30523 0.0789567 -0.030179 50 5 0
0.305893 0.0788984 -0.0312346 53 8 3
0.304874 0.0790961 -0.0297781 47 4 0
0.304564 0.0790215 -0.0294938 47 3 0
0.304461 0.0793995 -0.0294596 48 3 0
0.249132 0.0726132 -0.0220205 109 99 86
0.248754 0.0727609 -0.0217887 99 94 84
0.249138 0.0728862 -0.021568 115 106 93
0.249029 0.0729269 -0.0214981 113 105 92
0.249307 0.0731274 -0.0212385 113 107 94
0.248928 0.0732019 -0.0209688 113 107 96
0.249229 0.0733392 -0.0207376 118 111 98
0.249122 0.0733712 -0.0206603 117 112 97
0.249442 0.0734495 -0.0204744 124 118 104
0.249309 0.0734965 -0.0203654 125 118 103
0.249469 0.0735887 -0.0200941 119 116 104
0.249186 0.0736459 -0.0198966 117 113 102
0.249642 0.0734897 -0.0198149 120 112 102
0.249311 0.0736279 -0.0195807 122 118 105
0.249513 0.0734349 -0.019315 117 109 99
0.249146 0.0735831 -0.019077 118 113 101
0.249335 0.0733569 -0.018791 116 112 100
0.24906 0.0736122 -0.0190189 117 113 101
0.24896 0.0735017 -0.0185444 115 110 99
0.248764 0.0736157 -0.0188276 121 117 105
0.248581 0.0735143 -0.0183224 120 115 104
0.248417 0.0735746 -0.0186127 121 117 105
0.248818 0.0733323 -0.0180754 119 113 98
0.249216 0.0732088 -0.0183235 116 109 95
0.249512 0.0730964 -0.018538 119 109 96
0.249689 0.0731581 -0.019054 117 108 98
0.249827 0.0729647 -0.0187725 125 111 98
0.250016 0.0729713 -0.0192969 122 112 100
0.250145 0.0728297 -0.0189917 121 107 95
0.24965 0.0728945 -0.01826 121 108 94
0.249579 0.0727817 -0.0178199 117 99 84
0.249404 0.0729621 -0.0180818 115 108 95
0.250213 0.0729952 -0.0198147 127 113 101
0.249868 0.0732278 -0.0195588 118 109 99
0.249807 0.0733932 -0.0199246 120 111 101
0.250374 0.0729954 -0.020338 129 114 102
0.250103 0.0731826 -0.0201251 129 116 104
0.250233 0.0731684 -0.0206445 119 108 99
0.24993 0.0733283 -0.0204318 122 116 105
0.250031 0.0731804 -0.0209272 118 110 99
0.249734 0.0733247 -0.0207044 121 115 102
0.249528 0.0732569 -0.0209679 113 108 96
0.249819 0.0733959 -0.0203516 121 116 105
0.250677 0.0727903 -0.0205662 128 111 100
0.25052 0.0729526 -0.0208656 117 104 96
0.250234 0.0730482 -0.0210849 118 109 100
0.249822 0.073122 -0.0211851 114 106 94
0.249998 0.0729977 -0.0213359 115 105 94
0.249606 0.0730003 -0.0214565 113 104 93
0.249748 0.072922 -0.0215765 113 103 92
0.24944 0.0727818 -0.0218033 113 102 91
0.248476 0.0728203 -0.0216244 93 91 81
0.248704 0.0729873 -0.0212972 109 104 92
0.248362 0.0730215 -0.021095 105 103 91
0.248586 0.0732213 -0.0207592 110 105 93
0.248229 0.0731912 -0.0205726 101 99 89
0.248462 0.0734048 -0.0202586 105 103 92
0.248161 0.0733307 -0.0201026 101 101 91
0.248295 0.0734811 -0.0197495 110 108 96
0.247947 0.0733374 -0.0195849 110 110 101
0.248448 0.0735908 -0.019433 114 110 99
0.248033 0.0734187 -0.0192026 112 110 101
0.248253 0.0735424 -0.01892 119 117 106
0.248595 0.0736391 -0.0191222 121 117 106
0.248916 0.0736899 -0.0193137 119 114 104
0.248778 0.0736749 -0.0196306 115 112 100
0.247804 0.0731972 -0.0199313 88 92 85
0.247992 0.0731614 -0.0204434 95 96 88
0.248013 0.0730414 -0.020909 93 95 89
0.248109 0.0728811 -0.0214199 82 84 76
0.248801 0.0734115 -0.0204532 110 105 93
0.248992 0.0735554 -0.0201696 118 112 100
0.307747 0.0802999 -0.0343554 74 54 70
0.307721 0.0805852 -0.0341485 72 50 68
0.307942 0.0811215 -0.0342558 89 76 82
0.308055 0.0816468 -0.034352 98 89 91
0.308128 0.0821667 -0.0344468 100 93 90
0.30816 0.0826704 -0.0345562 110 107 100
0.30815 0.0831136 -0.0346419 119 114 104
0.307457 0.0804043 -0.0339133 66 36 52
0.307651 0.0808841 -0.0339448 69 53 65
0.307391 0.0806741 -0.0337132 65 38 53
0.30756 0.081176 -0.0337657 62 48 62
0.307292 0.0809723 -0.0335292 60 34 50
0.307429 0.0814812 -0.0336055 62 48 61
0.307801 0.0813937 -0.034033 76 69 75
0.307685 0.0816916 -0.0338552 74 65 70
0.307565 0.0819857 -0.0336843 74 66 69
0.307933 0.0819198 -0.034145 91 80 80
0.3078 0.082207 -0.0339477 88 80 78
0.307671 0.0824944 -0.0337598 81 73 72
0.307867 0.0827212 -0.0340342 92 85 82
0.308035 0.0829453 -0.0343288 109 104 97
0.307999 0.0824421 -0.0342379 99 93 90
0.307134 0.0804616 -0.0334427 63 29 40
0.307072 0.0807664 -0.0332707 61 27 36
0.297804 0.0792031 -0.0325197 70 11 6
0.297586 0.0789875 -0.0322559 69 10 5
0.29759 0.0792642 -0.0320371 66 10 5
0.297371 0.0790519 -0.0317711 64 10 5
0.297365 0.0792995 -0.0315149 57 7 4
0.29718 0.0791008 -0.0312711 58 7 4
0.29716 0.0792198 -0.0310516 54 7 3
0.296906 0.0788933 -0.0308147 55 7 3
0.297133 0.079375 -0.0306602 49 6 4
0.296885 0.0790417 -0.0304293 50 6 5
0.297131 0.0794395 -0.0302289 47 5 5
0.29689 0.0790901 -0.0299518 46 5 5
0.297135 0.079434 -0.0300352 47 5 5
0.297173 0.0793998 -0.0296109 50 6 6
0.297439 0.0797052 -0.0296704 57 6 7
0.297513 0.0795747 -0.0292566 59 8 6
0.297803 0.0798227 -0.0292947 62 8 6
0.297865 0.0796982 -0.0290488 65 8 6
0.298155 0.079923 -0.0290653 67 8 7
0.298266 0.0796908 -0.0286756 70 9 7
0.298576 0.0798722 -0.0287088 73 9 7
0.298648 0.0797274 -0.0285306 72 8 6
0.298974 0.0798639 -0.0285323 75 8 5
0.299098 0.0795444 -0.0282435 74 8 5
0.299443 0.0796299 -0.0282612 72 7 4
0.299555 0.0793451 -0.0280866 68 5 3
0.299791 0.0797039 -0.0283118 67 4 3
0.299897 0.079398 -0.0281416 65 4 2
0.300234 0.0794749 -0.0282015 63 3 1
0.30002 0.0790765 -0.0279472 64 4 2
0.300371 0.0790777 -0.0279995 57 3 1
0.300149 0.078736 -0.027741 65 4 1
0.300505 0.0787262 -0.0277827 60 4 1
0.300307 0.0783103 -0.0275082 65 4 1
0.300656 0.0783402 -0.0275847 61 4 1
0.30044 0.0779455 -0.0273393 62 2 0
0.300858 0.0787558 -0.0278394 58 3 1
0.300718 0.0791496 -0.0280258 58 4 1
0.300574 0.0795367 -0.0282271 61 3 2
0.299311 0.0799822 -0.028566 72 6 5
0.298892 0.0800379 -0.0287263 74 9 6
0.298461 0.0801314 -0.0290973 70 9 7
0.298059 0.0801396 -0.0294381 65 8 7
0.297711 0.0800093 -0.0297333 58 7 7
0.297384 0.0797837 -0.0300971 52 5 6
0.299687 0.0790066 -0.0278674 67 5 3
0.299807 0.0786617 -0.0276369 68 5 2
0.299992 0.0782055 -0.0273904 65 4 1
0.300093 0.0779346 -0.0272428 68 5 2
0.300224 0.0775875 -0.0270677 63 3 1
0.299742 0.0779158 -0.02714 70 6 2
0.29962 0.0782477 -0.0273267 72 7 3
0.299402 0.0778698 -0.0270119 72 7 3
0.299252 0.0782796 -0.0272516 73 7 4
0.299032 0.0779135 -0.0269062 74 8 4
0.298878 0.0782789 -0.0271606 75 8 4
0.298659 0.0779385 -0.0267979 76 9 4
0.298508 0.0782934 -0.0270759 77 9 5
0.299457 0.0786591 -0.0275843 69 6 3
0.299104 0.0786316 -0.0274882 73 8 3
0.298755 0.0785807 -0.0274288 72 8 3
0.29846 0.0784345 -0.0272279 76 9 5
0.29833 0.0787074 -0.0275424 75 8 4
0.299343 0.0789663 -0.027813 67 5 3
0.299031 0.0788113 -0.0276483 71 7 4
0.298896 0.0791528 -0.0279355 73 8 4
0.298674 0.0787651 -0.027585 74 8 4
0.298557 0.0790802 -0.0278835 74 9 6
0.298212 0.079005 -0.0278525 74 9 6
0.297844 0.0789424 -0.0279047 72 9 7
0.297426 0.0789824 -0.0282581 65 7 5
0.297338 0.079135 -0.0286402 63 7 6
0.297019 0.0789228 -0.0286945 61 7 6
0.297302 0.0791764 -0.0287494 63 8 7
0.296959 0.0790213 -0.0291273 58 7 6
0.297241 0.0793155 -0.0291919 59 7 6
0.296907 0.0790709 -0.0295383 50 6 6
0.297562 0.0794967 -0.0290323 61 7 7
0.297962 0.0795254 -0.0286727 68 9 7
0.298385 0.0794613 -0.0283161 73 9 7
0.298768 0.0794575 -0.0282203 74 9 5
0.299252 0.0791988 -0.0279755 71 7 4
0.297643 0.0793414 -0.0286479 68 8 6
0.29806 0.0793225 -0.0282846 72 9 7
0.298431 0.0793596 -0.028181 77 9 7
0.297735 0.0791555 -0.0282687 71 8 6
0.298096 0.079246 -0.0281666 72 9 7
0.296691 0.0787039 -0.0290573 54 7 6
0.296399 0.0784022 -0.0294007 47 5 4
0.296641 0.0787407 -0.0294674 48 6 5
0.29663 0.0787379 -0.0297214 49 6 5
0.296385 0.0783892 -0.029799 47 5 3
0.29639 0.0783737 -0.0299393 49 5 3
0.296648 0.0786993 -0.0301961 50 5 4
0.296389 0.0782682 -0.0303479 55 6 3
0.296647 0.0785771 -0.0305857 55 6 3
0.244349 0.0741003 -0.0241125 0 0 0
0.244032 0.0741648 -0.0238737 0 0 0
0.244325 0.0742144 -0.0238028 0 0 0
0.244074 0.0742842 -0.0235002 0 1 0
0.244432 0.074264 -0.0236135 0 0 0
0.244362 0.0743087 -0.0233607 0 0 0
0.243422 0.0740188 -0.0239273 0 0 0
0.243112 0.0739503 -0.0237934 0 0 0
0.243345 0.0740892 -0.0234926 0 0 0
0.243028 0.0739714 -0.0234635 0 0 0
0.243106 0.0740541 -0.0230833 0 0 0
0.242782 0.0739304 -0.0231144 0 0 0
0.242835 0.0739977 -0.0226793 0 0 0
0.242473 0.0738378 -0.0229754 0 0 0
0.242177 0.0737242 -0.0228663 0 0 0
0.242749 0.0738965 -0.0234464 0 0 0
0.243163 0.0741421 -0.0223334 0 0 0
0.243193 0.0741285 -0.0227087 0 0 0
0.243506 0.0742426 -0.0224456 0 0 0
0.243508 0.0742465 -0.0227803 0 0 0
0.243813 0.0743278 -0.0227595 0 0 0
0.243774 0.0742947 -0.0231421 0 0 0
0.244105 0.0743522 -0.0231099 0 0 0
0.244184 0.0743212 -0.0227371 0 0 0
0.24421 0.074334 -0.0223955 0 0 0
0.243855 0.0743216 -0.0224168 0 0 0
0.243865 0.0743183 -0.0221363 0 0 0
0.243518 0.0742306 -0.022163 0 0 0
0.243441 0.0741763 -0.0231279 0 0 0
0.243704 0.0741786 -0.0235622 0 0 0
0.243755 0.0741034 -0.0239754 0 0 0
0.275204 0.069539 -0.0180341 80 9 6
0.275099 0.069921 -0.0179864 81 9 6
0.275439 0.0700155 -0.0179536 82 8 6
0.274998 0.0703021 -0.0179215 80 8 5
0.275336 0.0703971 -0.0178876 80 8 5
0.274897 0.0706853 -0.0178261 79 9 5
0.275234 0.0707768 -0.0178135 81 9 5
0.274801 0.0710576 -0.017722 81 9 5
0.275139 0.0711527 -0.0177164 81 10 5
0.27504 0.0715552 -0.017589 83 9 5
0.275576 0.0708667 -0.0177846 82 9 6
0.275673 0.0704893 -0.0178531 82 8 6
0.258079 0.0695359 -0.0174023 65 6 3
0.257967 0.0699419 -0.0172267 63 6 3
0.257875 0.07031 -0.0170368 64 6 3
0.257799 0.0706622 -0.0168169 64 6 3
0.25772 0.0709594 -0.0165292 65 7 4
0.257227 0.0713227 -0.0163782 64 7 4
0.256805 0.0715874 -0.0162083 66 7 4
0.256437 0.0717769 -0.0159155 64 7 5
0.256069 0.0718939 -0.0157241 63 7 5
0.255679 0.0719926 -0.015723 60 5 4
0.255758 0.0719231 -0.0153171 57 6 5
0.255367 0.0720131 -0.0153226 56 6 4
0.255451 0.0718867 -0.0149081 55 5 4
0.255074 0.0719514 -0.0149072 54 6 5
0.255169 0.0717897 -0.014473 55 6 5
0.254792 0.0718369 -0.0144536 54 5 5
0.25485 0.0717231 -0.0142179 54 6 5
0.255214 0.0716924 -0.014277 53 5 5
0.255537 0.0717366 -0.0144994 54 6 5
0.255842 0.0718151 -0.0149203 57 5 4
0.256141 0.0718329 -0.0153073 57 5 4
0.256462 0.0717789 -0.0157262 62 7 5
0.256852 0.0716487 -0.0157786 62 7 5
0.257241 0.0714428 -0.0160016 63 7 4
0.257667 0.0711652 -0.0161987 67 8 5
0.258138 0.0708093 -0.016369 65 6 3
0.258199 0.0705314 -0.0166529 66 6 3
0.258279 0.0701963 -0.0168729 63 6 2
0.258374 0.069832 -0.0170843 65 5 3
0.258478 0.0694423 -0.0172748 66 6 3
0.258768 0.0697581 -0.0169607 65 6 3
0.259079 0.07003 -0.0166236 64 5 2
0.259405 0.0702086 -0.0162038 66 6 3
0.259364 0.0704163 -0.0158868 67 7 2
0.259779 0.0702839 -0.0157029 67 7 3
0.25933 0.070563 -0.0155289 67 8 4
0.259763 0.070405 -0.0153468 68 7 5
0.259355 0.0706522 -0.0151341 67 7 5
0.259805 0.0704619 -0.0149352 68 8 5
0.259429 0.070664 -0.0146627 65 7 5
0.259858 0.0704728 -0.0144586 67 8 5
0.259457 0.0706523 -0.0144762 65 8 5
0.260278 0.0703156 -0.0144492 67 8 5
0.260251 0.0702932 -0.0147131 68 9 5
0.260691 0.0701436 -0.014501 68 8 5
0.260661 0.0700696 -0.0149356 68 8 5
0.261084 0.0699266 -0.0147825 68 7 4
0.261076 0.069802 -0.0151613 68 8 3
0.261498 0.0696998 -0.015018 70 7 3
0.260642 0.0699442 -0.0153308 68 8 4
0.260219 0.0702331 -0.0151167 68 8 5
0.260212 0.0701299 -0.015541 66 7 3
0.261116 0.0700016 -0.0143369 68 8 5
0.261498 0.0698286 -0.014631 69 7 4
0.261897 0.0696123 -0.0148852 71 7 4
0.261507 0.0698708 -0.0144486 70 7 4
0.261904 0.0697327 -0.014509 70 7 4
0.262309 0.0696764 -0.0143989 69 7 3
0.262293 0.0695561 -0.0148121 69 6 2
0.262688 0.0695257 -0.0147184 71 7 2
0.262702 0.0696374 -0.0143208 70 6 3
0.263074 0.0694946 -0.0146605 71 7 2
0.263086 0.0696205 -0.0142607 70 8 3
0.263448 0.0694909 -0.0146088 72 7 2
0.258685 0.0701179 -0.0167376 65 6 2
0.259004 0.0703123 -0.0163335 68 7 3
0.258945 0.0705522 -0.0160369 67 7 4
0.258916 0.0707199 -0.0157025 68 8 4
0.258935 0.0708208 -0.0152911 66 7 5
0.258983 0.0708473 -0.0148795 65 7 5
0.259054 0.07081 -0.0144866 61 6 5
0.258657 0.0709411 -0.014492 62 6 5
0.258257 0.0710794 -0.0144991 60 6 5
0.257855 0.0711933 -0.0145007 56 5 5
0.257473 0.0713033 -0.0144896 59 6 5
0.257074 0.0714178 -0.0145133 57 5 5
0.256685 0.0715211 -0.0145066 55 6 5
0.256313 0.0716085 -0.0145036 54 5 4
0.255962 0.0716282 -0.0143756 53 5 5
0.255929 0.0716747 -0.0144977 53 5 5
0.255578 0.0716674 -0.0143284 52 6 5
0.256218 0.071741 -0.0149287 56 5 4
0.256528 0.071736 -0.015325 60 6 5
0.256596 0.0716365 -0.0149192 55 5 4
0.256931 0.0716176 -0.0153207 63 7 4
0.257274 0.0714967 -0.0156317 64 8 5
0.257662 0.0712839 -0.0158358 65 8 5
0.258082 0.0710298 -0.0160069 66 7 4
0.258551 0.0706768 -0.0161832 67 7 4
0.258617 0.0704329 -0.0164867 66 6 3
0.258486 0.0708802 -0.0158385 68 8 5
0.258502 0.0709915 -0.0154633 67 8 5
0.258523 0.0710078 -0.0152841 66 7 4
0.258587 0.071004 -0.0148957 65 7 5
0.25818 0.0711442 -0.0149001 64 7 5
0.25808 0.0711496 -0.0156634 65 7 4
0.258129 0.0711741 -0.0152842 63 6 5
0.257676 0.0713155 -0.0157035 65 8 6
0.257716 0.071324 -0.0153062 61 7 5
0.257319 0.0714807 -0.0152941 61 6 5
0.256993 0.0715224 -0.0149033 57 6 5
0.257393 0.0714108 -0.014907 59 6 5
0.25779 0.0712803 -0.0149023 62 6 5
0.301615 0.0751436 -0.0264865 51 3 0
0.30149 0.0756542 -0.0265994 50 4 0
0.301376 0.0760803 -0.0267256 52 4 0
0.301272 0.0764536 -0.0268422 54 3 0
0.301129 0.0768681 -0.0269649 57 3 0
0.301338 0.0772581 -0.0272106 57 4 0
0.301009 0.0772391 -0.0271167 59 3 0
0.301214 0.077634 -0.0273446 55 2 0
0.300815 0.0768743 -0.0268604 60 3 0
0.301584 0.0776132 -0.0274324 55 3 0
0.301469 0.0779736 -0.0275457 55 3 0
0.301663 0.078492 -0.0277964 54 4 0
0.301888 0.0789163 -0.0280233 52 3 0
0.302096 0.0793682 -0.0282335 52 3 0
0.302317 0.0798182 -0.0284555 50 1 0
0.302662 0.0798816 -0.0285542 50 2 0
0.302506 0.0804133 -0.0287098 50 0 0
0.30285 0.0804431 -0.0288021 48 0 0
0.302755 0.0807945 -0.0289311 50 0 0
0.303206 0.0804938 -0.0289232 49 0 0
0.303107 0.0808708 -0.0290594 48 0 0
0.303552 0.0805129 -0.0290812 49 0 0
0.303435 0.0809302 -0.029221 48 0 0
0.303777 0.0809295 -0.0294048 51 0 0
0.303681 0.0812985 -0.0295276 49 0 0
0.304122 0.080967 -0.0296392 51 1 0
0.304036 0.081308 -0.0297441 51 2 0
0.304353 0.0813 -0.0299913 53 1 0
0.304254 0.0816483 -0.0300785 50 2 1
0.304591 0.0816394 -0.0303723 51 4 1
0.304139 0.0820449 -0.0302552 54 4 2
0.30448 0.0820403 -0.0305042 53 6 3
0.304349 0.0824017 -0.0306719 55 9 5
0.304697 0.0823611 -0.0309214 55 9 6
0.304234 0.0827386 -0.0308872 64 16 11
0.304569 0.0827199 -0.0311383 64 16 11
0.304105 0.0830525 -0.0311129 69 20 15
0.304454 0.0830455 -0.0313637 67 19 12
0.30376 0.0830522 -0.0308849 72 20 14
0.30389 0.0827419 -0.0306557 67 16 11
0.304 0.0824129 -0.03045 59 9 5
0.303798 0.0820466 -0.0300427 54 5 3
0.303917 0.0816397 -0.0298546 51 1 1
0.30342 0.0830359 -0.0306763 70 16 11
0.303542 0.0827224 -0.0304758 66 13 9
0.303657 0.082394 -0.0302536 59 7 4
0.303443 0.0820288 -0.0298599 55 5 3
0.303585 0.081612 -0.0296578 51 1 0
0.30336 0.0812631 -0.0293498 50 0 0
0.303307 0.0823778 -0.0300573 61 6 3
0.30319 0.0827053 -0.0302836 65 10 7
0.303065 0.0830194 -0.0305221 70 14 9
0.303004 0.0799238 -0.0286769 50 2 0
0.303267 0.0802012 -0.028853 49 1 0
0.303593 0.0803573 -0.0290282 48 1 0
0.3039 0.0805064 -0.0292691 49 0 0
0.304194 0.0805677 -0.0295284 50 1 0
0.30446 0.0809171 -0.0298927 50 2 0
0.304699 0.0812468 -0.0302808 51 3 0
0.304916 0.0815896 -0.0306487 50 3 1
0.304816 0.0819975 -0.0307645 51 6 2
0.305165 0.0819225 -0.0310294 51 6 2
0.305034 0.0823516 -0.0312144 51 8 6
0.305355 0.0822868 -0.0314831 51 7 6
0.305249 0.08269 -0.0316571 52 11 10
0.305593 0.0826399 -0.0319195 52 14 17
0.305515 0.0829814 -0.0319635 55 16 16
0.305868 0.0829007 -0.0321547 50 19 23
0.305728 0.0833269 -0.0321318 57 26 31
0.306076 0.0833703 -0.0322953 51 25 33
0.30562 0.083705 -0.0321455 60 34 36
0.305942 0.0838379 -0.0322869 58 38 41
0.305296 0.0836463 -0.0320258 66 31 28
0.305422 0.0832585 -0.0319839 60 21 19
