ply
format ascii 1.0
element vertex 1730
property float x
property float y
property float z
end_header
0.259718 0.148216 0.0657305
0.260253 0.148008 0.0659875
0.260771 0.14784 0.0661249
0.261288 0.147672 0.0662622
0.261806 0.147504 0.0663997
0.262323 0.147335 0.066537
0.262823 0.147207 0.0665547
0.26334 0.147039 0.0666922
0.26384 0.146911 0.0667099
0.264339 0.146783 0.0667276
0.264839 0.146655 0.0667453
0.26532 0.146567 0.0666434
0.26582 0.146438 0.0666611
0.266283 0.14639 0.0664397
0.266765 0.146302 0.0663378
0.267246 0.146214 0.0662359
0.26771 0.146166 0.0660144
0.268191 0.146077 0.0659125
0.268655 0.146029 0.065691
0.2691 0.146021 0.0653499
0.269564 0.145973 0.0651283
0.269991 0.146004 0.0646676
0.270455 0.145956 0.064446
0.2709 0.145948 0.0641048
0.271328 0.14598 0.0636441
0.271774 0.145971 0.063303
0.272219 0.145963 0.0629618
0.272665 0.145955 0.0626207
0.27311 0.145947 0.0622795
0.273556 0.145938 0.0619383
0.274019 0.14589 0.0617168
0.274483 0.145842 0.0614953
0.274946 0.145794 0.0612738
0.275428 0.145705 0.0611719
0.275927 0.145577 0.0611897
0.276427 0.145449 0.0612074
0.276944 0.145281 0.0613448
0.277444 0.145153 0.0613625
0.278069 0.144745 0.0622176
0.278694 0.144337 0.0630727
0.279302 0.143969 0.0638082
0.279855 0.143721 0.0641849
0.280517 0.143233 0.0652792
0.281124 0.142865 0.0660147
0.281696 0.142577 0.066511
0.282357 0.14209 0.0676055
0.282947 0.141762 0.0682213
0.283536 0.141434 0.0688372
0.284139 0.141076 0.0695396
0.284773 0.140646 0.0704548
0.285407 0.140216 0.0713699
0.285973 0.139938 0.071833
0.286522 0.139697 0.0721831
0.287055 0.139495 0.0724203
0.28757 0.139331 0.0725444
0.288103 0.139129 0.0727815
0.288635 0.138927 0.0730187
0.289167 0.138725 0.0732558
0.289666 0.138599 0.0732669
0.290181 0.138434 0.073391
0.290663 0.138346 0.0732891
0.291144 0.138258 0.0731872
0.291592 0.138246 0.0728593
0.292056 0.138196 0.0726444
0.292555 0.138069 0.0726556
0.29307 0.137905 0.0727796
0.293585 0.137741 0.0729038
0.294101 0.137577 0.0730279
0.294616 0.137413 0.0731521
0.295132 0.137249 0.0732761
0.29563 0.137122 0.0732873
0.296129 0.136996 0.0732984
0.296644 0.136832 0.0734225
0.297143 0.136706 0.0734336
0.297641 0.13658 0.0734447
0.298139 0.136454 0.0734559
0.298621 0.136365 0.073354
0.299119 0.136239 0.073365
0.299601 0.136151 0.0732632
0.300099 0.136025 0.0732743
0.300598 0.135899 0.0732854
0.301096 0.135773 0.0732966
0.301578 0.135684 0.0731947
0.302076 0.135558 0.0732057
0.302575 0.135432 0.0732169
0.303056 0.135344 0.073115
0.303555 0.135218 0.0731261
0.304036 0.13513 0.0730242
0.304518 0.135041 0.0729223
0.304982 0.134991 0.0727074
0.305464 0.134903 0.0726055
0.305911 0.134891 0.0722777
0.306393 0.134803 0.0721757
0.306857 0.134752 0.0719608
0.307322 0.134702 0.071746
0.307803 0.134614 0.071644
0.308285 0.134526 0.0715421
0.308766 0.134438 0.0714403
0.309231 0.134387 0.0712253
0.309695 0.134337 0.0710105
0.310177 0.134249 0.0709087
0.310642 0.134199 0.0706937
0.311106 0.134149 0.0704788
0.311554 0.134136 0.0701509
0.312018 0.134086 0.069936
0.3125 0.133998 0.0698342
0.312964 0.133948 0.0696192
0.313429 0.133898 0.0694043
0.313893 0.133847 0.0691895
0.314358 0.133797 0.0689746
0.314805 0.133785 0.0686466
0.315253 0.133773 0.0683188
0.315701 0.133761 0.0679908
0.316165 0.13371 0.067776
0.316613 0.133698 0.0674481
0.317077 0.133648 0.0672331
0.317542 0.133598 0.0670182
0.317989 0.133585 0.0666904
0.318454 0.133535 0.0664755
0.318902 0.133523 0.0661476
0.319315 0.133587 0.0655937
0.319746 0.133613 0.0651527
0.32016 0.133676 0.0645988
0.32059 0.133702 0.064158
0.321021 0.133728 0.0637171
0.321468 0.133716 0.0633891
0.321899 0.133741 0.0629482
0.322347 0.133729 0.0626203
0.32276 0.133793 0.0620664
0.323208 0.133781 0.0617386
0.323638 0.133806 0.0612977
0.324069 0.133832 0.0608568
0.324482 0.133898 0.0602962
0.324891 0.13397 0.0597158
0.325283 0.134081 0.0590157
0.325692 0.134153 0.0584354
0.32612 0.134185 0.0579746
0.326565 0.134176 0.0576335
0.326993 0.134208 0.0571727
0.327438 0.1342 0.0568315
0.327884 0.134192 0.0564904
0.328329 0.134183 0.0561493
0.328775 0.134175 0.0558081
0.329238 0.134127 0.0555865
0.329684 0.134119 0.0552455
0.330129 0.13411 0.0549044
0.330575 0.134102 0.0545631
0.331002 0.134134 0.0541024
0.331448 0.134125 0.0537613
0.331875 0.134157 0.0533004
0.332303 0.134189 0.0528397
0.332731 0.134221 0.0523789
0.333158 0.134252 0.0519182
0.333585 0.134284 0.0514573
0.334031 0.134276 0.0511162
0.334476 0.134267 0.050775
0.334904 0.134299 0.0503143
0.335367 0.134251 0.0500928
0.335813 0.134243 0.0497517
0.336259 0.134234 0.0494105
0.336686 0.134266 0.0489497
0.337114 0.134298 0.0484889
0.337523 0.134369 0.0479086
0.337915 0.134481 0.0472085
0.338306 0.134593 0.0465085
0.338698 0.134704 0.0458084
0.339089 0.134816 0.0451084
0.339481 0.134928 0.0444084
0.3398 0.135199 0.0432298
0.340228 0.135231 0.0427691
0.340619 0.135342 0.042069
0.340741 0.136053 0.0395746
0.341096 0.136245 0.0386353
0.34147 0.136397 0.0378157
0.341879 0.136468 0.0372352
0.342325 0.13646 0.0368941
0.342788 0.136412 0.0366726
0.343252 0.136363 0.0364511
0.343751 0.136235 0.0364688
0.344233 0.136147 0.0363669
0.344768 0.135939 0.0366239
0.345268 0.135811 0.0366417
0.345767 0.135683 0.0366594
0.346267 0.135555 0.0366771
0.346784 0.135387 0.0368145
0.347266 0.135298 0.0367126
0.347765 0.13517 0.0367303
0.348247 0.135082 0.0366284
0.348728 0.134994 0.0365265
0.34921 0.134906 0.0364247
0.349691 0.134817 0.0363228
0.350173 0.134729 0.0362209
0.350619 0.134721 0.0358798
0.351082 0.134673 0.0356582
0.351545 0.134625 0.0354367
0.352027 0.134536 0.0353349
0.352473 0.134528 0.0349936
0.352918 0.13452 0.0346525
0.353364 0.134512 0.0343114
0.353827 0.134463 0.0340899
0.354255 0.134495 0.0336291
0.354664 0.134567 0.0330487
0.35511 0.134558 0.0327075
0.355537 0.13459 0.0322468
0.355911 0.134742 0.0314271
0.35632 0.134813 0.0308467
0.35673 0.134885 0.0302664
0.357085 0.135077 0.029327
0.357441 0.135268 0.0283877
0.35776 0.13554 0.0272092
0.358116 0.135731 0.0262699
0.358309 0.136282 0.0242539
0.358629 0.136554 0.0230754
0.23007 0.160625 0.0510623
0.230714 0.160176 0.052037
0.231231 0.160008 0.0521744
0.231911 0.15948 0.0533883
0.232446 0.159272 0.0536453
0.233 0.159024 0.054022
0.233607 0.158655 0.0547574
0.234196 0.158327 0.0553732
0.23475 0.158079 0.0557498
0.235393 0.157631 0.0567246
0.235929 0.157422 0.0569816
0.236464 0.157214 0.0572385
0.237054 0.156886 0.0578544
0.237715 0.156398 0.0589488
0.238196 0.15631 0.0588469
0.238858 0.155821 0.0599412
0.239447 0.155493 0.060557
0.239929 0.155405 0.0604551
0.240554 0.154997 0.0613103
0.24109 0.154789 0.0615672
0.241643 0.15454 0.0619439
0.242161 0.154372 0.0620812
0.242714 0.154124 0.0624578
0.243195 0.154036 0.0623559
0.243731 0.153828 0.0626129
0.244248 0.153659 0.0627503
0.244766 0.153491 0.0628876
0.245301 0.153283 0.0631446
0.245819 0.153115 0.063282
0.246318 0.152987 0.0632997
0.246836 0.152818 0.063437
0.247335 0.15269 0.0634549
0.247853 0.152522 0.0635922
0.248334 0.152434 0.0634903
0.248852 0.152266 0.0636277
0.249351 0.152138 0.0636454
0.249869 0.151969 0.0637828
0.250386 0.151801 0.0639201
0.250904 0.151633 0.0640575
0.251385 0.151545 0.0639556
0.251885 0.151417 0.0639733
0.252348 0.151368 0.0637518
0.252848 0.15124 0.0637696
0.253347 0.151112 0.0637873
0.253847 0.150984 0.063805
0.254364 0.150816 0.0639423
0.254882 0.150647 0.0640797
0.255417 0.150439 0.0643366
0.255952 0.150231 0.0645937
0.256488 0.150023 0.0648507
0.257005 0.149855 0.0649881
0.257523 0.149686 0.0651254
0.258058 0.149478 0.0653824
0.258594 0.14927 0.0656393
0.259129 0.149062 0.0658964
0.259647 0.148894 0.0660336
0.260182 0.148685 0.0662906
0.2607 0.148517 0.0664281
0.261217 0.148349 0.0665654
0.261735 0.148181 0.0667028
0.262252 0.148013 0.0668401
0.262752 0.147884 0.0668579
0.263269 0.147716 0.0669952
0.263768 0.147588 0.0670129
0.264268 0.14746 0.0670307
0.264767 0.147332 0.0670484
0.265249 0.147243 0.0669465
0.265748 0.147115 0.0669642
0.26623 0.147027 0.0668623
0.266711 0.146939 0.0667604
0.267175 0.146891 0.0665389
0.267656 0.146803 0.0664371
0.26812 0.146754 0.0662156
0.268584 0.146706 0.065994
0.269047 0.146658 0.0657725
0.26951 0.14661 0.065551
0.269956 0.146602 0.0652098
0.270402 0.146593 0.0648687
0.270865 0.146545 0.0646472
0.271311 0.146537 0.0643061
0.271738 0.146569 0.0638453
0.272184 0.146561 0.0635041
0.272629 0.146553 0.063163
0.273075 0.146544 0.0628219
0.27352 0.146536 0.0624808
0.273984 0.146488 0.0622593
0.274447 0.14644 0.0620377
0.274911 0.146392 0.0618162
0.275374 0.146344 0.0615947
0.275874 0.146215 0.0616125
0.276373 0.146087 0.0616302
0.276873 0.145959 0.061648
0.27739 0.145791 0.0617853
0.277962 0.145503 0.0622814
0.278587 0.145094 0.0631366
0.279213 0.144686 0.0639917
0.27982 0.144318 0.0647272
0.280481 0.14383 0.0658216
0.281035 0.143581 0.0661982
0.281696 0.143093 0.0672925
0.282285 0.142765 0.0679083
0.282893 0.142397 0.0686438
0.2835 0.142029 0.0693793
0.2841 0.141674 0.0700682
0.284717 0.141281 0.0708701
0.285368 0.140813 0.0718978
0.285917 0.140572 0.0722478
0.286467 0.140332 0.0725979
0.286999 0.140129 0.0728348
0.287531 0.139927 0.0730719
0.288047 0.139763 0.073196
0.288579 0.13956 0.073433
0.289111 0.139358 0.07367
0.289627 0.139194 0.073794
0.290125 0.139068 0.0738051
0.29064 0.138903 0.0739291
0.291122 0.138815 0.0738272
0.291586 0.138765 0.0736125
0.292017 0.138791 0.0731716
0.292482 0.138741 0.0729568
0.29298 0.138615 0.0729679
0.293479 0.138488 0.0729789
0.293994 0.138324 0.073103
0.294509 0.13816 0.073227
0.295025 0.137995 0.073351
0.29554 0.137831 0.0734751
0.296039 0.137705 0.0734862
0.296554 0.137541 0.0736103
0.297052 0.137414 0.0736213
0.297551 0.137288 0.0736324
0.298049 0.137162 0.0736435
0.298548 0.137036 0.0736546
0.299029 0.136947 0.0735527
0.299528 0.136821 0.0735637
0.300026 0.136695 0.0735748
0.300524 0.136569 0.0735859
0.301006 0.136481 0.073484
0.301504 0.136354 0.0734951
0.301986 0.136266 0.0733932
0.302484 0.13614 0.0734043
0.302983 0.136014 0.0734154
0.303464 0.135925 0.0733135
0.303946 0.135837 0.0732116
0.304427 0.135749 0.0731097
0.304909 0.135661 0.0730078
0.30539 0.135573 0.0729059
0.305855 0.135523 0.0726911
0.306319 0.135472 0.0724762
0.306784 0.135422 0.0722613
0.307249 0.135372 0.0720465
0.307713 0.135322 0.0718316
0.308178 0.135272 0.0716168
0.308659 0.135184 0.0715149
0.309141 0.135095 0.071413
0.309622 0.135007 0.0713111
0.310087 0.134957 0.0710962
0.310551 0.134907 0.0708813
0.311016 0.134857 0.0706666
0.31148 0.134807 0.0704516
0.311945 0.134757 0.0702368
0.312427 0.134669 0.0701349
0.312891 0.134618 0.06992
0.313373 0.13453 0.0698181
0.313837 0.13448 0.0696034
0.314302 0.13443 0.0693884
0.314749 0.134418 0.0690607
0.315214 0.134368 0.0688457
0.315661 0.134356 0.068518
0.316126 0.134305 0.0683031
0.316591 0.134255 0.0680882
0.317038 0.134243 0.0677604
0.317503 0.134193 0.0675455
0.31795 0.134181 0.0672177
0.318398 0.134169 0.0668899
0.318846 0.134157 0.0665621
0.319293 0.134145 0.0662342
0.319707 0.134209 0.0656805
0.320138 0.134235 0.0652397
0.320568 0.134261 0.0647989
0.320999 0.134287 0.064358
0.321447 0.134275 0.0640302
0.321877 0.134301 0.0635894
0.322325 0.134289 0.0632615
0.322756 0.134315 0.0628208
0.323186 0.134341 0.06238
0.323634 0.134329 0.0620522
0.324048 0.134393 0.0614984
0.324496 0.134381 0.0611706
0.324891 0.134485 0.0604972
0.325319 0.134516 0.0600364
0.325692 0.134668 0.0592168
0.326084 0.13478 0.0585168
0.32653 0.134772 0.0581756
0.326939 0.134844 0.0575952
0.327367 0.134876 0.0571345
0.327812 0.134867 0.0567934
0.328258 0.134859 0.0564522
0.328703 0.134851 0.0561111
0.329167 0.134803 0.0558895
0.329612 0.134795 0.0555484
0.330058 0.134786 0.0552073
0.330503 0.134778 0.0548662
0.330949 0.13477 0.054525
0.331376 0.134802 0.0540643
0.331822 0.134794 0.0537232
0.332249 0.134826 0.0532624
0.332695 0.134817 0.0529212
0.333122 0.134849 0.0524605
0.33355 0.134881 0.0519997
0.333978 0.134913 0.0515389
0.334423 0.134905 0.0511978
0.334851 0.134937 0.0507371
0.335314 0.134888 0.0505155
0.335742 0.13492 0.0500547
0.336187 0.134912 0.0497136
0.336633 0.134904 0.0493725
0.33706 0.134936 0.0489118
0.337488 0.134968 0.048451
0.337897 0.135039 0.0478706
0.338289 0.135151 0.0471705
0.338681 0.135263 0.0464706
0.339072 0.135375 0.0457706
0.339446 0.135527 0.0449509
0.339837 0.135639 0.0442509
0.340229 0.13575 0.0435509
0.340602 0.135902 0.0427312
0.340994 0.136014 0.0420312
0.341116 0.136726 0.0395368
0.341453 0.136958 0.038478
0.341827 0.13711 0.0376584
0.342236 0.137181 0.0370779
0.342682 0.137173 0.0367368
0.343145 0.137125 0.0365154
0.343609 0.137077 0.0362938
0.344109 0.136949 0.0363116
0.344608 0.136821 0.0363293
0.345107 0.136692 0.036347
0.345625 0.136524 0.0364844
0.346124 0.136396 0.0365021
0.346624 0.136268 0.0365198
0.347123 0.13614 0.0365376
0.347623 0.136011 0.0365553
0.348104 0.135923 0.0364534
0.348604 0.135795 0.0364712
0.349085 0.135707 0.0363693
0.349567 0.135619 0.0362674
0.350048 0.13553 0.0361655
0.350512 0.135482 0.035944
0.350975 0.135434 0.0357225
0.351439 0.135386 0.0355009
0.35192 0.135298 0.035399
0.352366 0.13529 0.0350579
0.352829 0.135241 0.0348364
0.353257 0.135273 0.0343757
0.353721 0.135225 0.0341541
0.354166 0.135217 0.033813
0.354612 0.135209 0.0334718
0.355039 0.13524 0.033011
0.355449 0.135312 0.0324307
0.355858 0.135384 0.0318503
0.356268 0.135456 0.0312699
0.356659 0.135568 0.03057
0.357033 0.13572 0.0297503
0.357406 0.135871 0.0289306
0.357726 0.136143 0.0277522
0.358118 0.136255 0.0270522
0.358383 0.136647 0.0255147
0.358685 0.136959 0.0242166
0.35904 0.137151 0.0232773
0.229519 0.161398 0.051468
0.23009 0.161109 0.0519642
0.230698 0.160741 0.0526997
0.231269 0.160452 0.0531958
0.231895 0.160044 0.0540509
0.232466 0.159755 0.0545472
0.233055 0.159427 0.0551629
0.233663 0.159058 0.0558984
0.234252 0.15873 0.0565142
0.234787 0.158522 0.0567712
0.235467 0.157993 0.0579852
0.236002 0.157785 0.0582421
0.236592 0.157456 0.0588579
0.237325 0.156807 0.0604308
0.237878 0.156559 0.0608073
0.238432 0.15631 0.0611839
0.238985 0.156062 0.0615605
0.239538 0.155814 0.0619371
0.24011 0.155525 0.0624333
0.240645 0.155317 0.0626902
0.241199 0.155069 0.0630669
0.241734 0.15486 0.0633238
0.242233 0.154732 0.0633416
0.242787 0.154484 0.0637181
0.243304 0.154315 0.0638555
0.243822 0.154147 0.0639929
0.244321 0.154019 0.0640106
0.244857 0.153811 0.0642676
0.245374 0.153642 0.0644049
0.245874 0.153514 0.0644227
0.246355 0.153426 0.0643208
0.246873 0.153258 0.0644581
0.24739 0.153089 0.0645955
0.247908 0.152921 0.0647328
0.248407 0.152793 0.0647505
0.248907 0.152665 0.0647683
0.249406 0.152536 0.064786
0.249923 0.152368 0.0649233
0.250441 0.1522 0.0650607
0.25094 0.152072 0.0650784
0.25144 0.151943 0.0650962
0.251921 0.151855 0.0649943
0.252403 0.151767 0.0648924
0.252884 0.151679 0.0647906
0.253348 0.151631 0.064569
0.253865 0.151462 0.0647063
0.254347 0.151374 0.0646045
0.254864 0.151206 0.0647418
0.2554 0.150998 0.0649988
0.255935 0.150789 0.0652557
0.256471 0.150581 0.0655127
0.256988 0.150413 0.06565
0.257506 0.150244 0.0657874
0.258023 0.150076 0.0659248
0.258558 0.149868 0.0661817
0.259076 0.149699 0.0663191
0.259593 0.149531 0.0664564
0.260129 0.149323 0.0667135
0.260628 0.149195 0.0667312
0.261146 0.149026 0.0668685
0.261663 0.148858 0.0670059
0.262163 0.14873 0.0670235
0.262698 0.148522 0.0672805
0.263197 0.148393 0.0672983
0.263697 0.148265 0.067316
0.264197 0.148137 0.0673337
0.264696 0.148009 0.0673515
0.265195 0.14788 0.0673692
0.265677 0.147792 0.0672673
0.266158 0.147704 0.0671654
0.26664 0.147616 0.0670635
0.267121 0.147528 0.0669616
0.267603 0.14744 0.0668597
0.268066 0.147391 0.0666383
0.26853 0.147343 0.0664167
0.268994 0.147295 0.0661952
0.269457 0.147247 0.0659737
0.269921 0.147199 0.0657522
0.270384 0.147151 0.0655307
0.270848 0.147103 0.0653092
0.271293 0.147094 0.0649681
0.271739 0.147086 0.0646269
0.272166 0.147118 0.0641662
0.272612 0.14711 0.0638251
0.273039 0.147142 0.0633643
0.273503 0.147094 0.0631428
0.273948 0.147086 0.0628016
0.274394 0.147078 0.0624605
0.274875 0.146989 0.0623587
0.275339 0.146941 0.0621371
0.27582 0.146853 0.0620352
0.27632 0.146725 0.062053
0.276819 0.146597 0.0620707
0.277301 0.146509 0.0619688
0.277836 0.1463 0.0622258
0.278534 0.145731 0.0635593
0.279141 0.145363 0.0642948
0.279766 0.144954 0.0651499
0.280428 0.144466 0.0662442
0.280981 0.144217 0.0666207
0.28166 0.143689 0.0678347
0.282196 0.14348 0.0680917
0.282839 0.143032 0.0690664
0.283462 0.142627 0.069908
0.284011 0.142386 0.0702579
0.284662 0.141917 0.0712853
0.285296 0.141486 0.0721999
0.285862 0.141207 0.0726626
0.286411 0.140966 0.0730125
0.28696 0.140725 0.0733624
0.287476 0.140561 0.0734863
0.288008 0.140358 0.0737232
0.288523 0.140194 0.0738472
0.289055 0.139991 0.0740841
0.289571 0.139827 0.0742081
0.290086 0.139662 0.0743321
0.290584 0.139536 0.0743431
0.291083 0.13941 0.0743542
0.291564 0.139322 0.0742524
0.291995 0.139348 0.0738117
0.292443 0.139336 0.0734838
0.292907 0.139286 0.073269
0.293406 0.13916 0.0732801
0.293921 0.138995 0.0734041
0.294436 0.138831 0.073528
0.294952 0.138666 0.073652
0.295467 0.138502 0.0737761
0.295965 0.138376 0.073787
0.296464 0.138249 0.0737981
0.296962 0.138123 0.0738091
0.297461 0.137996 0.0738202
0.297959 0.13787 0.0738312
0.298474 0.137706 0.0739552
0.298956 0.137618 0.0738533
0.299454 0.137491 0.0738643
0.299953 0.137365 0.0738754
0.300434 0.137277 0.0737735
0.300933 0.13715 0.0737846
0.301431 0.137024 0.0737956
0.301913 0.136936 0.0736938
0.302411 0.13681 0.0737047
0.302909 0.136683 0.0737159
0.303391 0.136595 0.0736139
0.303872 0.136507 0.073512
0.304354 0.136419 0.0734102
0.304835 0.136331 0.0733082
0.305317 0.136242 0.0732064
0.305782 0.136192 0.0729915
0.306246 0.136142 0.0727767
0.306711 0.136092 0.0725619
0.307175 0.136042 0.0723471
0.30764 0.135992 0.0721322
0.308104 0.135942 0.0719174
0.308586 0.135854 0.0718155
0.309067 0.135766 0.0717136
0.309532 0.135716 0.0714988
0.310014 0.135627 0.0713969
0.310478 0.135577 0.0711821
0.310943 0.135527 0.0709673
0.311424 0.135439 0.0708653
0.311889 0.135389 0.0706506
0.312353 0.135339 0.0704357
0.312835 0.135251 0.0703338
0.313316 0.135163 0.070232
0.313781 0.135113 0.0700171
0.314262 0.135024 0.0699152
0.31471 0.135012 0.0695875
0.315175 0.134962 0.0693726
0.315639 0.134912 0.0691579
0.316087 0.1349 0.0688301
0.316552 0.13485 0.0686153
0.316999 0.134838 0.0682875
0.317447 0.134826 0.0679597
0.317894 0.134815 0.067632
0.318359 0.134764 0.0674171
0.31879 0.134791 0.0669764
0.319221 0.134817 0.0665357
0.319668 0.134805 0.066208
0.320099 0.134831 0.0657673
0.320547 0.134819 0.0654396
0.320994 0.134807 0.0651117
0.321408 0.134872 0.0645582
0.321856 0.13486 0.0642304
0.322304 0.134848 0.0639027
0.322751 0.134836 0.0635749
0.323182 0.134862 0.0631342
0.323596 0.134926 0.0625806
0.324027 0.134953 0.0621399
0.324457 0.134979 0.0616992
0.324905 0.134967 0.0613714
0.325336 0.134993 0.0609307
0.325746 0.135063 0.060357
0.326102 0.135255 0.0594178
0.326494 0.135367 0.0587178
0.326921 0.135399 0.0582571
0.327331 0.135471 0.0576767
0.327758 0.135503 0.0572159
0.328204 0.135495 0.0568748
0.328632 0.135527 0.0564141
0.329095 0.135479 0.0561926
0.329541 0.135471 0.0558514
0.329986 0.135463 0.0555103
0.330432 0.135455 0.0551692
0.330859 0.135487 0.0547084
0.331305 0.135479 0.0543672
0.33175 0.13547 0.0540262
0.332196 0.135462 0.0536851
0.332641 0.135454 0.0533439
0.333069 0.135486 0.0528832
0.333514 0.135478 0.052542
0.333942 0.13551 0.0520813
0.33437 0.135542 0.0516206
0.334815 0.135534 0.0512794
0.335243 0.135566 0.0508187
0.335688 0.135558 0.0504775
0.336116 0.13559 0.0500168
0.336579 0.135542 0.0497953
0.337007 0.135574 0.0493345
0.337435 0.135605 0.0488738
0.337862 0.135637 0.048413
0.338272 0.135709 0.0478326
0.338627 0.135902 0.0468934
0.339037 0.135974 0.046313
0.339446 0.136046 0.0457326
0.339838 0.136158 0.0450327
0.340212 0.13631 0.0442131
0.340603 0.136422 0.0435131
0.340959 0.136614 0.0425738
0.341081 0.137327 0.0400796
0.341455 0.137479 0.03926
0.341828 0.137631 0.0384403
0.342202 0.137783 0.0376207
0.342611 0.137855 0.0370403
0.343039 0.137887 0.0365796
0.343503 0.137839 0.0363581
0.343948 0.137831 0.0360169
0.34443 0.137742 0.035915
0.344929 0.137614 0.0359328
0.345446 0.137446 0.0360701
0.345964 0.137278 0.0362075
0.346463 0.137149 0.0362252
0.346981 0.136981 0.0363626
0.347462 0.136893 0.0362607
0.347962 0.136765 0.0362784
0.348461 0.136637 0.0362962
0.348961 0.136508 0.0363138
0.349442 0.13642 0.036212
0.349906 0.136372 0.0359905
0.350387 0.136284 0.0358886
0.350851 0.136236 0.035667
0.351332 0.136147 0.0355651
0.351796 0.136099 0.0353437
0.352259 0.136051 0.0351222
0.352723 0.136003 0.0349007
0.353168 0.135995 0.0345595
0.353614 0.135987 0.0342184
0.35406 0.135979 0.0338773
0.354505 0.135971 0.0335361
0.354951 0.135963 0.033195
0.355378 0.135995 0.0327343
0.355788 0.136066 0.0321539
0.356197 0.136138 0.0315735
0.356589 0.136251 0.0308735
0.356981 0.136363 0.0301736
0.357354 0.136515 0.0293539
0.357728 0.136667 0.0285343
0.358066 0.136899 0.0274755
0.358403 0.137131 0.0264166
0.358687 0.137483 0.0249989
0.358989 0.137796 0.0237009
0.229485 0.162002 0.052011
0.230128 0.161553 0.0529856
0.230682 0.161305 0.0533623
0.231343 0.160816 0.0544565
0.231914 0.160527 0.0549527
0.23254 0.160118 0.0558077
0.233093 0.15987 0.0561843
0.233754 0.159381 0.0572786
0.23429 0.159172 0.0575355
0.234825 0.158964 0.0577925
0.235576 0.158274 0.0594849
0.236273 0.157705 0.0608184
0.236826 0.157456 0.0611949
0.23738 0.157208 0.0615715
0.237969 0.156879 0.0621873
0.238559 0.15655 0.0628031
0.239148 0.156222 0.0634189
0.239683 0.156013 0.0636759
0.240201 0.155845 0.0638133
0.240736 0.155637 0.0640702
0.241289 0.155388 0.0644467
0.241807 0.15522 0.0645841
0.242324 0.155051 0.0647215
0.24286 0.154843 0.0649784
0.243359 0.154715 0.0649962
0.243877 0.154546 0.0651335
0.244376 0.154418 0.0651512
0.244894 0.154249 0.0652885
0.245393 0.154121 0.0653063
0.245911 0.153953 0.0654437
0.24641 0.153825 0.0654614
0.246927 0.153656 0.0655987
0.247445 0.153488 0.065736
0.247944 0.15336 0.0657538
0.248444 0.153231 0.0657715
0.248961 0.153063 0.0659088
0.249461 0.152935 0.0659266
0.249978 0.152766 0.0660639
0.25046 0.152678 0.065962
0.250977 0.15251 0.0660993
0.251459 0.152422 0.0659975
0.25194 0.152333 0.0658956
0.252422 0.152245 0.0657937
0.252885 0.152197 0.0655722
0.253367 0.152109 0.0654703
0.253848 0.152021 0.0653684
0.254348 0.151892 0.0653861
0.254847 0.151764 0.0654038
0.255382 0.151556 0.0656608
0.255918 0.151347 0.0659178
0.256453 0.151139 0.0661747
0.256971 0.15097 0.0663121
0.257488 0.150802 0.0664494
0.258006 0.150634 0.0665868
0.258541 0.150425 0.0668437
0.25904 0.150297 0.0668614
0.259558 0.150129 0.0669987
0.260075 0.14996 0.0671361
0.260575 0.149832 0.0671539
0.261074 0.149704 0.0671716
0.261592 0.149535 0.0673089
0.262109 0.149367 0.0674462
0.262627 0.149199 0.0675837
0.263126 0.14907 0.0676013
0.263626 0.148942 0.0676191
0.264125 0.148814 0.0676368
0.264624 0.148686 0.0676546
0.265124 0.148557 0.0676722
0.265605 0.148469 0.0675703
0.266087 0.148381 0.0674684
0.266568 0.148293 0.0673665
0.267032 0.148245 0.0671451
0.267514 0.148156 0.0670432
0.267995 0.148068 0.0669413
0.268476 0.14798 0.0668394
0.26894 0.147932 0.0666179
0.269404 0.147884 0.0663964
0.269885 0.147796 0.0662946
0.270349 0.147748 0.066073
0.270812 0.1477 0.0658516
0.271258 0.147691 0.0655103
0.271703 0.147683 0.0651692
0.272131 0.147716 0.0647085
0.272576 0.147708 0.0643674
0.273022 0.147699 0.0640263
0.273467 0.147691 0.0636852
0.273931 0.147643 0.0634636
0.274359 0.147675 0.0630029
0.274822 0.147627 0.0627814
0.275304 0.147539 0.0626795
0.275767 0.147491 0.062458
0.276267 0.147363 0.0624757
0.276766 0.147234 0.0624935
0.277266 0.147106 0.0625112
0.277801 0.146898 0.0627682
0.278462 0.146409 0.0638624
0.279087 0.146 0.0647174
0.279695 0.145631 0.0654529
0.280356 0.145142 0.0665472
0.280945 0.144813 0.067163
0.281553 0.144444 0.0678984
0.282106 0.144196 0.068275
0.282785 0.143667 0.0694889
0.283407 0.143264 0.0703238
0.28399 0.142946 0.0708992
0.28459 0.142591 0.0715876
0.285257 0.142082 0.0727277
0.285789 0.141879 0.0729644
0.286355 0.1416 0.073427
0.286904 0.141359 0.0737768
0.28742 0.141195 0.0739007
0.287952 0.140992 0.0741375
0.288467 0.140827 0.0742615
0.288982 0.140663 0.0743853
0.289515 0.14046 0.0746221
0.29003 0.140295 0.074746
0.290528 0.140169 0.074757
0.291027 0.140042 0.0747681
0.291508 0.139954 0.0746662
0.291973 0.139904 0.0744513
0.292403 0.139931 0.0740107
0.292868 0.139881 0.073796
0.29335 0.139793 0.0736941
0.293848 0.139666 0.0737051
0.29438 0.139463 0.0739419
0.294896 0.139299 0.0740659
0.295394 0.139173 0.0740769
0.295909 0.139008 0.0742007
0.296391 0.13892 0.0740989
0.296889 0.138793 0.0741099
0.297404 0.138629 0.0742338
0.297903 0.138502 0.0742449
0.298401 0.138376 0.0742558
0.2989 0.13825 0.0742669
0.299381 0.138161 0.074165
0.299879 0.138035 0.0741759
0.300378 0.137909 0.074187
0.300876 0.137782 0.074198
0.301375 0.137656 0.074209
0.301856 0.137568 0.0741071
0.302354 0.137441 0.074118
0.302836 0.137353 0.0740162
0.303334 0.137227 0.0740272
0.303816 0.137139 0.0739253
0.304297 0.13705 0.0738234
0.304779 0.136962 0.0737216
0.30526 0.136874 0.0736196
0.305708 0.136862 0.073292
0.30619 0.136774 0.0731901
0.306654 0.136724 0.0729753
0.307119 0.136674 0.0727605
0.307567 0.136662 0.0724328
0.308048 0.136574 0.072331
0.308513 0.136524 0.0721161
0.308994 0.136436 0.0720142
0.309459 0.136386 0.0717995
0.30994 0.136298 0.0716976
0.310422 0.13621 0.0715957
0.310886 0.136159 0.0713809
0.311351 0.13611 0.0711661
0.311832 0.136021 0.0710642
0.312314 0.135933 0.0709623
0.312795 0.135845 0.0708604
0.31326 0.135795 0.0706457
0.313742 0.135707 0.0705438
0.314206 0.135657 0.070329
0.314671 0.135607 0.0701141
0.315135 0.135557 0.0698994
0.315583 0.135545 0.0695717
0.316031 0.135533 0.069244
0.316495 0.135483 0.0690292
0.31696 0.135433 0.0688144
0.317408 0.135421 0.0684867
0.317855 0.13541 0.068159
0.318303 0.135398 0.0678314
0.318734 0.135424 0.0673908
0.319182 0.135413 0.0670631
0.319612 0.135439 0.0666225
0.32006 0.135427 0.0662948
0.320508 0.135415 0.0659671
0.320956 0.135404 0.0656395
0.321403 0.135392 0.0653118
0.321834 0.135418 0.0648711
0.322282 0.135406 0.0645435
0.322713 0.135433 0.0641029
0.323177 0.135383 0.0638881
0.323591 0.135447 0.0633346
0.324005 0.135512 0.0627811
0.324436 0.135539 0.0623405
0.324884 0.135527 0.0620129
0.325331 0.135515 0.0616852
0.325762 0.135541 0.0612445
0.326192 0.13557 0.0607973
0.326512 0.135842 0.0596189
0.326903 0.135955 0.0589188
0.327313 0.136027 0.0583385
0.327723 0.136099 0.0577581
0.328132 0.136171 0.0571778
0.328578 0.136163 0.0568367
0.329023 0.136155 0.0564956
0.329469 0.136147 0.0561545
0.329914 0.136139 0.0558133
0.33036 0.136131 0.0554722
0.330806 0.136123 0.0551311
0.331233 0.136155 0.0546703
0.331679 0.136147 0.0543292
0.332124 0.136139 0.0539881
0.33257 0.136131 0.053647
0.333015 0.136123 0.0533058
0.333461 0.136115 0.0529647
0.333889 0.136147 0.052504
0.334334 0.136139 0.0521628
0.334762 0.136171 0.0517021
0.335207 0.136163 0.051361
0.335635 0.136195 0.0509002
0.336062 0.136227 0.0504395
0.336508 0.136219 0.0500984
0.336936 0.136251 0.0496376
0.337363 0.136283 0.049177
0.337809 0.136275 0.0488358
0.338218 0.136348 0.0482555
0.338628 0.13642 0.0476751
0.339002 0.136572 0.0468555
0.339411 0.136644 0.0462751
0.339803 0.136757 0.0455752
0.340213 0.136829 0.0449948
0.340586 0.136981 0.0441753
0.34096 0.137133 0.0433556
0.341262 0.137446 0.0420576
0.341474 0.137959 0.0401615
0.341829 0.138152 0.0392223
0.342203 0.138304 0.0384027
0.342577 0.138456 0.0375831
0.342986 0.138529 0.0370028
0.343396 0.138601 0.0364223
0.343842 0.138593 0.0360812
0.344305 0.138545 0.0358597
0.344787 0.138456 0.0357578
0.345286 0.138328 0.0357755
0.345786 0.1382 0.0357933
0.346303 0.138032 0.0359307
0.34682 0.137863 0.036068
0.34732 0.137735 0.0360858
0.347819 0.137607 0.0361034
0.348319 0.137478 0.0361212
0.348818 0.13735 0.0361389
0.3493 0.137262 0.036037
0.349781 0.137174 0.0359351
0.350263 0.137086 0.0358332
0.350726 0.137037 0.0356117
0.351208 0.136949 0.0355099
0.351671 0.136901 0.0352883
0.352135 0.136853 0.0350669
0.352598 0.136805 0.0348453
0.353062 0.136757 0.0346238
0.353526 0.136709 0.0344023
0.353953 0.136741 0.0339415
0.354399 0.136733 0.0336004
0.354844 0.136725 0.0332593
0.35529 0.136717 0.0329181
0.355699 0.136789 0.0323378
0.356109 0.136861 0.0317575
0.356501 0.136973 0.0310576
0.356928 0.137005 0.0305968
0.357284 0.137198 0.0296576
0.357676 0.13731 0.0289576
0.358013 0.137543 0.0278988
0.358423 0.137615 0.0273184
0.358689 0.138008 0.0257811
0.358901 0.138521 0.0238851
0.229451 0.162607 0.052554
0.23013 0.162077 0.0537678
0.230648 0.161909 0.0539052
0.231345 0.161339 0.0552386
0.231934 0.16101 0.0558544
0.232505 0.160721 0.0563506
0.233113 0.160352 0.057086
0.233756 0.159903 0.0580606
0.234686 0.158811 0.060949
0.235275 0.158482 0.0615648
0.235811 0.158274 0.0618217
0.236418 0.157905 0.0625572
0.236989 0.157616 0.0630534
0.237543 0.157367 0.06343
0.238096 0.157118 0.0638065
0.238649 0.15687 0.0641831
0.239203 0.156621 0.0645596
0.239738 0.156413 0.0648165
0.240273 0.156204 0.0650735
0.240809 0.155995 0.0653304
0.241326 0.155827 0.0654677
0.241844 0.155658 0.0656052
0.242379 0.15545 0.065862
0.242897 0.155281 0.0659994
0.243396 0.155153 0.0660171
0.243913 0.154985 0.0661545
0.244413 0.154856 0.0661721
0.244912 0.154728 0.0661899
0.245412 0.1546 0.0662077
0.245929 0.154431 0.066345
0.246447 0.154263 0.0664823
0.246964 0.154094 0.0666196
0.247464 0.153966 0.0666374
0.247981 0.153798 0.0667747
0.248498 0.153629 0.0669121
0.248998 0.153501 0.0669297
0.249497 0.153372 0.0669475
0.249979 0.153284 0.0668456
0.250478 0.153156 0.0668633
0.250978 0.153028 0.066881
0.251441 0.15298 0.0666595
0.251923 0.152891 0.0665576
0.252404 0.152803 0.0664557
0.252886 0.152715 0.0663538
0.253349 0.152667 0.0661324
0.253813 0.152619 0.0659108
0.254294 0.152531 0.0658089
0.254812 0.152362 0.0659463
0.255347 0.152154 0.0662032
0.255883 0.151945 0.0664602
0.2564 0.151777 0.0665975
0.256935 0.151568 0.0668545
0.257471 0.15136 0.0671114
0.257988 0.151191 0.0672488
0.258506 0.151023 0.0673861
0.259005 0.150894 0.0674039
0.259522 0.150726 0.0675412
0.26004 0.150557 0.0676785
0.260521 0.150469 0.0675766
0.261039 0.150301 0.0677139
0.261538 0.150172 0.0677316
0.262056 0.150004 0.067869
0.262573 0.149836 0.0680064
0.263073 0.149707 0.068024
0.263572 0.149579 0.0680418
0.264054 0.149491 0.0679399
0.264553 0.149362 0.0679576
0.265034 0.149274 0.0678557
0.265516 0.149186 0.0677538
0.265997 0.149098 0.067652
0.266497 0.14897 0.0676696
0.266961 0.148921 0.0674482
0.267442 0.148833 0.0673463
0.267923 0.148745 0.0672444
0.268405 0.148657 0.0671425
0.268887 0.148569 0.0670406
0.26935 0.148521 0.0668191
0.269814 0.148473 0.0665976
0.270313 0.148344 0.0666154
0.270777 0.148296 0.0663938
0.271222 0.148288 0.0660527
0.271668 0.14828 0.0657116
0.272131 0.148232 0.0654901
0.272541 0.148305 0.0649098
0.272986 0.148297 0.0645686
0.273432 0.148289 0.0642275
0.273896 0.148241 0.064006
0.274341 0.148233 0.0636649
0.274787 0.148225 0.0633238
0.27525 0.148177 0.0631023
0.275732 0.148089 0.0630004
0.276213 0.148001 0.0628985
0.276713 0.147872 0.0629162
0.277194 0.147784 0.0628143
0.277748 0.147535 0.0631909
0.278337 0.147206 0.0638067
0.278998 0.146717 0.0649009
0.279605 0.146348 0.0656363
0.280248 0.145898 0.066611
0.280874 0.145489 0.067466
0.281481 0.14512 0.0682013
0.281998 0.144952 0.0683387
0.282749 0.144262 0.070031
0.283318 0.143976 0.0705136
0.283952 0.143544 0.0714276
0.284534 0.143226 0.0720029
0.285151 0.142832 0.0728039
0.285717 0.142552 0.0732663
0.286283 0.142272 0.0737287
0.286831 0.142031 0.0740783
0.287364 0.141828 0.074315
0.287879 0.141663 0.0744389
0.288394 0.141499 0.0745627
0.288926 0.141296 0.0747993
0.289442 0.141131 0.0749232
0.289957 0.140966 0.0750471
0.290472 0.140801 0.0751709
0.29097 0.140675 0.0751819
0.291452 0.140587 0.07508
0.291917 0.140537 0.0748653
0.292364 0.140525 0.0745377
0.292812 0.140514 0.0742099
0.293294 0.140426 0.074108
0.293792 0.140299 0.0741191
0.294341 0.140058 0.0744687
0.294856 0.139893 0.0745925
0.295355 0.139767 0.0746035
0.295853 0.13964 0.0746144
0.296351 0.139514 0.0746254
0.29685 0.139387 0.0746364
0.297365 0.139222 0.0747602
0.297863 0.139096 0.0747712
0.298362 0.13897 0.0747821
0.29886 0.138843 0.0747932
0.299358 0.138717 0.0748041
0.299857 0.13859 0.0748151
0.300355 0.138464 0.074826
0.300853 0.138337 0.0748371
0.301335 0.138249 0.0747351
0.301833 0.138123 0.0747461
0.302315 0.138034 0.0746442
0.302813 0.137908 0.0746553
0.303295 0.13782 0.0745534
0.303776 0.137732 0.0744515
0.304241 0.137682 0.0742367
0.304722 0.137594 0.0741348
0.305204 0.137505 0.0740329
0.305669 0.137455 0.0738182
0.306133 0.137405 0.0736034
0.306598 0.137356 0.0733887
0.307062 0.137306 0.0731739
0.307527 0.137256 0.0729591
0.307992 0.137206 0.0727444
0.308456 0.137156 0.0725297
0.308921 0.137106 0.0723148
0.309402 0.137018 0.072213
0.309884 0.13693 0.0721111
0.310349 0.13688 0.0718964
0.31083 0.136792 0.0717945
0.311312 0.136703 0.0716926
0.311776 0.136653 0.0714778
0.312274 0.136527 0.0714888
0.312756 0.136439 0.0713869
0.313221 0.136389 0.0711721
0.313685 0.136339 0.0709574
0.31415 0.136289 0.0707426
0.314615 0.136239 0.0705279
0.315079 0.136189 0.0703131
0.315544 0.136139 0.0700984
0.315992 0.136128 0.0697708
0.316439 0.136116 0.0694432
0.316887 0.136104 0.0691155
0.317352 0.136054 0.0689008
0.317799 0.136043 0.0685731
0.31823 0.136069 0.0681326
0.318678 0.136058 0.067805
0.319126 0.136046 0.0674774
0.319574 0.136035 0.0671498
0.320021 0.136023 0.0668222
0.320469 0.136011 0.0664946
0.320917 0.136 0.066167
0.321381 0.13595 0.0659522
0.321812 0.135976 0.0655117
0.32226 0.135965 0.0651841
0.322691 0.135991 0.0647437
0.323139 0.13598 0.064416
0.32357 0.136006 0.0639755
0.323984 0.136071 0.0634222
0.324415 0.136098 0.0629817
0.324862 0.136086 0.0626541
0.32531 0.136075 0.0623264
0.325741 0.136101 0.061886
0.326189 0.136089 0.0615584
0.326602 0.136156 0.0609982
0.326957 0.136349 0.0600591
0.327331 0.136502 0.0592395
0.327741 0.136574 0.0586592
0.328132 0.136686 0.0579592
0.328542 0.136759 0.0573789
0.32897 0.136791 0.0569181
0.329397 0.136823 0.0564574
0.329843 0.136815 0.0561163
0.330288 0.136807 0.0557752
0.330734 0.136799 0.0554341
0.33118 0.136791 0.055093
0.331607 0.136824 0.0546322
0.332053 0.136816 0.0542911
0.332498 0.136808 0.05395
0.332944 0.1368 0.0536089
0.33339 0.136792 0.0532678
0.333853 0.136744 0.0530463
0.334299 0.136736 0.0527052
0.334744 0.136728 0.0523641
0.335154 0.1368 0.0517837
0.335599 0.136792 0.0514426
0.336009 0.136865 0.0508623
0.336437 0.136897 0.0504015
0.336864 0.136929 0.0499409
0.33731 0.136921 0.0495997
0.337737 0.136954 0.0491389
0.338165 0.136986 0.0486782
0.338575 0.137058 0.0480979
0.338984 0.13713 0.0475175
0.339358 0.137283 0.046698
0.339786 0.137315 0.0462374
0.34016 0.137468 0.0454177
0.340587 0.1375 0.044957
0.340961 0.137653 0.0441374
0.341317 0.137845 0.0431982
0.341547 0.138319 0.0414218
0.341849 0.138632 0.0401238
0.342186 0.138865 0.039065
0.34256 0.139018 0.0382454
0.34297 0.13909 0.0376651
0.343361 0.139202 0.0369652
0.343771 0.139275 0.0363848
0.344217 0.139267 0.0360437
0.344662 0.139259 0.0357025
0.345126 0.139211 0.0354811
0.345607 0.139123 0.0353792
0.346125 0.138954 0.0355165
0.346642 0.138786 0.0356538
0.34716 0.138617 0.0357912
0.347659 0.138489 0.0358089
0.348158 0.138361 0.0358266
0.348658 0.138232 0.0358444
0.34914 0.138144 0.0357425
0.349639 0.138016 0.0357602
0.35012 0.137928 0.0356583
0.350584 0.13788 0.0354368
0.351065 0.137791 0.0353349
0.351547 0.137703 0.0352331
0.351993 0.137695 0.0348919
0.352474 0.137607 0.03479
0.352938 0.137559 0.0345685
0.353401 0.137511 0.034347
0.353847 0.137503 0.0340059
0.354292 0.137495 0.0336647
0.354738 0.137487 0.0333236
0.355184 0.137479 0.0329826
0.355611 0.137511 0.0325218
0.356021 0.137584 0.0319415
0.35643 0.137656 0.0313612
0.35684 0.137729 0.0307808
0.357196 0.137921 0.0298417
0.357605 0.137994 0.0292613
0.357979 0.138146 0.0284417
0.358335 0.138339 0.0275026
0.358565 0.138813 0.0257261
0.358867 0.139126 0.0244281
0.359133 0.139519 0.0228908
0.228612 0.164023 0.051046
0.229399 0.163252 0.0529774
0.23006 0.162762 0.0540716
0.23056 0.162633 0.0540893
0.231364 0.161822 0.0561404
0.233045 0.160039 0.0607209
0.233653 0.159669 0.0614563
0.23426 0.1593 0.0621917
0.234795 0.159091 0.0624486
0.235348 0.158842 0.0628252
0.235902 0.158593 0.0632017
0.236473 0.158304 0.0636979
0.23708 0.157935 0.0644332
0.237616 0.157726 0.0646901
0.238187 0.157437 0.0651863
0.238722 0.157228 0.0654433
0.239258 0.15702 0.0657002
0.239775 0.156851 0.0658375
0.24031 0.156643 0.0660945
0.240846 0.156434 0.0663514
0.241363 0.156265 0.0664887
0.24188 0.156097 0.0666261
0.242398 0.155928 0.0667634
0.242915 0.15576 0.0669007
0.243415 0.155631 0.0669184
0.243896 0.155543 0.0668165
0.244414 0.155375 0.0669539
0.244931 0.155206 0.0670912
0.245448 0.155038 0.0672285
0.245966 0.154869 0.0673659
0.246447 0.154781 0.067264
0.246983 0.154572 0.0675209
0.247482 0.154444 0.0675386
0.248 0.154275 0.0676759
0.248499 0.154147 0.0676937
0.248998 0.154019 0.0677114
0.249498 0.15389 0.0677291
0.249979 0.153802 0.0676273
0.250461 0.153714 0.0675254
0.250942 0.153626 0.0674235
0.251442 0.153497 0.0674411
0.251905 0.153449 0.0672197
0.252387 0.153361 0.0671178
0.252868 0.153273 0.0670159
0.253332 0.153225 0.0667944
0.253795 0.153177 0.0665729
0.254259 0.153129 0.0663514
0.254759 0.153 0.0663691
0.255294 0.152792 0.066626
0.255829 0.152583 0.066883
0.256347 0.152415 0.0670203
0.256882 0.152206 0.0672772
0.257417 0.151997 0.0675342
0.257935 0.151829 0.0676715
0.258452 0.15166 0.0678088
0.25897 0.151492 0.0679461
0.259469 0.151363 0.0679639
0.259986 0.151195 0.0681012
0.260504 0.151026 0.0682385
0.261003 0.150898 0.0682563
0.261521 0.150729 0.0683935
0.26202 0.150601 0.0684113
0.262538 0.150432 0.0685486
0.263037 0.150304 0.0685663
0.263518 0.150216 0.0684644
0.264 0.150128 0.0683625
0.264481 0.150039 0.0682607
0.264981 0.149911 0.0682784
0.265445 0.149863 0.0680569
0.265926 0.149775 0.067955
0.266408 0.149687 0.0678531
0.266907 0.149558 0.0678708
0.267388 0.14947 0.0677689
0.267852 0.149422 0.0675474
0.268351 0.149294 0.0675652
0.268833 0.149206 0.0674633
0.269314 0.149117 0.0673614
0.269778 0.149069 0.0671399
0.270241 0.149021 0.0669184
0.270723 0.148933 0.0668165
0.271187 0.148885 0.066595
0.271632 0.148877 0.0662539
0.272078 0.148869 0.0659128
0.272505 0.148902 0.0654521
0.272951 0.148894 0.065111
0.273397 0.148886 0.0647699
0.273842 0.148878 0.0644287
0.274288 0.14887 0.0640876
0.274751 0.148822 0.0638662
0.275215 0.148774 0.0636447
0.275678 0.148726 0.0634231
0.27616 0.148638 0.0633213
0.276677 0.14847 0.0634586
0.277141 0.148422 0.0632371
0.277694 0.148173 0.0636136
0.27823 0.147964 0.0638706
0.278908 0.147434 0.0650844
0.279534 0.147024 0.0659394
0.280195 0.146535 0.0670335
0.28082 0.146125 0.0678885
0.281391 0.145836 0.0683847
0.281908 0.145667 0.068522
0.282677 0.144936 0.0703339
0.283263 0.144613 0.0709293
0.283879 0.144218 0.07173
0.284462 0.143899 0.0723051
0.285078 0.143505 0.0731058
0.285661 0.143186 0.0736809
0.28621 0.142945 0.0740304
0.286759 0.142703 0.0743798
0.287291 0.1425 0.0746164
0.287823 0.142297 0.074853
0.288338 0.142132 0.0749768
0.288853 0.141967 0.0751006
0.289369 0.141802 0.0752243
0.289884 0.141637 0.075348
0.290399 0.141472 0.0754718
0.290897 0.141346 0.0754828
0.291396 0.141219 0.0754937
0.29186 0.141169 0.075279
0.292308 0.141158 0.0749515
0.292756 0.141146 0.0746239
0.293237 0.141058 0.074522
0.293736 0.140932 0.0745329
0.294268 0.140729 0.0747696
0.2948 0.140525 0.0750061
0.295298 0.140399 0.0750171
0.295813 0.140234 0.0751408
0.296329 0.140069 0.0752646
0.296827 0.139942 0.0752756
0.297342 0.139778 0.0753994
0.297857 0.139613 0.0755231
0.298356 0.139486 0.0755341
0.298854 0.13936 0.0755451
0.299352 0.139233 0.0755559
0.299851 0.139107 0.0755668
0.300366 0.138942 0.0756906
0.300847 0.138854 0.0755887
0.301346 0.138727 0.0755997
0.301827 0.138639 0.0754978
0.302309 0.138551 0.0753959
0.302807 0.138424 0.0754068
0.303289 0.138336 0.0753049
0.30377 0.138248 0.075203
0.304235 0.138198 0.0749884
0.3047 0.138148 0.0747736
0.305164 0.138098 0.0745589
0.305629 0.138048 0.0743441
0.306093 0.137998 0.0741294
0.306541 0.137987 0.0738019
0.307023 0.137899 0.0737
0.307487 0.137849 0.0734853
0.307952 0.137799 0.0732706
0.308417 0.137749 0.0730559
0.308864 0.137738 0.0727283
0.309329 0.137688 0.0725136
0.309811 0.1376 0.0724117
0.310292 0.137512 0.0723098
0.310757 0.137462 0.0720951
0.311255 0.137335 0.072106
0.311737 0.137247 0.0720041
0.312218 0.137159 0.0719023
0.3127 0.137071 0.0718004
0.313181 0.136983 0.0716985
0.313646 0.136933 0.0714838
0.31411 0.136883 0.071269
0.314575 0.136833 0.0710544
0.31504 0.136783 0.0708397
0.315488 0.136772 0.0705121
0.315952 0.136722 0.0702973
0.3164 0.13671 0.0699698
0.316848 0.136699 0.0696422
0.317296 0.136687 0.0693147
0.317743 0.136676 0.0689872
0.318191 0.136664 0.0686597
0.318622 0.136691 0.0682192
0.31907 0.13668 0.0678916
0.319535 0.13663 0.067677
0.319999 0.13658 0.0674622
0.32043 0.136607 0.0670219
0.320895 0.136557 0.0668071
0.321326 0.136584 0.0663668
0.321773 0.136572 0.0660392
0.322221 0.136561 0.0657116
0.322652 0.136588 0.0652713
0.3231 0.136576 0.0649438
0.323514 0.136641 0.0643905
0.323962 0.13663 0.064063
0.324393 0.136657 0.0636226
0.324824 0.136683 0.0631822
0.325288 0.136634 0.0629675
0.325736 0.136622 0.06264
0.32615 0.136687 0.0620867
0.326598 0.136676 0.0617593
0.327011 0.136743 0.0611992
0.327385 0.136896 0.0603797
0.327777 0.137008 0.0596798
0.328132 0.137201 0.0587406
0.328542 0.137274 0.0581603
0.328934 0.137387 0.0574604
0.329362 0.137419 0.0569997
0.329789 0.137451 0.0565389
0.330235 0.137443 0.0561978
0.330662 0.137476 0.0557371
0.331108 0.137468 0.055396
0.331536 0.1375 0.0549353
0.331963 0.137533 0.0544745
0.332409 0.137525 0.0541335
0.332872 0.137477 0.053912
0.333318 0.137469 0.0535709
0.333782 0.137421 0.0533494
0.334227 0.137413 0.0530082
0.334691 0.137365 0.0527868
0.335118 0.137397 0.052326
0.335546 0.13743 0.0518653
0.335992 0.137422 0.0515243
0.336401 0.137494 0.0509438
0.336829 0.137527 0.0504832
0.337239 0.137599 0.0499028
0.337666 0.137632 0.0494421
0.338094 0.137664 0.0489815
0.338522 0.137696 0.0485207
0.338949 0.137729 0.04806
0.339305 0.137922 0.0471209
0.339733 0.137954 0.0466601
0.340142 0.138027 0.0460798
0.340534 0.138139 0.0453799
0.340944 0.138212 0.0447996
0.3413 0.138405 0.0438604
0.341584 0.138758 0.0424428
0.341904 0.139032 0.0412645
0.342224 0.139305 0.0400861
0.342561 0.139538 0.0390273
0.342935 0.139691 0.0382078
0.343345 0.139764 0.0376275
0.343701 0.139957 0.0366883
0.344128 0.139989 0.0362276
0.344556 0.140021 0.0357669
0.344984 0.140054 0.0353062
0.345465 0.139966 0.0352043
0.345947 0.139877 0.0351024
0.346464 0.139709 0.0352397
0.346963 0.13958 0.0352575
0.347481 0.139412 0.0353947
0.347998 0.139243 0.0355321
0.348498 0.139115 0.0355498
0.348997 0.138987 0.0355675
0.349479 0.138899 0.0354656
0.34996 0.13881 0.0353638
0.350442 0.138722 0.0352619
0.350923 0.138634 0.03516
0.351405 0.138546 0.0350581
0.351886 0.138458 0.0349562
0.352332 0.13845 0.0346151
0.352795 0.138402 0.0343936
0.353277 0.138314 0.0342917
0.35374 0.138266 0.0340702
0.354186 0.138258 0.0337292
0.354632 0.13825 0.033388
0.355077 0.138242 0.0330469
0.355505 0.138274 0.0325862
0.355932 0.138307 0.0321255
0.356342 0.138379 0.0315451
0.356734 0.138492 0.0308452
0.357108 0.138645 0.0300257
0.357517 0.138717 0.0294454
0.357891 0.13887 0.0286258
0.358283 0.138983 0.0279258
0.358621 0.139216 0.0268671
0.358833 0.13973 0.0249711
0.359063 0.140205 0.0231947
0.359491 0.140237 0.022734
0.228079 0.164756 0.0515713
0.231868 0.161219 0.0602714
0.232565 0.160648 0.0616048
0.233154 0.160318 0.0622205
0.233726 0.160029 0.0627166
0.234333 0.159659 0.0634519
0.234868 0.15945 0.0637089
0.235475 0.159081 0.0644442
0.236028 0.158832 0.0648208
0.236582 0.158583 0.0651973
0.237135 0.158334 0.0655739
0.23767 0.158125 0.0658307
0.238224 0.157876 0.0662073
0.238759 0.157667 0.0664643
0.239294 0.157458 0.0667212
0.239812 0.157289 0.0668585
0.240329 0.157121 0.0669958
0.240864 0.156912 0.0672527
0.241382 0.156743 0.06739
0.241899 0.156575 0.0675273
0.242417 0.156406 0.0676647
0.242916 0.156278 0.0676824
0.243415 0.156149 0.0677001
0.243915 0.156021 0.0677178
0.244432 0.155852 0.0678551
0.24495 0.155684 0.0679925
0.245467 0.155515 0.0681298
0.245984 0.155347 0.0682671
0.246484 0.155218 0.0682848
0.246983 0.15509 0.0683025
0.247519 0.154881 0.0685595
0.248018 0.154753 0.0685771
0.2485 0.154664 0.0684752
0.248999 0.154536 0.0684931
0.249463 0.154488 0.0682715
0.249962 0.15436 0.0682893
0.250444 0.154271 0.0681874
0.250925 0.154183 0.0680855
0.251424 0.154055 0.0681031
0.251888 0.154007 0.0678817
0.252387 0.153878 0.0678993
0.252851 0.15383 0.0676779
0.253333 0.153742 0.067576
0.253796 0.153694 0.0673544
0.25426 0.153646 0.067133
0.254741 0.153558 0.0670311
0.255241 0.15343 0.0670488
0.255776 0.153221 0.0673057
0.256293 0.153052 0.067443
0.256829 0.152843 0.0676999
0.257364 0.152635 0.0679569
0.257881 0.152466 0.0680943
0.258417 0.152257 0.0683512
0.258916 0.152129 0.0683689
0.259434 0.15196 0.0685062
0.259951 0.151792 0.0686435
0.260468 0.151623 0.0687808
0.260986 0.151454 0.0689182
0.261503 0.151286 0.0690554
0.262002 0.151157 0.0690732
0.262502 0.151029 0.0690909
0.263001 0.1509 0.0691087
0.263483 0.150812 0.0690067
0.263946 0.150764 0.0687852
0.264428 0.150676 0.0686834
0.264909 0.150588 0.0685815
0.265391 0.1505 0.0684796
0.265854 0.150452 0.0682581
0.266354 0.150323 0.0682758
0.266835 0.150235 0.0681739
0.267317 0.150147 0.068072
0.267798 0.150059 0.0679701
0.26828 0.149971 0.0678682
0.268761 0.149882 0.0677664
0.269243 0.149794 0.0676645
0.269724 0.149706 0.0675626
0.270188 0.149658 0.0673411
0.270669 0.14957 0.0672392
0.271133 0.149522 0.0670177
0.271579 0.149514 0.0666766
0.272042 0.149466 0.0664551
0.272488 0.149458 0.066114
0.272916 0.149491 0.0656533
0.273361 0.149483 0.0653122
0.273807 0.149475 0.0649711
0.274252 0.149468 0.06463
0.274698 0.14946 0.0642889
0.275179 0.149372 0.064187
0.275643 0.149324 0.0639656
0.276125 0.149236 0.0638637
0.276642 0.149067 0.0640009
0.277123 0.148979 0.0638991
0.277623 0.14885 0.0639168
0.278176 0.148601 0.0642933
0.278855 0.148071 0.0655071
0.279444 0.147741 0.0661228
0.280087 0.147291 0.0670973
0.28073 0.146841 0.0680719
0.281301 0.146552 0.068568
0.281819 0.146383 0.0687054
0.282587 0.145651 0.0705171
0.283174 0.145326 0.0711193
0.283807 0.144892 0.0720325
0.284407 0.144535 0.0727202
0.285006 0.144177 0.0734078
0.285572 0.143897 0.0738699
0.286137 0.143617 0.074332
0.286686 0.143375 0.0746814
0.287218 0.143172 0.0749178
0.28775 0.142968 0.0751543
0.288265 0.142803 0.075278
0.288797 0.1426 0.0755145
0.289312 0.142435 0.0756382
0.289828 0.14227 0.0757619
0.290343 0.142105 0.0758855
0.290841 0.141978 0.0758965
0.291339 0.141851 0.0759074
0.291804 0.141802 0.0756927
0.292252 0.14179 0.0753652
0.292717 0.141741 0.0751506
0.293198 0.141652 0.0750487
0.293696 0.141526 0.0750596
0.294212 0.141361 0.0751833
0.294744 0.141157 0.0754198
0.295259 0.140992 0.0755435
0.295774 0.140827 0.0756672
0.296289 0.140662 0.0757908
0.296787 0.140536 0.0758018
0.297319 0.140332 0.0760383
0.297818 0.140206 0.0760491
0.29835 0.140002 0.0762857
0.298848 0.139876 0.0762966
0.299346 0.139749 0.0763074
0.299845 0.139622 0.0763184
0.300343 0.139496 0.0763292
0.300841 0.139369 0.0763401
0.30134 0.139243 0.0763511
0.301821 0.139154 0.0762492
0.302303 0.139066 0.0761473
0.302784 0.138978 0.0760454
0.303282 0.138851 0.0760563
0.303747 0.138802 0.0758416
0.304212 0.138752 0.0756269
0.304693 0.138664 0.075525
0.305158 0.138614 0.0753103
0.305606 0.138603 0.0749829
0.306071 0.138553 0.0747682
0.306535 0.138503 0.0745536
0.306983 0.138492 0.0742261
0.307448 0.138442 0.0740113
0.307896 0.138431 0.0736838
0.30836 0.138381 0.0734692
0.308825 0.138331 0.0732545
0.309273 0.13832 0.0729271
0.309737 0.13827 0.0727124
0.310219 0.138182 0.0726105
0.3107 0.138094 0.0725086
0.311199 0.137967 0.0725195
0.31168 0.137879 0.0724176
0.312179 0.137752 0.0724285
0.31266 0.137664 0.0723266
0.313142 0.137576 0.0722247
0.313606 0.137526 0.07201
0.314071 0.137476 0.0717954
0.314519 0.137465 0.0714679
