ply
format ascii 1.0
element vertex 1287
property float x
property float y
property float z
property uchar diffuse_red
property uchar diffuse_green
property uchar diffuse_blue
end_header
0.297114 0.0850155 -0.00248299 0 0 0
0.297482 0.0847051 -0.00243609 0 0 0
0.297264 0.0848609 -0.00273006 0 0 0
0.297661 0.0845183 -0.00267927 0 0 0
0.297454 0.0846883 -0.00296647 0 0 0
0.297824 0.0843483 -0.00292094 0 0 0
0.297632 0.0845064 -0.0032077 0 0 0
0.298031 0.0841624 -0.00313569 0 0 0
0.297817 0.0843344 -0.00344626 0 0 0
0.298212 0.0840329 -0.00339759 0 0 0
0.298007 0.0841808 -0.00370212 0 0 0
0.298309 0.0839435 -0.00366995 0 0 0
0.298188 0.0840244 -0.00395859 0 0 0
0.298506 0.0837453 -0.00331498 0 0 0
0.298387 0.0838486 -0.00305905 0 0 0
0.298626 0.0836128 -0.00279983 0 0 0
0.298405 0.0838181 -0.00259656 0 0 0
0.298595 0.0836221 -0.00229224 0 0 0
0.298216 0.0839362 -0.00231971 0 0 0
0.298391 0.0837605 -0.00203789 0 0 0
0.298143 0.0840054 -0.00191746 0 0 0
0.298385 0.0838676 -0.00160456 0 0 0
0.297966 0.0841726 -0.00167067 0 0 0
0.298216 0.0840591 -0.00137179 0 0 0
0.297839 0.0843083 -0.00133939 0 0 0
0.298023 0.0842325 -0.00113168 0 0 0
0.297684 0.0844943 -0.00108649 0 0 0
0.297862 0.0844222 -0.000887694 0 0 0
0.29746 0.0846384 -0.00135083 0 0 0
0.297648 0.0844743 -0.00160766 0 0 0
0.2973 0.0848143 -0.0016852 0 0 0
0.297495 0.084648 -0.00189827 0 0 0
0.29767 0.0845085 -0.00213708 0 0 0
0.297858 0.0843408 -0.00238576 0 0 0
0.298026 0.0841432 -0.0026456 0 0 0
0.297828 0.0842904 -0.00185988 0 0 0
0.298017 0.0841321 -0.0020954 0 0 0
0.29823 0.0839923 -0.00285841 0 0 0
0.296519 0.0855729 -0.00229497 0 0 0
0.296339 0.0857549 -0.00262465 0 4 0
0.296655 0.0854411 -0.00254646 0 1 0
0.296519 0.0855657 -0.00283443 0 2 0
0.296659 0.0853904 -0.00309155 0 0 0
0.295319 0.0931515 -0.00402536 0 22 7
0.295038 0.0933018 -0.00427043 1 20 6
0.294711 0.0937115 -0.00421474 2 20 7
0.294727 0.0934269 -0.00445761 1 19 5
0.29436 0.0938315 -0.00439433 12 20 7
0.294358 0.0935366 -0.00462409 3 19 6
0.293999 0.0939228 -0.0045449 14 20 6
0.294007 0.0936345 -0.00477733 4 18 6
0.293636 0.0937319 -0.00488315 12 18 8
0.293993 0.0933497 -0.00498512 3 19 6
0.293618 0.0934402 -0.00510371 2 17 7
0.293967 0.0930601 -0.00519352 0 19 7
0.293601 0.0931562 -0.00530248 1 19 8
0.293918 0.0927583 -0.00535695 0 19 7
0.293569 0.0928539 -0.00548901 0 19 8
0.293547 0.0925426 -0.0056375 0 19 8
0.293217 0.092635 -0.00577504 0 17 7
0.293185 0.0923158 -0.00591761 0 18 7
0.292748 0.0924182 -0.0060185 1 17 6
0.292751 0.0920733 -0.0061347 0 15 5
0.292547 0.0921046 -0.00615445 1 17 6
0.292561 0.0917351 -0.00623289 0 13 4
0.292185 0.0917774 -0.00622364 0 12 2
0.29215 0.0913986 -0.00628273 0 10 1
0.291805 0.0917595 -0.00616689 0 15 4
0.291752 0.0913914 -0.00621291 0 12 2
0.291713 0.0915176 -0.00618454 0 12 2
0.291391 0.0914631 -0.00610854 0 12 3
0.291632 0.0918861 -0.00608533 0 15 4
0.291309 0.0918296 -0.00599268 0 15 4
0.291297 0.0921855 -0.00587603 2 17 6
0.290992 0.0920876 -0.00572763 1 16 5
0.291006 0.09242 -0.00560593 2 18 6
0.290975 0.0927883 -0.00539801 5 20 7
0.290868 0.0931237 -0.00509573 9 21 9
0.291829 0.0921413 -0.00607805 3 16 5
0.292143 0.0920935 -0.00614201 2 16 5
0.292225 0.0924403 -0.00600308 3 17 5
0.294348 0.0941044 -0.00410365 4 23 8
0.293942 0.0944245 -0.00394283 4 23 10
0.293569 0.0945428 -0.0040382 5 25 12
0.293995 0.0942126 -0.00427817 15 25 9
0.29364 0.094018 -0.00464934 21 23 8
0.293618 0.0943014 -0.00441429 18 24 9
0.293233 0.0940916 -0.0047227 14 21 10
0.293212 0.0943442 -0.00448588 15 28 16
0.292847 0.0941502 -0.00480535 7 24 17
0.292978 0.094282 -0.00461671 11 24 15
0.292617 0.0942901 -0.00472646 8 27 21
0.292658 0.0944576 -0.00443168 3 24 16
0.292301 0.0945207 -0.00444814 2 23 16
0.292339 0.0946087 -0.00427783 4 25 16
0.291983 0.0946571 -0.00422745 2 24 13
0.292389 0.0948239 -0.00392324 4 23 11
0.292768 0.0947233 -0.00403018 1 23 15
0.293122 0.0946239 -0.00408753 4 25 14
0.293057 0.0945036 -0.00431969 4 26 19
0.293355 0.0943688 -0.0044165 17 29 14
0.293023 0.0944367 -0.00441466 3 25 19
0.291624 0.094517 -0.00435817 5 26 14
0.291559 0.0942961 -0.00462474 5 27 17
0.291221 0.0941623 -0.00457422 3 21 13
0.291543 0.0940199 -0.00489576 18 31 17
0.291235 0.0938399 -0.0048739 17 27 11
0.29153 0.0936616 -0.00519888 21 29 13
0.291215 0.0935845 -0.00509288 21 30 14
0.291188 0.0932735 -0.00528104 15 25 10
0.290946 0.0935097 -0.00491111 12 23 10
0.290952 0.0938408 -0.00462669 7 22 10
0.290954 0.0940858 -0.0044325 3 21 12
0.291317 0.092939 -0.0055557 6 20 8
0.291273 0.0925635 -0.00571241 3 17 6
0.291543 0.0926724 -0.00578359 2 17 6
0.291605 0.0923278 -0.00595544 2 17 5
0.291884 0.0926842 -0.00586167 2 16 6
0.291852 0.092425 -0.00598295 2 16 6
0.293262 0.0938042 -0.00496304 12 20 12
0.292861 0.093874 -0.00506085 6 22 17
0.292598 0.0940281 -0.00500836 14 30 20
0.292254 0.0942906 -0.00475504 2 26 20
0.291934 0.0945028 -0.00445529 2 26 17
0.291899 0.0942591 -0.00475523 3 25 19
0.291873 0.0939824 -0.00505081 13 30 19
0.291861 0.0937378 -0.00526925 22 30 16
0.291866 0.093477 -0.00544553 13 22 11
0.292165 0.0937576 -0.00530614 18 30 17
0.292167 0.093423 -0.00553085 8 21 9
0.292314 0.0936648 -0.00538722 14 28 17
0.292355 0.0934118 -0.00552092 8 23 10
0.292633 0.0936267 -0.00533952 7 22 14
0.292725 0.0933181 -0.00549678 1 20 9
0.292853 0.0935837 -0.00530373 4 19 13
0.293253 0.0932383 -0.00543712 1 19 9
0.293261 0.0935325 -0.0052191 4 17 10
0.29323 0.0929348 -0.00561375 1 17 7
0.292734 0.0930161 -0.00565008 0 20 8
0.292718 0.0927144 -0.00583029 0 20 6
0.292266 0.0928109 -0.00583255 5 18 6
0.292314 0.0931285 -0.00567878 3 19 7
0.291935 0.0931007 -0.00566577 5 19 9
0.291644 0.0929498 -0.00567525 6 21 9
0.291563 0.0932726 -0.0054679 11 22 9
0.292235 0.0940415 -0.00502873 18 35 24
0.292559 0.0937799 -0.00524223 7 22 12
0.285298 0.0877826 -0.00685651 59 8 5
0.285399 0.0878796 -0.00639787 52 8 4
0.285525 0.0879423 -0.00586497 40 7 4
0.285787 0.0879454 -0.00578702 41 7 4
0.285918 0.0879747 -0.00508568 25 4 1
0.286244 0.0880766 -0.00456872 15 4 0
0.28636 0.0880743 -0.00458683 14 4 0
0.286439 0.0882065 -0.00411886 14 4 0
0.28683 0.0882181 -0.00420084 13 5 0
0.28668 0.0884507 -0.0037894 10 4 0
0.286875 0.0884742 -0.00384187 10 5 0
0.286686 0.0888066 -0.00368232 4 5 0
0.286884 0.0888304 -0.00376292 6 4 0
0.286599 0.0891665 -0.00363233 1 5 0
0.286969 0.0892277 -0.00380316 4 6 0
0.286849 0.0896338 -0.0037882 2 7 0
0.287246 0.0892802 -0.00393891 4 6 0
0.287246 0.0897163 -0.00398875 1 6 0
0.287638 0.0893426 -0.00412333 2 5 0
0.287622 0.0897866 -0.00416674 0 8 0
0.287931 0.0898413 -0.00431146 1 7 0
0.287796 0.090255 -0.00432073 0 10 0
0.288029 0.0903471 -0.00440479 0 10 1
0.287621 0.0906875 -0.00427073 0 11 1
0.287937 0.0907869 -0.00439622 0 12 1
0.287545 0.0911052 -0.00424291 0 12 1
0.287867 0.0911812 -0.00435581 0 12 2
0.287472 0.0914998 -0.0041924 0 13 2
0.287792 0.0915854 -0.00430606 0 15 2
0.287408 0.0918968 -0.00410421 0 14 2
0.287735 0.0919667 -0.00420281 0 15 2
0.287359 0.0922883 -0.00398931 0 16 3
0.287684 0.0923643 -0.0040838 0 18 4
0.287647 0.0927157 -0.00395769 0 18 4
0.287979 0.0927697 -0.00404744 0 18 4
0.287946 0.0931341 -0.00386888 0 19 5
0.288277 0.0931882 -0.00393454 0 19 3
0.288278 0.0935198 -0.00369998 0 18 4
0.288624 0.0932358 -0.00400045 0 19 3
0.28862 0.0935791 -0.00376091 0 19 4
0.28897 0.0935987 -0.00382217 0 20 4
0.28895 0.0938915 -0.00357185 0 20 4
0.289303 0.0939246 -0.00361781 0 20 5
0.28896 0.0941921 -0.0033064 0 18 4
0.289341 0.094243 -0.00333142 0 19 5
0.289033 0.094495 -0.00302999 0 17 4
0.289377 0.0945407 -0.00305262 0 19 4
0.289368 0.0947881 -0.00280591 0 17 5
0.289739 0.0948 -0.00290657 0 19 5
0.289716 0.0950814 -0.00259758 0 17 4
0.290063 0.0951053 -0.00267226 0 18 4
0.290031 0.0953324 -0.00232025 0 18 3
0.290405 0.0953102 -0.00239381 0 18 4
0.290166 0.0954879 -0.00198729 0 17 3
0.290542 0.095416 -0.00205023 0 17 4
0.290298 0.0954661 -0.00158734 0 15 3
0.290664 0.0953791 -0.00163176 0 16 3
0.289907 0.095582 -0.00154373 0 15 3
0.289525 0.095664 -0.00150079 0 14 2
0.28913 0.095699 -0.00146533 0 14 2
0.288748 0.0957109 -0.00134823 0 14 2
0.288407 0.0956978 -0.00127946 0 14 2
0.288091 0.0956865 -0.00124066 0 14 2
0.287776 0.0957035 -0.00115087 0 14 2
0.28775 0.0954191 -0.00147801 0 15 2
0.287418 0.095382 -0.00137912 0 15 3
0.287377 0.0951167 -0.00171695 0 15 3
0.287047 0.0950656 -0.00162675 0 15 2
0.286987 0.0948574 -0.00197198 0 16 4
0.286676 0.094911 -0.00172302 0 16 3
0.286621 0.0947158 -0.00207376 0 18 4
0.286326 0.0948857 -0.00165651 0 16 3
0.286272 0.0946697 -0.00200137 0 17 3
0.285939 0.0946189 -0.00192793 0 17 3
0.285622 0.0943155 -0.00211799 0 17 3
0.285523 0.094097 -0.00224371 0 18 4
0.285197 0.0940364 -0.0020646 0 16 3
0.285175 0.0937529 -0.00226101 0 18 3
0.284862 0.0939958 -0.00193845 0 16 2
0.284723 0.0936962 -0.00212461 0 17 2
0.284383 0.0939633 -0.00184421 0 16 3
0.284321 0.0936471 -0.00199943 0 17 3
0.284037 0.0935943 -0.00181801 0 17 3
0.28404 0.0932751 -0.00200632 0 17 2
0.283714 0.0932648 -0.00178302 0 17 3
0.283685 0.092927 -0.00193673 0 17 3
0.286387 0.0951177 -0.00131718 0 16 3
0.286699 0.0950361 -0.00153501 0 15 2
0.286727 0.0952813 -0.00121022 0 15 3
0.287073 0.0953316 -0.00128876 0 14 2
0.286767 0.0955733 -0.000915131 0 14 2
0.287102 0.0956982 -0.000931405 0 14 2
0.287436 0.0956862 -0.00105643 0 14 2
0.2864 0.0952729 -0.00110981 0 15 3
0.289774 0.0954998 -0.00194139 0 17 3
0.289377 0.095552 -0.00184945 0 16 2
0.289038 0.0955202 -0.00182942 0 15 2
0.288743 0.0955219 -0.00171913 0 16 2
0.288716 0.0952906 -0.00204581 0 16 3
0.288389 0.0952522 -0.00196002 0 16 3
0.288368 0.0949669 -0.00230789 0 17 3
0.288042 0.0949651 -0.00219355 0 16 3
0.287982 0.0946621 -0.00257186 0 17 3
0.287689 0.0949077 -0.00213352 0 16 3
0.287613 0.0946074 -0.00253938 0 18 4
0.287309 0.0947983 -0.00218372 0 17 3
0.287258 0.0945806 -0.00250158 0 18 4
0.286956 0.0947531 -0.00213584 0 17 4
0.28691 0.0945358 -0.00245609 0 17 3
0.28658 0.0944973 -0.00238822 0 17 4
0.286249 0.0944392 -0.00233778 0 17 4
0.285932 0.0943831 -0.00223809 0 17 4
0.285923 0.094124 -0.00247371 0 18 4
0.285615 0.0940162 -0.00235603 0 17 4
0.285515 0.0938008 -0.0024238 0 17 3
0.285486 0.093499 -0.00259513 0 19 5
0.28512 0.0934372 -0.00241931 0 17 4
0.285454 0.093192 -0.00274286 0 19 4
0.285088 0.0931207 -0.00256067 0 18 4
0.285104 0.0927926 -0.00271212 0 17 4
0.28464 0.0928291 -0.00265137 0 19 5
0.284613 0.0924861 -0.00275617 0 17 3
0.284301 0.0927543 -0.00248844 0 19 5
0.284246 0.0923954 -0.00257494 0 19 3
0.283955 0.0926585 -0.00228045 0 20 3
0.28389 0.0923176 -0.00235307 0 16 2
0.283631 0.0925701 -0.00204238 0 17 3
0.283611 0.0922604 -0.00208225 0 14 2
0.284018 0.0929545 -0.00217285 0 18 3
0.284303 0.093073 -0.00231197 0 18 4
0.2846 0.09311 -0.00247492 0 18 3
0.284369 0.0933641 -0.0021803 0 18 2
0.284722 0.0933839 -0.00229819 0 17 3
0.288413 0.0955012 -0.00163235 0 15 2
0.288079 0.0954674 -0.00155928 0 14 2
0.288047 0.0952199 -0.00187345 0 16 3
0.287719 0.0951763 -0.00179748 0 15 3
0.28734 0.0949026 -0.0020297 0 16 3
0.289682 0.0953106 -0.00229988 0 18 2
0.289392 0.0953409 -0.00219541 0 16 3
0.28937 0.0950709 -0.00251622 0 17 4
0.289034 0.0950533 -0.00242011 0 16 3
0.289016 0.0947643 -0.00273738 0 17 4
0.288664 0.0947742 -0.00262407 0 16 4
0.288653 0.0944658 -0.00297042 0 17 4
0.288337 0.0946848 -0.00265057 0 16 4
0.288291 0.0944204 -0.0029243 0 17 4
0.287934 0.0943876 -0.00288284 0 17 4
0.287577 0.0943592 -0.00283411 0 18 4
0.287241 0.0943371 -0.00278332 0 18 5
0.286906 0.0942976 -0.00273107 0 19 4
0.286569 0.0942523 -0.00265357 0 18 4
0.286897 0.0939994 -0.00299724 0 18 4
0.286568 0.0939313 -0.00291624 0 18 4
0.286909 0.09366 -0.00322848 0 18 4
0.286583 0.0935922 -0.00313925 0 18 4
0.286601 0.0932499 -0.00333734 0 19 5
0.286254 0.0935191 -0.00304274 0 18 5
0.286284 0.0931665 -0.00321222 0 19 4
0.285955 0.0932276 -0.00301727 0 19 5
0.286201 0.0929976 -0.00323398 0 18 4
0.28584 0.0929284 -0.0030627 0 19 4
0.285862 0.0925875 -0.00317624 0 17 4
0.285486 0.0925194 -0.00297897 0 18 3
0.285544 0.0921677 -0.00308684 0 16 2
0.285187 0.0921175 -0.00294554 0 16 2
0.285238 0.0917436 -0.00301289 0 15 2
0.284829 0.0917147 -0.0028835 0 13 2
0.284928 0.0913146 -0.0029227 0 12 2
0.28452 0.091287 -0.0027916 0 13 1
0.284591 0.0909094 -0.00284488 0 11 1
0.284237 0.0908398 -0.00266735 0 11 1
0.284326 0.0904535 -0.0027115 0 9 0
0.283965 0.0904172 -0.00250561 0 8 0
0.284049 0.0900086 -0.00256021 0 7 0
0.283888 0.0908136 -0.00245105 0 10 1
0.284157 0.0912181 -0.00262038 0 12 1
0.284424 0.091672 -0.0027525 0 14 2
0.284708 0.0921113 -0.00283642 0 16 3
0.285171 0.0924604 -0.0028524 0 17 4
0.285481 0.0928661 -0.00288767 0 19 4
0.285827 0.0932585 -0.0029308 0 19 5
0.285946 0.0934488 -0.00291493 0 18 5
0.286248 0.0938533 -0.0028164 0 18 4
0.283813 0.0912016 -0.00239048 0 12 1
0.284078 0.0915974 -0.00256395 0 14 2
0.284326 0.0920495 -0.0026988 0 17 2
0.285841 0.0935824 -0.00278595 0 18 5
0.285919 0.0937802 -0.00271011 0 19 5
0.286244 0.0941899 -0.00257161 0 18 4
0.283991 0.0919737 -0.00248721 0 14 2
0.283677 0.0919686 -0.00220868 0 13 2
0.283737 0.0915944 -0.0023114 0 13 2
0.289055 0.095322 -0.00211278 0 15 3
0.288735 0.0950507 -0.00231396 0 16 3
0.288602 0.0941715 -0.00325262 0 18 3
0.288264 0.0941396 -0.00321586 0 18 4
0.287922 0.0941004 -0.00316003 0 17 4
0.287583 0.0940861 -0.00309902 0 17 4
0.287582 0.0937636 -0.00334864 0 18 4
0.287242 0.0940543 -0.00304477 0 18 4
0.287241 0.0937228 -0.00329406 0 17 4
0.287218 0.0882389 -0.00425874 15 5 0
0.287643 0.088566 -0.00410674 8 5 0
0.287803 0.0889716 -0.00414758 4 5 0
0.288074 0.0894021 -0.00430681 1 7 0
0.288288 0.0899052 -0.0044747 0 9 0
0.288384 0.0899244 -0.00450967 0 9 0
0.288437 0.0899852 -0.00454069 0 9 0
0.288831 0.0896709 -0.00469142 0 7 0
0.289137 0.0897568 -0.00483788 0 8 0
0.28946 0.0898213 -0.00496476 1 8 0
0.289777 0.0898804 -0.00509219 0 9 0
0.289362 0.0902715 -0.00497204 0 10 0
0.289671 0.0904101 -0.0051156 0 11 1
0.289277 0.0907075 -0.00494291 0 13 2
0.289595 0.0907824 -0.00507388 0 14 2
0.289216 0.0911013 -0.00487474 0 14 2
0.289531 0.0911859 -0.005002 0 14 2
0.28915 0.0915074 -0.00480567 0 17 3
0.289474 0.0915812 -0.00491898 0 17 3
0.289107 0.0918825 -0.00471211 0 17 4
0.289457 0.0919101 -0.00483365 0 18 5
0.289391 0.0922202 -0.00470588 1 19 5
0.289784 0.0920573 -0.00490054 1 18 5
0.289671 0.092396 -0.00472569 0 20 5
0.290024 0.0924791 -0.00480992 2 20 5
0.289727 0.0926659 -0.00461022 0 20 5
0.29002 0.092844 -0.00462619 1 20 6
0.289688 0.0930096 -0.00441152 0 20 5
0.290004 0.0930988 -0.00446518 1 21 6
0.290003 0.0933679 -0.00426714 3 22 7
0.290119 0.0921803 -0.00502015 0 18 4
0.2898 0.0916606 -0.00505015 1 17 4
0.289846 0.0912741 -0.00514135 0 15 3
0.289905 0.090873 -0.00521003 0 14 2
0.289977 0.0904752 -0.00525328 0 12 1
0.290078 0.08998 -0.00525738 0 9 0
0.247373 0.073498 -0.0117411 43 57 61
0.247631 0.0736015 -0.0114814 70 85 87
0.247348 0.0733775 -0.0113093 61 75 79
0.247513 0.0734538 -0.0109554 74 86 87
0.247128 0.0731797 -0.0110775 51 63 67
0.247255 0.0732272 -0.0107537 65 75 78
0.246938 0.0730114 -0.010867 51 62 63
0.247003 0.0730281 -0.0105696 60 71 70
0.246725 0.0728045 -0.0108185 49 58 56
0.246808 0.0728262 -0.0104506 61 67 65
0.246509 0.0725124 -0.0106548 50 53 49
0.246583 0.0725418 -0.0103057 69 71 64
0.246292 0.0721992 -0.0105289 55 57 49
0.246374 0.0722185 -0.0101488 76 75 62
0.24608 0.0718741 -0.0104006 57 59 49
0.246172 0.0718771 -0.0100814 81 80 65
0.245937 0.0715823 -0.0102675 58 61 50
0.246041 0.07155 -0.00996395 80 81 68
0.245743 0.0713016 -0.010192 56 59 49
0.245869 0.071156 -0.00984434 84 86 72
0.245566 0.0709477 -0.0100925 56 59 49
0.2457 0.070711 -0.00977096 76 82 71
0.245466 0.0706515 -0.00999571 57 61 52
0.245565 0.070334 -0.00971488 77 82 73
0.245326 0.0703653 -0.00997354 56 58 49
0.245444 0.0699623 -0.00966221 80 82 70
0.245202 0.0699912 -0.00991481 60 61 47
0.245342 0.0695857 -0.00961632 81 82 70
0.245089 0.0696072 -0.00986178 64 62 48
0.245235 0.0691985 -0.00956036 82 81 68
0.245002 0.0692244 -0.00982598 66 62 49
0.24492 0.0688274 -0.00979432 69 64 48
0.24468 0.0688555 -0.0100485 51 46 37
0.244658 0.0685864 -0.0100557 52 46 37
0.244407 0.0688893 -0.0102815 39 32 22
0.24439 0.068596 -0.010293 39 32 24
0.244075 0.0686079 -0.0104911 25 22 18
0.244363 0.0681918 -0.0103044 38 32 23
0.244029 0.0682086 -0.0104884 26 20 14
0.244363 0.0679929 -0.0103205 39 32 23
0.244034 0.0679473 -0.0105153 23 19 13
0.244368 0.0675789 -0.0103533 39 32 24
0.244056 0.0675417 -0.0105587 23 20 16
0.244393 0.0671704 -0.0104082 35 33 27
0.244139 0.0671596 -0.0106654 23 21 19
0.244456 0.0667285 -0.0104997 42 38 29
0.244202 0.0667238 -0.0107437 29 26 20
0.244462 0.0662368 -0.0105519 52 45 33
0.244223 0.0662458 -0.0108128 37 31 23
0.244345 0.0659622 -0.010927 42 35 24
0.243943 0.0662316 -0.0110385 29 22 13
0.244107 0.0659476 -0.0111926 31 25 15
0.243693 0.066216 -0.0112912 16 13 7
0.243911 0.0659395 -0.0114814 18 15 7
0.243681 0.0659666 -0.0117407 8 7 0
0.243856 0.0658518 -0.0118821 8 6 1
0.243667 0.0658729 -0.0121713 1 1 0
0.2441 0.0656926 -0.0121096 8 6 1
0.24389 0.0657035 -0.0123735 1 1 0
0.244104 0.0655379 -0.0125598 3 1 0
0.24368 0.0657449 -0.0126239 0 0 0
0.243907 0.0655159 -0.0128972 0 0 0
0.243471 0.0657364 -0.0129655 0 0 0
0.243687 0.0655174 -0.0131261 0 0 0
0.243488 0.0655121 -0.0133863 0 0 0
0.243866 0.0653436 -0.0133109 0 0 0
0.243663 0.0653285 -0.0136116 0 0 0
0.2439 0.0651644 -0.0137429 0 0 0
0.243666 0.0652209 -0.0140192 0 0 0
0.243913 0.0651476 -0.0141483 0 0 0
0.243725 0.0652157 -0.0144742 0 0 0
0.244147 0.0651599 -0.014429 0 0 0
0.243969 0.0652326 -0.0147535 0 0 0
0.244217 0.0652532 -0.014896 2 2 0
0.243992 0.0653291 -0.0151664 0 1 0
0.24428 0.0653673 -0.0153344 2 2 0
0.244085 0.0654741 -0.0156199 0 0 0
0.244561 0.0654958 -0.0155657 3 3 0
0.244349 0.0656095 -0.0158539 0 0 0
0.244732 0.0656238 -0.0157241 3 4 0
0.244472 0.0657039 -0.0159817 0 1 0
0.244713 0.0659099 -0.0161034 3 3 0
0.244461 0.0660065 -0.0163343 0 0 0
0.244828 0.0660761 -0.0161923 0 1 0
0.24457 0.0662082 -0.0164262 0 1 0
0.244967 0.0663009 -0.0162804 4 4 0
0.244688 0.0664112 -0.0164903 0 0 0
0.245129 0.066638 -0.0163729 1 2 0
0.244842 0.0667532 -0.0165836 1 2 0
0.245256 0.0670286 -0.0164461 5 4 0
0.244958 0.067125 -0.0166494 0 1 0
0.245364 0.0673875 -0.0165251 7 5 1
0.245091 0.0674932 -0.0167268 0 1 0
0.245503 0.0677417 -0.0166026 5 4 0
0.245232 0.0678507 -0.0167997 2 2 0
0.245664 0.0680937 -0.0166648 5 4 0
0.245347 0.0682118 -0.0168685 0 0 0
0.245775 0.0684517 -0.016716 6 3 0
0.245446 0.0685802 -0.016932 0 1 0
0.245845 0.0688233 -0.0167542 6 4 0
0.245597 0.0689183 -0.0169181 0 0 0
0.24584 0.0692203 -0.0168286 7 3 0
0.245555 0.0692219 -0.0170056 0 0 0
0.245673 0.0695985 -0.0170247 0 0 0
0.245311 0.0693692 -0.0172212 0 0 0
0.245415 0.0697546 -0.0172364 0 0 0
0.245168 0.0697377 -0.0174155 0 0 0
0.245307 0.0701057 -0.0173696 0 0 0
0.244983 0.0700908 -0.0176077 0 0 0
0.245238 0.0704706 -0.0174426 0 0 0
0.244967 0.0705219 -0.017659 0 0 0
0.24523 0.0708869 -0.0174381 0 0 0
0.244967 0.0709217 -0.017657 0 0 0
0.245231 0.071314 -0.0174235 0 0 0
0.244933 0.0712444 -0.0176683 0 0 0
0.244937 0.0715589 -0.0176176 0 0 0
0.244687 0.0712876 -0.0178265 0 0 0
0.24454 0.0713587 -0.0179191 0 0 0
0.244394 0.0709985 -0.0180423 0 0 0
0.244165 0.0711277 -0.0181848 0 0 0
0.244034 0.0706989 -0.0182789 0 0 0
0.243845 0.0709521 -0.018408 0 0 0
0.243658 0.0706461 -0.0185311 0 0 0
0.243511 0.0710083 -0.0186366 0 0 0
0.243355 0.070653 -0.0187336 0 0 0
0.243132 0.0708265 -0.0189063 0 0 0
0.243069 0.0704259 -0.0189034 0 0 0
0.242823 0.0706527 -0.019115 0 0 0
0.242817 0.0703935 -0.0190807 0 0 0
0.242596 0.0704283 -0.0192424 0 0 0
0.242795 0.0700965 -0.0190233 0 0 0
0.242465 0.0701104 -0.0192572 0 0 0
0.242619 0.0697186 -0.0190327 0 0 0
0.24232 0.069782 -0.0192603 0 0 0
0.242428 0.0693859 -0.0190589 0 0 0
0.242173 0.0694832 -0.0192784 0 0 0
0.242077 0.0691354 -0.0192053 0 0 0
0.241878 0.0694439 -0.0194747 0 0 0
0.241761 0.0691147 -0.0194237 0 0 0
0.241524 0.0692125 -0.0196233 0 0 0
0.241416 0.0688796 -0.0195453 0 0 0
0.24116 0.0689678 -0.0197689 0 0 0
0.241042 0.0686168 -0.0196875 0 0 0
0.240776 0.0687018 -0.0199227 0 0 0
0.240653 0.0683507 -0.0198352 0 0 0
0.24039 0.0684385 -0.0200655 0 0 0
0.240247 0.0680993 -0.0199928 0 0 0
0.23998 0.0681896 -0.0202227 0 0 0
0.243127 0.0700403 -0.0187968 0 0 0
0.242924 0.0696867 -0.0188247 0 0 0
0.243213 0.0696925 -0.018643 0 0 0
0.243122 0.0693426 -0.0185931 0 0 0
0.243493 0.0695333 -0.0184287 0 0 0
0.243369 0.0690996 -0.0183754 0 0 0
0.243672 0.0691997 -0.0182144 0 0 0
0.243606 0.0688185 -0.018133 0 0 0
0.24396 0.0690452 -0.0179958 0 0 0
0.243832 0.0685897 -0.017902 0 0 0
0.244133 0.0686952 -0.0177519 0 0 0
0.244016 0.0682826 -0.0176384 0 0 0
0.244419 0.0685902 -0.0175338 0 0 0
0.244304 0.0681493 -0.0174079 0 0 0
0.244654 0.0683495 -0.0173061 0 0 0
0.244612 0.0680378 -0.0171944 0 0 0
0.245009 0.0683361 -0.0170968 0 0 0
0.244927 0.067956 -0.0169961 0 0 0
0.245129 0.0686733 -0.0171535 0 0 0
0.245324 0.0689438 -0.0171094 0 0 0
0.245011 0.069039 -0.0173488 0 0 0
0.245051 0.0694139 -0.0174265 0 0 0
0.244927 0.0696902 -0.0175803 0 0 0
0.244692 0.0697647 -0.0177564 0 0 0
0.24467 0.0701803 -0.0178394 0 0 0
0.244396 0.0698129 -0.0179711 0 0 0
0.244358 0.0702315 -0.0180539 0 0 0
0.244078 0.0698654 -0.0181816 0 0 0
0.244042 0.0702814 -0.0182594 0 0 0
0.243753 0.0699139 -0.0183864 0 0 0
0.243728 0.0703172 -0.0184639 0 0 0
0.243443 0.069971 -0.0185878 0 0 0
0.243395 0.0703343 -0.0186753 0 0 0
0.244362 0.0706201 -0.0180743 0 0 0
0.244673 0.0705725 -0.0178725 0 0 0
0.244681 0.0709455 -0.0178698 0 0 0
0.243858 0.069504 -0.0182023 0 0 0
0.24418 0.0694404 -0.0179976 0 0 0
0.244313 0.0690302 -0.0177703 0 0 0
0.244498 0.0694009 -0.0177862 0 0 0
0.244634 0.0690025 -0.0175592 0 0 0
0.244814 0.0686603 -0.017334 0 0 0
0.244792 0.0693607 -0.0175862 0 0 0
0.24275 0.0692849 -0.0188048 0 0 0
0.242376 0.0690355 -0.0189591 0 0 0
0.241983 0.0687615 -0.0190935 0 0 0
0.241706 0.0688232 -0.0193185 0 0 0
0.241597 0.0684764 -0.0192389 0 0 0
0.241316 0.0685392 -0.0194606 0 0 0
0.241204 0.0681938 -0.0193766 0 0 0
0.240923 0.0682588 -0.0195979 0 0 0
0.240802 0.0678796 -0.0194931 0 0 0
0.240525 0.0680174 -0.0197509 0 0 0
0.240379 0.0676576 -0.0196666 0 0 0
0.240153 0.0677888 -0.0198956 0 0 0
0.240596 0.0674944 -0.0194188 0 0 0
0.240811 0.0673027 -0.0191545 0 0 0
0.241016 0.0671134 -0.0188806 0 0 0
0.241247 0.0669824 -0.0186246 0 0 0
0.241003 0.0666808 -0.0184495 0 0 0
0.241409 0.0667529 -0.0183454 0 0 0
0.241276 0.0665604 -0.0182018 0 0 0
0.241647 0.0665853 -0.0180892 0 0 0
0.241531 0.0664269 -0.0179954 0 0 0
0.241809 0.0663589 -0.0178166 0 0 0
0.241595 0.0661798 -0.0176245 0 0 0
0.242067 0.066265 -0.0175885 0 0 0
0.241847 0.0660457 -0.0173678 0 0 0
0.2423 0.0661197 -0.017324 0 0 0
0.242067 0.0659404 -0.0171093 0 0 0
0.242312 0.0658688 -0.0169134 0 0 0
0.242056 0.0657529 -0.0167453 0 0 0
0.242299 0.0656749 -0.0165041 0 0 0
0.242046 0.0656166 -0.0163935 0 0 0
0.242265 0.065531 -0.016134 0 0 0
0.241871 0.0655572 -0.0161063 0 0 0
0.242139 0.0654729 -0.0158302 0 0 0
0.2418 0.0655241 -0.0157307 0 0 0
0.242091 0.0654558 -0.015457 0 0 0
0.241696 0.0655607 -0.0153739 0 0 0
0.241936 0.0655147 -0.015117 0 0 0
0.24162 0.065679 -0.0149973 0 0 0
0.241851 0.0656057 -0.0147943 0 0 0
0.241669 0.0658234 -0.0146238 0 0 0
0.242043 0.0656269 -0.0145038 0 0 0
0.241817 0.0659026 -0.0143265 0 0 0
0.2422 0.0657173 -0.014183 0 0 0
0.241987 0.0659645 -0.0140506 0 0 0
0.242295 0.0659125 -0.0138216 0 0 0
0.241868 0.0662012 -0.013836 0 0 0
0.242144 0.066147 -0.0135983 0 0 0
0.241932 0.0663471 -0.0134484 0 0 0
0.24235 0.0662112 -0.0133494 0 0 0
0.242156 0.0663911 -0.0131611 0 0 0
0.242554 0.066196 -0.0130603 0 0 0
0.242388 0.0663387 -0.0129051 0 0 0
0.242767 0.0661788 -0.0127815 0 0 0
0.242592 0.0663363 -0.0126438 0 0 0
0.24299 0.0661723 -0.0125118 0 0 0
0.242811 0.0663289 -0.0123639 0 0 0
0.243167 0.0661283 -0.0122131 0 0 0
0.243031 0.0663086 -0.0120804 0 0 0
0.243247 0.0662582 -0.0118288 1 0 0
0.243149 0.0665972 -0.0117187 0 0 0
0.243467 0.0662367 -0.0115645 7 5 1
0.243395 0.0666067 -0.0114685 5 3 0
0.243654 0.06664 -0.0112229 12 10 5
0.243929 0.0667107 -0.0109832 23 19 11
0.243459 0.0660171 -0.0120076 1 0 0
0.243419 0.0659553 -0.0124276 0 0 0
0.243234 0.0659712 -0.0127282 0 0 0
0.243017 0.0659825 -0.0130219 0 0 0
0.243237 0.0657261 -0.0132294 0 0 0
0.242973 0.0657948 -0.0134398 0 0 0
0.24316 0.0655841 -0.013593 0 0 0
0.242756 0.0657344 -0.0137489 0 0 0
0.24302 0.0655308 -0.0138671 0 0 0
0.242776 0.0655208 -0.0140956 0 0 0
0.243135 0.0653911 -0.0140818 0 0 0
0.242952 0.0653718 -0.0143741 0 0 0
0.243374 0.0652912 -0.0142635 0 0 0
0.24319 0.0652913 -0.0145087 0 0 0
0.243413 0.0652664 -0.0146825 0 0 0
0.243033 0.065306 -0.0147498 0 0 0
0.243241 0.0652935 -0.0150061 0 0 0
0.24278 0.0653462 -0.0150934 0 0 0
0.243111 0.0653436 -0.0152906 0 0 0
0.242873 0.0653932 -0.0155675 0 0 0
0.24331 0.0654031 -0.0155584 0 0 0
0.243085 0.0654664 -0.015823 0 0 0
0.243312 0.0655339 -0.0159556 0 0 0
0.243084 0.0655807 -0.0161454 0 0 0
0.243342 0.0657199 -0.0163528 0 0 0
0.242876 0.0656929 -0.016434 0 0 0
0.243171 0.0658725 -0.0166839 0 0 0
0.24286 0.0659479 -0.0168858 0 0 0
0.243177 0.0661483 -0.0170764 0 0 0
0.242896 0.0662608 -0.0172953 0 0 0
0.24337 0.0664737 -0.0172336 0 0 0
0.243073 0.0665981 -0.0174447 0 0 0
0.243508 0.0667996 -0.0173526 0 0 0
0.243241 0.0669416 -0.0175575 0 0 0
0.243639 0.0670829 -0.0173802 0 0 0
0.243388 0.0673086 -0.0176049 0 0 0
0.243802 0.0674752 -0.0174199 0 0 0
0.243504 0.0676086 -0.0176452 0 0 0
0.243905 0.0678742 -0.0175166 0 0 0
0.243625 0.0679478 -0.0177402 0 0 0
0.243676 0.0682475 -0.0178455 0 0 0
0.243421 0.0683955 -0.0180665 0 0 0
0.243241 0.0687161 -0.018305 0 0 0
0.242956 0.0689218 -0.0185537 0 0 0
0.244204 0.0677796 -0.0173104 0 0 0
0.244139 0.0674669 -0.0172116 0 0 0
0.243981 0.067158 -0.0171809 0 0 0
0.244382 0.0673436 -0.0170236 0 0 0
0.24424 0.0669872 -0.0169743 0 0 0
0.244667 0.0672331 -0.0168438 0 0 0
0.244538 0.0668662 -0.0167802 0 0 0
0.244808 0.0675918 -0.0169148 0 0 0
0.244517 0.0676905 -0.0171057 0 0 0
0.243813 0.0667384 -0.0171317 0 0 0
0.244104 0.0666052 -0.0168832 0 0 0
0.243641 0.0663703 -0.0170033 0 0 0
0.243939 0.0662756 -0.0167964 0 0 0
0.243813 0.0661146 -0.0167202 0 0 0
0.244181 0.0661191 -0.016558 0 0 0
0.243945 0.0658873 -0.0164112 0 0 0
0.244209 0.0658042 -0.016196 0 0 0
0.244079 0.065684 -0.0160656 0 0 0
0.244436 0.0665363 -0.0166939 0 0 0
0.244296 0.0663342 -0.0166497 0 0 0
0.242739 0.0653618 -0.0146778 0 0 0
0.242471 0.0654023 -0.0148073 0 0 0
0.242326 0.0654083 -0.0151311 0 0 0
0.242131 0.0654855 -0.0148385 0 0 0
0.242277 0.0654769 -0.0146171 0 0 0
0.24249 0.0654934 -0.0143963 0 0 0
0.242504 0.0656696 -0.0140217 0 0 0
0.242549 0.0659693 -0.013539 0 0 0
0.242757 0.0660219 -0.0132755 0 0 0
0.242506 0.0653894 -0.0154373 0 0 0
0.243393 0.0653824 -0.0138169 0 0 0
0.243691 0.0652865 -0.0149569 0 0 0
0.243457 0.0653305 -0.0152399 0 0 0
0.240761 0.0665162 -0.0183401 0 0 0
0.240624 0.0663532 -0.0180608 0 0 0
0.24052 0.066169 -0.017673 0 0 0
0.240451 0.066053 -0.0172768 0 0 0
0.240202 0.0660367 -0.0170143 0 0 0
0.240596 0.0659445 -0.0169139 0 0 0
0.240249 0.0660068 -0.0165991 0 0 0
0.240537 0.0658885 -0.01637 0 0 0
0.240217 0.0660487 -0.0161329 0 0 0
0.240441 0.0659998 -0.0158774 0 0 0
0.240476 0.0661907 -0.0154996 0 0 0
0.240699 0.0661909 -0.0152277 0 0 0
0.240503 0.0665004 -0.0150097 0 0 0
0.240889 0.066261 -0.0148985 0 0 0
0.240694 0.0665317 -0.0147024 0 0 0
0.241019 0.0663871 -0.0145201 0 0 0
0.240819 0.066686 -0.0143022 0 0 0
0.241217 0.0664185 -0.0142197 0 0 0
0.24105 0.0666432 -0.0140258 0 0 0
0.241428 0.0664128 -0.0139318 0 0 0
0.241213 0.0666523 -0.0137562 0 0 0
0.241604 0.0664458 -0.0136288 0 0 0
0.241415 0.0666498 -0.0134941 0 0 0
0.241682 0.0666287 -0.0132268 0 0 0
0.241274 0.0669495 -0.0133159 0 0 0
0.241513 0.0669411 -0.0130729 0 0 0
0.241389 0.0672639 -0.0129588 0 0 0
0.241738 0.0669191 -0.0128253 0 0 0
0.241651 0.0672988 -0.0127127 0 0 0
0.241985 0.0669084 -0.0125631 0 0 0
0.241897 0.067318 -0.0124547 0 0 0
0.242202 0.0670927 -0.0122746 0 0 0
0.242123 0.0674824 -0.0121735 0 0 0
0.24249 0.0671157 -0.0120556 0 0 0
0.242397 0.06748 -0.011944 0 0 0
0.242768 0.0671185 -0.0118239 0 0 0
0.242664 0.0674884 -0.011714 0 0 0
0.242937 0.0674931 -0.0114799 0 0 0
0.242609 0.0678696 -0.0116397 0 0 0
0.242875 0.0678756 -0.0114089 0 0 0
0.242544 0.0682572 -0.0115667 0 0 0
0.242832 0.0682591 -0.0113504 0 0 0
0.242515 0.0686564 -0.011505 0 0 0
0.242813 0.0686473 -0.0112964 0 0 0
0.242493 0.0690462 -0.0114514 0 0 0
0.242797 0.0690385 -0.0112473 0 0 0
0.242799 0.0691461 -0.0112381 0 0 0
0.24312 0.0690339 -0.0110506 2 1 0
0.243108 0.0695078 -0.0110015 2 2 0
0.243455 0.0694472 -0.0108295 10 8 2
0.243505 0.0698558 -0.0108316 10 8 1
0.243822 0.0698038 -0.0106432 21 17 11
0.243902 0.0701921 -0.0106676 20 17 10
0.24415 0.0697512 -0.0104543 26 21 15
0.244272 0.0701327 -0.0105118 24 21 14
0.244513 0.0696913 -0.0102981 38 32 23
0.244643 0.0700749 -0.0103644 38 32 22
0.244823 0.0696387 -0.0101016 48 44 34
0.244949 0.0700256 -0.0101573 47 45 33
0.244734 0.0692613 -0.01006 50 45 35
0.241914 0.0666264 -0.012952 0 0 0
0.242138 0.0665908 -0.0126964 0 0 0
0.242374 0.066609 -0.0124381 0 0 0
0.241624 0.0661834 -0.0141409 0 0 0
0.241416 0.0661229 -0.0144687 0 0 0
0.241165 0.0661415 -0.0147399 0 0 0
0.24109 0.0659737 -0.015113 0 0 0
0.240903 0.0659435 -0.0154047 0 0 0
0.240674 0.0659841 -0.0156146 0 0 0
0.240927 0.0658116 -0.0157372 0 0 0
0.240747 0.0658175 -0.0160129 0 0 0
0.241168 0.0656755 -0.0160114 0 0 0
0.240903 0.0657363 -0.0163098 0 0 0
0.241172 0.0657451 -0.0164783 0 0 0
0.240883 0.0658444 -0.0166903 0 0 0
0.241227 0.0658536 -0.0169498 0 0 0
0.240971 0.0659601 -0.0171627 0 0 0
0.241281 0.0660529 -0.0174062 0 0 0
0.241048 0.0661428 -0.0175944 0 0 0
0.241297 0.0663052 -0.017854 0 0 0
0.240858 0.0662518 -0.0178359 0 0 0
0.241026 0.0664443 -0.018128 0 0 0
0.241538 0.065937 -0.0171832 0 0 0
0.241511 0.0657434 -0.0167154 0 0 0
0.241488 0.0656585 -0.0162893 0 0 0
0.241552 0.0655816 -0.0159717 0 0 0
0.241434 0.0656069 -0.0156585 0 0 0
0.241729 0.0656278 -0.0164222 0 0 0
0.241852 0.0656962 -0.0166422 0 0 0
0.241795 0.0658398 -0.0169645 0 0 0
0.240747 0.0660623 -0.0174087 0 0 0
0.240283 0.0667693 -0.0147907 0 0 0
0.240034 0.0669651 -0.0145735 0 0 0
0.240094 0.0672276 -0.0141776 0 0 0
0.239964 0.0675454 -0.0140509 0 0 0
0.239884 0.0679377 -0.0139507 0 0 0
0.23982 0.0681999 -0.013878 0 0 0
0.240148 0.0679664 -0.0137083 0 0 0
0.240089 0.0682088 -0.0136427 0 0 0
0.240354 0.0682098 -0.0134058 0 0 0
0.240014 0.0685984 -0.0135543 0 0 0
0.240287 0.0685924 -0.0133239 0 0 0
0.240217 0.0689626 -0.0132479 0 0 0
0.240558 0.0685997 -0.0130902 0 0 0
0.240508 0.0689781 -0.0130281 0 0 0
0.240838 0.0686067 -0.0128584 0 0 0
0.240786 0.0690002 -0.0127877 0 0 0
0.241102 0.0686032 -0.0126282 0 0 0
0.24107 0.0690088 -0.0125652 0 0 0
0.24137 0.0685996 -0.0123987 0 0 0
0.241352 0.0690201 -0.0123408 0 0 0
0.241653 0.0686059 -0.0121784 0 0 0
0.241621 0.0690886 -0.0121094 0 0 0
0.24194 0.0686322 -0.0119447 0 0 0
0.241904 0.0690793 -0.0118839 0 0 0
0.242221 0.0686443 -0.011717 0 0 0
0.24219 0.0690631 -0.0116612 0 0 0
0.242241 0.068243 -0.0117645 0 0 0
0.242306 0.0678586 -0.0118444 0 0 0
0.242037 0.0678617 -0.0120772 0 0 0
0.241769 0.0678466 -0.0123162 0 0 0
0.241703 0.0682261 -0.01224 0 0 0
0.241434 0.0682203 -0.012468 0 0 0
0.241968 0.0682267 -0.0120045 0 0 0
0.239744 0.0685849 -0.0137847 0 0 0
0.239668 0.0689619 -0.0137026 0 0 0
0.239947 0.0689608 -0.0134819 0 0 0
0.23961 0.069337 -0.0136264 0 0 0
0.239906 0.0693368 -0.0134169 0 0 0
0.239897 0.0695595 -0.0133847 0 0 0
0.240193 0.0693617 -0.0131898 0 0 0
0.240184 0.0695536 -0.0131608 0 0 0
0.240462 0.0695417 -0.0129382 0 0 0
0.240439 0.0699351 -0.012887 0 0 0
0.240746 0.0695241 -0.0127188 0 0 0
0.240731 0.069926 -0.0126716 0 0 0
0.241026 0.0695037 -0.0124926 0 0 0
0.241015 0.0699047 -0.012447 0 0 0
0.241298 0.0697992 -0.012244 0 0 0
0.241337 0.0701952 -0.012228 0 0 0
0.241639 0.070151 -0.0120238 0 0 0
0.241662 0.0705604 -0.0120152 0 0 0
0.241976 0.0705103 -0.0118134 0 0 0
0.242036 0.0709031 -0.011825 0 0 0
0.242379 0.0708368 -0.0116515 0 0 0
0.242423 0.0712443 -0.0116737 0 0 0
0.242749 0.0711903 -0.0114979 0 0 0
0.242553 0.0715896 -0.0116697 0 0 0
0.242877 0.0715774 -0.0115213 0 0 0
0.240497 0.069131 -0.0130052 0 0 0
0.240777 0.0691312 -0.0127707 0 0 0
0.241053 0.069112 -0.0125461 0 0 0
0.241312 0.0694898 -0.0122748 0 0 0
0.241613 0.0694835 -0.0120683 0 0 0
0.241918 0.0694736 -0.0118572 0 0 0
0.242207 0.0694678 -0.0116315 0 0 0
0.242494 0.0691923 -0.0114391 0 0 0
0.242503 0.0695907 -0.0114075 0 0 0
0.242799 0.0695483 -0.0112005 0 0 0
0.242835 0.0699653 -0.0111933 0 0 0
0.243167 0.069913 -0.0110084 2 1 0
0.242906 0.070353 -0.0112138 0 0 0
0.243246 0.0703089 -0.0110344 2 2 0
0.243014 0.070746 -0.011239 0 0 0
0.243352 0.0706776 -0.0110644 1 1 0
0.243426 0.0710658 -0.0111203 0 0 0
0.243685 0.0706295 -0.0109011 9 8 0
0.243825 0.0710049 -0.0109718 10 7 1
0.244051 0.0705734 -0.0107394 19 16 9
0.244217 0.0709369 -0.0108418 21 17 9
0.2444 0.0705086 -0.0105826 23 20 12
0.244591 0.0708702 -0.0106953 23 19 11
0.244755 0.0704544 -0.0104195 36 32 23
0.244934 0.0708129 -0.0105148 33 30 22
0.245068 0.0704047 -0.0102136 44 43 34
0.245247 0.070779 -0.0102904 40 41 33
0.245457 0.0711696 -0.0104303 39 39 33
0.245152 0.0711558 -0.0106449 33 32 25
0.245384 0.0714379 -0.0107297 33 30 25
0.24509 0.0715614 -0.0109706 17 16 12
0.245548 0.071711 -0.0109191 23 24 21
0.245263 0.0718624 -0.0111605 6 8 9
0.245559 0.0720205 -0.0111798 9 16 19
0.245149 0.0722226 -0.0114096 2 5 5
0.245571 0.0722927 -0.0113609 5 10 10
0.245408 0.0725432 -0.0115991 4 6 6
0.24586 0.0725168 -0.0114631 6 13 15
0.24567 0.0727569 -0.0117813 1 6 9
0.246057 0.0727885 -0.0116994 5 15 18
0.245889 0.0730072 -0.0120281 1 7 8
0.246301 0.0729819 -0.011864 9 22 27
0.246579 0.0731607 -0.0119782 20 30 32
0.245454 0.073182 -0.0122063 0 0 0
0.245562 0.0729491 -0.0120001 1 2 3
0.245225 0.0728752 -0.0119281 2 3 2
0.245136 0.0734914 -0.0124156 0 0 0
0.245083 0.0732098 -0.0121837 0 0 0
0.244784 0.0734911 -0.0123064 0 0 0
0.244778 0.0731263 -0.0120976 2 2 2
0.24436 0.0734424 -0.012188 0 0 0
0.244427 0.0730256 -0.0119857 0 0 0
0.24421 0.073893 -0.012282 0 0 0
0.244821 0.0728474 -0.0119036 4 4 4
0.244568 0.072691 -0.0117898 0 0 0
0.244543 0.0723385 -0.0115925 5 5 4
0.244113 0.0720776 -0.0115104 1 1 0
0.243848 0.0717655 -0.0113614 0 0 0
0.24346 0.0717965 -0.0114439 0 0 0
0.243625 0.0714246 -0.011208 0 0 0
0.243248 0.0715006 -0.0113615 0 0 0
0.243057 0.0711433 -0.011294 0 0 0
0.242701 0.0707974 -0.0114368 0 0 0
0.242582 0.0704086 -0.0114031 0 0 0
0.242532 0.0700031 -0.0113931 0 0 0
0.242238 0.0700542 -0.0116074 0 0 0
0.242217 0.0696428 -0.0116241 0 0 0
0.241923 0.0696943 -0.0118391 0 0 0
0.244023 0.0713639 -0.0110857 9 7 1
0.244263 0.0716695 -0.0112469 7 5 1
0.244511 0.0719432 -0.0113777 4 2 0
0.244883 0.0719403 -0.0113008 6 5 3
0.244684 0.071596 -0.0111325 15 14 10
0.244813 0.0712153 -0.0108315 19 17 10
0.244429 0.0712813 -0.0109785 19 17 9
0.244917 0.0738389 -0.0125669 0 0 0
0.244574 0.0738561 -0.0123955 0 0 0
0.244772 0.0742173 -0.0126743 0 0 0
0.244431 0.0742913 -0.0124753 0 0 0
0.244606 0.0745235 -0.0127805 0 0 0
0.24573 0.0715436 -0.0105615 38 40 34
0.245973 0.0718882 -0.0107501 35 38 34
0.2462 0.0722135 -0.0108953 31 36 35
0.246453 0.0725366 -0.0109472 35 43 42
0.246586 0.0727783 -0.0111679 36 45 44
0.246859 0.0729986 -0.0111331 49 59 61
0.246775 0.0730383 -0.0114702 36 47 50
0.246994 0.0731709 -0.011425 40 50 53
0.247173 0.0733265 -0.0115928 41 52 55
0.245848 0.0719694 -0.0110024 20 24 23
0.245909 0.0722304 -0.0111756 20 26 27
0.243568 0.0702434 -0.0108497 10 7 2
0.241605 0.0697593 -0.012036 0 0 0
0.241939 0.0701076 -0.0118155 0 0 0
0.242279 0.0704603 -0.0116039 0 0 0
0.240512 0.0667743 -0.0145094 0 0 0
0.240311 0.0669559 -0.0143656 0 0 0
0.240563 0.0669465 -0.0141098 0 0 0
0.240349 0.0672193 -0.0139393 0 0 0
0.24061 0.0672419 -0.0136929 0 0 0
0.24023 0.0675456 -0.0138124 0 0 0
0.240503 0.0675834 -0.0135759 0 0 0
0.240443 0.0678326 -0.0135123 0 0 0
0.240767 0.0676237 -0.0133302 0 0 0
0.240726 0.0678475 -0.0132841 0 0 0
0.240982 0.0678347 -0.0130316 0 0 0
0.240897 0.0682159 -0.0129393 0 0 0
0.241156 0.0682098 -0.0127022 0 0 0
0.241509 0.0678468 -0.0125575 0 0 0
0.241851 0.0674782 -0.0124089 0 0 0
0.240628 0.0682209 -0.0131713 0 0 0
0.240951 0.0675724 -0.0192413 0 0 0
0.241187 0.067432 -0.0189882 0 0 0
0.241441 0.0673331 -0.0187484 0 0 0
0.2417 0.0672322 -0.0185269 0 0 0
0.241549 0.0669252 -0.0184164 0 0 0
0.241963 0.0671111 -0.018294 0 0 0
0.241784 0.0667907 -0.0181971 0 0 0
0.242118 0.0667818 -0.0180346 0 0 0
0.242036 0.0666158 -0.0179723 0 0 0
0.242365 0.0665431 -0.017788 0 0 0
0.242606 0.0663854 -0.017528 0 0 0
0.242584 0.0660532 -0.017112 0 0 0
0.242568 0.0657773 -0.0166783 0 0 0
0.242564 0.0655875 -0.0162559 0 0 0
0.24253 0.0654455 -0.0158424 0 0 0
0.242319 0.0654135 -0.0156379 0 0 0
0.244112 0.0653026 -0.0130788 0 0 0
0.244309 0.0653284 -0.0127588 5 3 0
0.244356 0.0651697 -0.0131839 2 1 0
0.244576 0.065144 -0.0129532 6 5 1
0.244534 0.0650486 -0.0134009 3 3 0
0.244763 0.0650232 -0.0131304 9 6 1
0.24485 0.0649781 -0.013634 9 6 1
0.245072 0.0649128 -0.0133738 16 12 5
0.245152 0.0649668 -0.0138762 16 11 4
0.245373 0.0648983 -0.0136087 23 17 9
0.245435 0.0650209 -0.0140934 32 22 12
0.245693 0.0649075 -0.0138569 35 26 15
0.245736 0.0651115 -0.014318 46 33 18
0.24608 0.0648458 -0.0141385 40 32 22
0.246058 0.0652091 -0.014554 67 50 30
0.246404 0.0648427 -0.0143877 76 60 37
0.24629 0.0652599 -0.0146997 84 64 37
0.246782 0.0648769 -0.0146391 114 98 74
0.24675 0.0654302 -0.0149586 123 100 63
0.247134 0.0651586 -0.0148784 122 109 83
0.247006 0.0656332 -0.0151451 125 109 80
0.247328 0.0654552 -0.0150215 132 120 92
0.247195 0.0659595 -0.0152912 128 112 83
0.247546 0.065841 -0.0151773 123 114 91
0.247391 0.066286 -0.0154013 131 120 93
0.247716 0.0661814 -0.0152839 139 127 101
0.247558 0.0666417 -0.0154756 138 125 94
0.247907 0.0665221 -0.0153683 132 122 96
0.248035 0.0668867 -0.0154817 121 113 90
0.248372 0.0667709 -0.0153361 129 121 100
0.248474 0.0671014 -0.0154408 120 112 96
0.248842 0.0670463 -0.0152767 134 123 107
0.248632 0.0674316 -0.0154979 117 108 95
0.248975 0.0674503 -0.0153546 129 120 106
0.248762 0.0678147 -0.0155634 111 101 88
0.249111 0.0678014 -0.0154028 128 120 107
0.248876 0.0681891 -0.0156127 111 102 89
0.249236 0.0681874 -0.0154781 121 113 102
0.248948 0.0686113 -0.015679 107 101 87
0.24936 0.0685577 -0.0155523 116 109 99
0.249104 0.0689938 -0.0157336 102 96 85
0.24951 0.0689261 -0.0156275 116 110 102
0.249268 0.0693425 -0.0158063 101 94 85
0.249672 0.0692892 -0.0157307 107 102 93
0.24941 0.0696955 -0.0158772 97 91 81
0.249829 0.0696618 -0.0158193 104 98 89
0.24952 0.070065 -0.0159244 98 93 82
0.249958 0.0700536 -0.0158623 102 96 89
0.249616 0.0704907 -0.0159359 100 93 82
0.250066 0.0704523 -0.0158834 101 92 83
0.250041 0.0708075 -0.0158833 101 92 83
0.250471 0.0707343 -0.0157888 98 89 83
0.25007 0.0710239 -0.0158556 100 90 81
0.250484 0.0711024 -0.0157534 102 92 83
0.250075 0.0714611 -0.01578 103 91 80
0.250472 0.0715395 -0.0156895 102 92 84
0.250023 0.0718475 -0.0156726 105 93 81
0.250425 0.0719483 -0.0155956 102 91 83
0.249909 0.0721776 -0.0155362 107 91 80
0.250306 0.0722986 -0.0154538 103 91 82
0.250163 0.0726206 -0.015282 108 94 83
0.250589 0.0725825 -0.0152285 105 96 89
0.250418 0.0728961 -0.0150407 107 95 89
0.250908 0.0726709 -0.0150445 105 95 89
0.250726 0.0730041 -0.0148624 108 97 90
0.25119 0.0727414 -0.0148304 104 93 89
0.251019 0.0730746 -0.0146658 106 97 90
0.251458 0.0727709 -0.0145982 107 92 90
0.251292 0.0731045 -0.0144404 109 95 89
0.251702 0.0727915 -0.0143427 108 92 87
0.251525 0.073091 -0.0141779 112 97 91
0.251709 0.0730328 -0.013879 113 94 86
0.251501 0.0733211 -0.0136862 121 103 94
0.251899 0.072983 -0.0135856 122 99 89
0.251677 0.0732551 -0.0133874 124 104 94
0.251871 0.073202 -0.013105 123 98 89
0.251535 0.0733897 -0.013267 122 104 93
0.251724 0.0733237 -0.0129746 122 103 93
0.251268 0.073611 -0.0130352 125 110 98
0.251444 0.0735173 -0.0127415 119 103 93
0.251181 0.0737026 -0.0125193 126 112 99
0.251657 0.073453 -0.0124569 117 98 87
0.251333 0.0736419 -0.0121966 121 106 94
0.251885 0.0734157 -0.0121772 107 78 76
0.251543 0.0735904 -0.0119055 112 93 87
0.251762 0.0735785 -0.0116256 107 75 67
0.251239 0.0737343 -0.0116686 111 94 88
0.251465 0.0736988 -0.0113946 111 83 69
0.250954 0.0738584 -0.0114399 116 102 90
0.251158 0.0737975 -0.0111505 115 89 76
0.250963 0.0738625 -0.0109943 120 95 81
0.251383 0.073765 -0.0108757 108 77 64
0.251168 0.073808 -0.0107142 109 80 68
0.251389 0.0737891 -0.0104389 105 72 58
0.250852 0.0738515 -0.0104658 114 88 74
0.251057 0.0737817 -0.0101818 111 79 62
0.250534 0.0738799 -0.0102086 117 95 79
0.250741 0.073763 -0.00994048 118 89 69
0.25033 0.0740554 -0.010472 119 102 84
0.25012 0.0742523 -0.0107276 113 107 94
0.249788 0.0743219 -0.0104689 121 113 97
0.249737 0.0745056 -0.0108696 123 115 98
0.249492 0.0746441 -0.0111184 123 118 106
0.249187 0.0745629 -0.0108747 124 119 107
0.249115 0.0746016 -0.0112557 119 115 103
0.249002 0.074539 -0.0111609 119 115 103
0.248911 0.0744821 -0.0115272 121 119 107
0.248811 0.0744411 -0.0114517 116 117 106
0.248651 0.0743058 -0.011773 109 110 101
0.24849 0.0741575 -0.0121066 105 107 99
0.248324 0.0740366 -0.0124385 77 86 83
0.248157 0.0739094 -0.0127634 67 78 78
0.248412 0.0739584 -0.012926 81 85 79
0.248054 0.073816 -0.0131383 59 66 64
0.24837 0.0738336 -0.0133581 77 82 75
0.248095 0.0736999 -0.0136199 54 59 56
0.248407 0.0736633 -0.0138532 68 72 69
0.248049 0.0735322 -0.0140373 53 51 46
0.248349 0.073446 -0.0142344 73 74 65
0.248049 0.0733315 -0.0144658 46 44 36
0.248474 0.0733955 -0.0143762 74 75 66
0.248327 0.0731562 -0.0146971 63 55 44
0.248642 0.0733364 -0.0144727 77 74 65
0.248522 0.0730203 -0.0148319 74 68 53
0.248929 0.0731697 -0.0146891 91 86 74
0.248764 0.0728087 -0.0150371 83 77 65
0.249209 0.0729989 -0.014902 98 91 79
0.249084 0.0725858 -0.0152324 98 89 77
0.249516 0.0727946 -0.0151242 108 96 82
0.249581 0.0727523 -0.0151781 107 95 82
0.249879 0.0729778 -0.014989 110 99 86
0.250079 0.0727621 -0.0151878 109 95 83
0.250212 0.073137 -0.0148348 114 103 91
0.250534 0.0732683 -0.014672 111 99 91
0.250824 0.0733459 -0.0144827 107 97 89
0.251096 0.0733994 -0.014258 109 96 91
0.251328 0.0734008 -0.0139959 118 104 97
0.249761 0.0725141 -0.0153684 106 92 82
0.249268 0.0723436 -0.015396 105 93 78
0.248737 0.0721781 -0.0154119 104 93 70
0.248528 0.0724791 -0.015299 85 75 53
0.248248 0.0720724 -0.0154851 101 82 53
0.248058 0.0723507 -0.0152995 94 69 37
0.247715 0.0719096 -0.0154801 98 70 29
0.247487 0.0722717 -0.0153738 66 38 17
0.24715 0.0718668 -0.0157031 42 23 6
0.247015 0.0722227 -0.0156022 32 20 7
0.246731 0.0721757 -0.0158446 19 11 2
0.246677 0.0725187 -0.0157172 14 8 0
0.246396 0.0725363 -0.0160112 4 2 0
0.246436 0.0729013 -0.0158641 7 4 0
0.246096 0.0728321 -0.0163131 0 0 0
0.246183 0.073156 -0.0161339 1 1 0
0.245854 0.073247 -0.0164625 0 0 0
0.246064 0.0734979 -0.0161171 2 1 0
0.245766 0.0736575 -0.0164063 0 0 0
0.245855 0.0739036 -0.0161266 0 0 0
0.24553 0.0740629 -0.0164578 0 0 0
0.245624 0.0742936 -0.0161082 0 0 0
0.245328 0.0739725 -0.0167518 0 0 0
0.245081 0.073976 -0.0169651 0 0 0
0.24528 0.0736927 -0.0169154 0 0 0
0.24497 0.0737299 -0.0171452 0 0 0
0.245162 0.0733528 -0.0170944 0 0 0
0.244795 0.0734554 -0.0173564 0 0 0
0.244815 0.0731044 -0.0174023 0 0 0
0.244491 0.0732575 -0.017627 0 0 0
0.244449 0.0729063 -0.0177243 0 0 0
0.244489 0.0736046 -0.0175585 0 0 0
0.244697 0.0737874 -0.0173195 0 0 0
0.248266 0.072743 -0.0150908 63 51 37
0.248135 0.0728833 -0.0149666 59 48 35
0.247888 0.0730886 -0.0148015 39 32 26
0.247579 0.0732734 -0.0146154 35 32 24
0.247753 0.0734455 -0.0142385 36 33 26
0.247477 0.073426 -0.0143393 27 25 19
0.24751 0.0735362 -0.014012 36 31 23
0.247233 0.0734596 -0.0142142 27 24 19
0.247268 0.0735318 -0.0138199 30 25 18
0.247073 0.0735041 -0.0139639 23 21 15
0.246868 0.0735148 -0.0136711 25 19 11
0.246841 0.0735361 -0.0141759 19 16 11
0.246595 0.0736199 -0.0139528 16 13 8
0.246444 0.0737326 -0.0142847 7 8 7
0.246297 0.0737525 -0.0139707 5 2 1
0.246095 0.0739304 -0.0141994 1 0 0
0.246078 0.0738644 -0.0137797 4 0 0
0.245899 0.0740913 -0.0139554 0 0 0
0.245809 0.0740359 -0.013574 1 0 0
0.245725 0.0742843 -0.0138847 0 0 0
0.245555 0.0743345 -0.0135912 0 0 0
0.245488 0.0745358 -0.0139082 0 0 0
0.245145 0.0747277 -0.0136179 0 0 0
0.244788 0.0749482 -0.0136966 0 0 0
0.245018 0.0749647 -0.0140382 0 0 0
0.245231 0.0749013 -0.0143342 0 0 0
0.245515 0.0746693 -0.0145909 0 0 0
0.24585 0.0743095 -0.0149188 0 0 0
0.245782 0.0743334 -0.0154249 0 0 0
0.245589 0.0744878 -0.0157059 0 0 0
0.245877 0.0741367 -0.0157954 0 0 0
0.247005 0.0734318 -0.0145378 17 17 13
0.24681 0.0735148 -0.0145064 11 10 9
0.246654 0.0735747 -0.0147809 8 6 3
0.246659 0.0736006 -0.0144576 8 7 5
0.246473 0.0737235 -0.0145723 3 2 1
0.24621 0.073936 -0.0146385 1 0 0
0.245846 0.0742522 -0.0143232 0 0 0
0.245641 0.0744965 -0.0144093 0 0 0
0.245375 0.0747583 -0.0141909 0 0 0
0.245175 0.074825 -0.0138743 0 0 0
0.246311 0.073798 -0.0150726 3 2 0
0.24608 0.0739751 -0.0154253 1 1 0
0.247828 0.0735934 -0.0138537 47 45 38
0.247784 0.0736789 -0.0133916 39 46 45
0.247888 0.0737907 -0.0130112 49 58 60
0.247528 0.0736094 -0.0136175 35 34 30
0.247494 0.0736351 -0.0131608 35 39 35
0.247567 0.0737162 -0.0127868 42 48 47
0.247236 0.0735537 -0.0134273 34 35 30
0.247325 0.0736198 -0.0130663 30 36 33
0.24713 0.0735763 -0.0128629 25 30 30
0.246792 0.0735063 -0.0125791 17 23 25
0.246482 0.0734368 -0.0128016 12 16 16
0.246233 0.0734858 -0.0129524 2 3 4
0.245988 0.0734598 -0.0128206 1 0 1
0.245815 0.0735838 -0.0130657 1 2 3
0.245804 0.0737661 -0.0133047 1 2 3
0.245572 0.074127 -0.0133475 0 0 0
0.246967 0.0735442 -0.0132217 25 26 24
0.247777 0.0726981 -0.0150964 72 57 39
0.247351 0.0726552 -0.0152601 60 37 19
0.24748 0.0729958 -0.0149703 47 32 22
0.247071 0.0729955 -0.0151685 32 21 10
0.247106 0.0732619 -0.014846 21 17 10
0.246699 0.0733544 -0.0151294 13 9 2
0.247283 0.0733465 -0.0145396 22 22 17
0.249434 0.0720416 -0.0155764 105 90 76
0.248911 0.0719001 -0.015565 105 94 76
0.248414 0.0717195 -0.0155941 106 87 52
0.247886 0.0715866 -0.0156239 90 54 26
0.247387 0.0715381 -0.015762 65 40 16
0.247013 0.0714125 -0.0160205 35 22 6
0.246775 0.0718022 -0.0159802 16 11 0
0.246687 0.071482 -0.0162272 19 12 1
0.246517 0.0717577 -0.0162043 13 9 0
0.246397 0.0714525 -0.0164744 4 2 0
0.246289 0.0718623 -0.0163969 5 4 0
0.246055 0.0717717 -0.0166504 0 0 0
0.246014 0.072151 -0.0165735 0 0 0
0.245752 0.0721014 -0.0168165 0 0 0
0.24573 0.0723144 -0.0167911 0 0 0
0.24541 0.0720721 -0.0171289 0 0 0
0.245421 0.0724419 -0.0170388 0 0 0
0.245063 0.07224 -0.0173697 0 0 0
0.245097 0.0725951 -0.0172737 0 0 0
0.244739 0.0723985 -0.0176013 0 0 0
0.244776 0.0727552 -0.0175024 0 0 0
0.244408 0.0725606 -0.0178243 0 0 0
0.245139 0.0729575 -0.0171812 0 0 0
0.245459 0.0727812 -0.016958 0 0 0
0.245776 0.0726363 -0.016701 0 0 0
0.246093 0.0724287 -0.0163977 1 1 0
0.24623 0.0721712 -0.0163429 5 3 0
0.246454 0.0721467 -0.0161113 8 5 0
0.24577 0.072943 -0.0166476 0 0 0
0.245496 0.0731361 -0.016855 0 0 0
0.245533 0.0734658 -0.0167388 0 0 0
0.245516 0.07377 -0.0166456 0 0 0
0.244379 0.065488 -0.0123163 9 7 2
0.24434 0.0656838 -0.0118638 15 12 7
0.244071 0.0658044 -0.0116203 19 15 8
0.244554 0.0656676 -0.0115874 31 24 16
0.24429 0.0658258 -0.0113426 31 25 16
0.244769 0.0656513 -0.0112897 47 39 28
0.244505 0.065827 -0.0110537 44 37 25
0.245005 0.0657022 -0.0110303 72 54 37
0.244727 0.0658495 -0.0107866 66 51 37
0.245239 0.0657156 -0.0107562 81 62 45
0.244943 0.065847 -0.0105189 74 56 41
0.245346 0.0657238 -0.010395 107 82 61
0.245044 0.0658977 -0.0101493 91 75 59
0.245529 0.0656516 -0.0101015 137 112 84
0.245286 0.0659024 -0.00989234 124 97 85
0.245544 0.0659177 -0.00964605 127 126 115
0.245178 0.0662599 -0.00977604 96 99 84
0.245449 0.0663241 -0.00953119 130 130 109
0.245133 0.0667319 -0.00969916 113 106 81
0.245413 0.0667474 -0.00947139 133 126 103
0.245104 0.0671414 -0.00964062 119 102 77
0.245371 0.067133 -0.00940098 132 122 99
0.245102 0.0675609 -0.00959921 116 100 74
0.245349 0.0675458 -0.00935373 135 121 98
