ply
format ascii 1.0
element vertex 1273
property float x
property float y
property float z
property uchar diffuse_red
property uchar diffuse_green
property uchar diffuse_blue
end_header
0.31583 0.0630033 0.0171746 102 82 14
0.315912 0.0629231 0.0167131 100 81 15
0.315998 0.0628449 0.0162626 99 81 14
0.316045 0.062843 0.0162724 99 81 14
0.316092 0.0627924 0.0158736 99 81 14
0.316442 0.0628011 0.0159252 99 81 15
0.31649 0.0627527 0.0155252 99 82 15
0.316839 0.0627723 0.0155674 99 81 15
0.316888 0.0627295 0.0151715 99 82 15
0.317236 0.0627647 0.0152092 99 82 15
0.317631 0.0627735 0.0148457 101 84 16
0.318019 0.06278 0.0144901 101 84 16
0.317978 0.0628234 0.0148855 100 83 16
0.317928 0.0628749 0.015288 98 81 15
0.317585 0.062819 0.0152532 99 82 15
0.317878 0.0629275 0.0156789 97 80 15
0.317537 0.0628566 0.0156427 98 80 15
0.317489 0.0629068 0.0160403 97 80 15
0.317145 0.0628524 0.0160018 98 81 15
0.316796 0.0628187 0.0159653 99 81 14
0.316398 0.0628523 0.0163117 99 81 14
0.317191 0.0628061 0.0156073 100 81 15
0.315439 0.0630827 0.0175587 101 82 15
0.315432 0.0629859 0.0171054 101 82 14
0.314507 0.0629346 0.0164278 98 81 17
0.31409 0.0629875 0.0162979 99 82 20
0.313676 0.0630699 0.0161619 96 81 20
0.313322 0.0632226 0.0159724 101 84 23
0.313435 0.0631647 0.0165439 98 81 21
0.313101 0.0633102 0.0162978 102 84 23
0.313216 0.0632675 0.0169163 96 79 19
0.312848 0.063403 0.01665 98 81 23
0.313033 0.0634102 0.0172885 96 77 18
0.312652 0.0635212 0.0171205 97 79 20
0.312846 0.0635466 0.0177128 94 75 18
0.312416 0.0636696 0.0175413 90 78 22
0.312012 0.06386 0.0172699 99 81 25
0.312397 0.0636203 0.016966 101 81 25
0.312093 0.0638513 0.0166914 101 81 25
0.312471 0.0636522 0.0163744 102 82 25
0.311969 0.06411 0.0163474 102 81 26
0.312315 0.0639267 0.0160513 103 83 28
0.311961 0.064391 0.0160022 102 82 26
0.312315 0.0642134 0.0156768 102 81 27
0.312038 0.0647131 0.0156746 101 79 24
0.312342 0.0645279 0.0153604 100 79 27
0.312158 0.0650285 0.0153579 103 79 27
0.312409 0.0648269 0.0150871 96 76 27
0.312268 0.065339 0.0150575 108 83 29
0.312505 0.0651249 0.0147743 104 83 34
0.312412 0.0656447 0.0146793 120 95 45
0.312615 0.0654391 0.0143731 109 88 44
0.312474 0.0659364 0.0142928 117 99 56
0.312635 0.0657172 0.0140332 111 94 53
0.312454 0.0661942 0.0139532 115 102 66
0.31264 0.0659773 0.0136984 104 91 57
0.312374 0.0664306 0.0136532 112 103 74
0.312578 0.0662235 0.0134045 101 92 64
0.312255 0.0666346 0.0133146 113 109 88
0.31251 0.0664551 0.0130358 101 97 77
0.312088 0.0668111 0.0130207 120 115 95
0.312355 0.0666382 0.0127439 109 106 86
0.312188 0.0668286 0.0124415 107 109 91
0.312568 0.0664865 0.0124997 89 93 80
0.312432 0.0666862 0.0121777 91 93 80
0.312714 0.0662692 0.0122637 75 71 57
0.31263 0.0665029 0.0119335 83 84 74
0.312777 0.0662645 0.0117328 68 66 56
0.312584 0.0667485 0.0115958 89 89 75
0.312748 0.0665339 0.0113805 73 72 59
0.31259 0.067006 0.0112427 97 97 83
0.312745 0.0668041 0.0110166 95 89 66
0.312779 0.0669053 0.0108931 93 92 72
0.312888 0.0665462 0.0108371 71 68 53
0.312929 0.0666515 0.0107083 64 61 46
0.312931 0.066214 0.0106573 61 56 38
0.313003 0.0664628 0.0103864 68 61 38
0.312915 0.0659068 0.0104562 50 42 20
0.313061 0.0662738 0.0100827 62 52 24
0.313021 0.0658979 0.00990786 50 39 14
0.313263 0.0668999 0.00989493 69 57 28
0.313281 0.0672692 0.00998535 76 70 45
0.313633 0.067543 0.00973245 97 89 58
0.313534 0.0677482 0.00994493 104 96 68
0.314011 0.0677421 0.00956341 106 98 64
0.313602 0.0678687 0.00991472 97 92 67
0.313914 0.0681267 0.00975887 112 105 78
0.313532 0.0681442 0.0099478 103 100 78
0.313869 0.0682906 0.00978913 113 108 81
0.313475 0.0684714 0.00992995 100 97 80
0.313778 0.0687503 0.00977563 124 119 95
0.313381 0.0689821 0.00983205 101 100 89
0.313726 0.0689804 0.0097345 120 120 99
0.313317 0.0692615 0.00973384 103 98 84
0.313647 0.0693449 0.00968199 124 121 102
0.313232 0.069671 0.00962529 122 117 101
0.313577 0.0697416 0.00959822 137 130 108
0.313505 0.0701277 0.00951839 151 146 120
0.313171 0.067519 0.0101672 91 89 71
0.313214 0.0675936 0.010134 91 89 71
0.313153 0.0681046 0.0101618 98 100 83
0.312656 0.0672221 0.0109199 101 103 90
0.313054 0.0676018 0.0103157 98 96 77
0.312676 0.0677109 0.0106988 108 110 102
0.312835 0.0678688 0.0104844 107 108 90
0.312415 0.0681239 0.0106496 101 104 99
0.312788 0.0681346 0.0104052 108 110 97
0.312352 0.068477 0.0104417 88 93 90
0.31271 0.0684964 0.0102757 91 96 90
0.312303 0.0688467 0.0101783 81 87 83
0.312662 0.0688849 0.0100745 86 94 88
0.312252 0.0691973 0.00994222 74 79 77
0.312626 0.0692933 0.00982154 77 80 78
0.312186 0.0695204 0.00974778 76 78 79
0.312537 0.0695197 0.00970629 89 91 85
0.312462 0.0699485 0.00955195 112 108 97
0.312882 0.0695973 0.00962942 112 112 99
0.312811 0.0700145 0.00952614 128 126 110
0.313157 0.0700844 0.00950845 144 139 118
0.313431 0.0705098 0.00946431 158 149 124
0.313089 0.0704493 0.00945095 146 138 115
0.312742 0.0703907 0.00946338 139 135 114
0.312323 0.0707135 0.00938733 138 123 100
0.311925 0.0709989 0.00923493 136 113 90
0.311855 0.0714015 0.0091431 133 102 77
0.311528 0.0713091 0.00904068 124 79 55
0.311462 0.0716807 0.00894555 115 69 46
0.31113 0.0715958 0.00885799 107 59 40
0.311059 0.0719971 0.00876284 102 49 33
0.310795 0.0715174 0.00878326 109 61 41
0.310716 0.0720112 0.00865352 100 47 30
0.31045 0.0714886 0.00871356 91 38 23
0.310379 0.0719179 0.00857542 88 30 17
0.310043 0.0718337 0.00852884 82 27 15
0.310332 0.0721993 0.00849885 82 26 14
0.309974 0.0722477 0.00839797 79 20 11
0.310261 0.0726027 0.00841266 79 21 10
0.309932 0.0725166 0.00833017 76 17 9
0.309862 0.0729046 0.00822771 72 13 7
0.309536 0.0728042 0.0081379 70 9 5
0.309467 0.073194 0.00804659 69 9 6
0.309162 0.072899 0.00802572 69 8 5
0.309133 0.0731076 0.00796437 69 9 6
0.308792 0.0730341 0.00791645 66 8 6
0.308722 0.0734288 0.00781511 66 8 6
0.30842 0.0731491 0.00782254 66 8 5
0.30839 0.073352 0.00777215 66 9 5
0.308046 0.0732761 0.00772401 62 8 5
0.30798 0.0736732 0.00763141 63 7 5
0.307669 0.0734317 0.00762699 64 8 5
0.307644 0.0735972 0.0075871 64 9 5
0.307331 0.0733574 0.00760051 62 8 6
0.307254 0.0737878 0.00746397 65 9 6
0.306922 0.0737104 0.00742686 64 9 6
0.306893 0.0738431 0.00739582 65 10 6
0.306577 0.0736358 0.00740724 65 9 6
0.306508 0.0740563 0.00728107 65 9 6
0.306221 0.073595 0.00739517 62 9 5
0.306161 0.0740023 0.00725194 64 9 6
0.305873 0.0735667 0.00740871 61 9 5
0.305813 0.0739511 0.00724604 64 10 6
0.30551 0.073544 0.0074222 58 7 4
0.305459 0.0739031 0.00724718 62 9 5
0.30512 0.0738039 0.00728622 59 8 5
0.305044 0.0742459 0.00707185 62 9 5
0.304746 0.0738181 0.00729322 57 7 4
0.304689 0.0742261 0.00709379 61 7 4
0.304389 0.0738086 0.00731796 55 6 4
0.304333 0.0742179 0.00711326 57 7 4
0.304023 0.0738128 0.00733032 49 4 3
0.303977 0.0741973 0.00713964 52 5 3
0.303649 0.0738541 0.00736111 49 3 1
0.303608 0.0741899 0.0071827 48 3 2
0.303275 0.0738962 0.00741612 45 2 1
0.303229 0.0742027 0.00725534 48 3 2
0.30289 0.07397 0.00746829 44 3 1
0.302857 0.0742407 0.00732594 44 2 2
0.30248 0.0742763 0.00743013 45 2 1
0.302798 0.074637 0.0071793 47 3 2
0.302425 0.0746871 0.00728243 47 3 1
0.302722 0.0750808 0.00708359 50 3 2
0.302357 0.0751217 0.00716766 51 4 3
0.302663 0.0755138 0.00698649 54 5 3
0.302293 0.0755233 0.00706564 55 5 2
0.302588 0.0759523 0.006898 60 6 4
0.302217 0.0759657 0.00696513 59 5 3
0.302566 0.076083 0.00686331 60 6 4
0.302159 0.076378 0.00684895 63 6 4
0.302512 0.0764672 0.00676843 63 6 5
0.302081 0.0768476 0.00675868 64 8 5
0.302442 0.0768695 0.00669889 64 7 5
0.302402 0.0771334 0.00667837 64 7 4
0.302751 0.0771761 0.00659157 65 8 6
0.302679 0.0775604 0.00659012 63 7 5
0.30303 0.0776162 0.00655642 62 6 4
0.302943 0.0780154 0.00657423 61 7 3
0.303324 0.0779152 0.00654428 63 7 4
0.310664 0.0722935 0.00859067 97 41 26
0.309059 0.0735129 0.00788883 67 9 5
0.308657 0.0738223 0.00773584 66 9 5
0.308238 0.0742072 0.00758933 65 8 5
0.308173 0.0745917 0.00752726 65 8 5
0.308099 0.0749724 0.00746483 65 9 5
0.307762 0.0748977 0.00738673 65 9 5
0.308038 0.0753439 0.00740881 65 8 5
0.307696 0.0752915 0.00731542 65 9 5
0.30797 0.075733 0.00736056 65 8 4
0.307625 0.0756789 0.00726254 65 9 5
0.307893 0.0761411 0.00732988 65 9 4
0.307553 0.0760825 0.00722657 65 9 5
0.307826 0.0764694 0.00733532 64 8 4
0.307474 0.0764748 0.0072206 64 8 4
0.307749 0.0768821 0.00734906 62 8 3
0.307403 0.0768517 0.00721737 64 8 4
0.30767 0.0772879 0.00737188 62 7 3
0.307325 0.0772453 0.00724848 62 7 3
0.307603 0.0775919 0.00742547 61 7 4
0.307247 0.0776533 0.00728019 62 8 4
0.308318 0.0737489 0.00767777 65 8 5
0.307913 0.0740738 0.00754403 66 8 5
0.307842 0.0744668 0.00746016 65 9 6
0.307506 0.0743873 0.00740211 66 9 6
0.307431 0.0748276 0.00730117 66 10 6
0.307104 0.0746972 0.00724832 67 10 6
0.307024 0.0751447 0.00716089 66 10 6
0.306683 0.0750821 0.00711339 67 9 7
0.306614 0.075469 0.00704972 67 9 6
0.306273 0.0754016 0.00699866 66 9 7
0.306205 0.0757874 0.00693799 65 9 7
0.305864 0.0757131 0.0068744 65 11 7
0.305796 0.0761048 0.00682426 66 10 7
0.305454 0.0760392 0.00676223 65 11 7
0.30538 0.0764351 0.0067247 67 10 7
0.30504 0.0763634 0.00667787 68 11 7
0.304973 0.076759 0.00665285 65 10 6
0.304626 0.0766875 0.00661711 67 11 7
0.304545 0.077086 0.00661107 67 10 6
0.304212 0.0770148 0.00656375 66 10 7
0.304132 0.0774095 0.00656468 65 10 6
0.303872 0.0769463 0.00651927 65 11 7
0.303792 0.0773458 0.00652877 66 9 6
0.303527 0.0768896 0.00653769 65 9 5
0.303447 0.0772874 0.00653104 63 9 7
0.303153 0.0769203 0.00657799 63 9 6
0.303102 0.0772318 0.00655289 64 9 7
0.302807 0.0769015 0.00662578 64 9 7
0.302871 0.0764829 0.00668673 63 8 6
0.302933 0.0760965 0.00677647 63 7 5
0.302967 0.0759209 0.00681528 61 7 4
0.303034 0.0754885 0.00690687 59 6 4
0.303101 0.0750426 0.00700335 54 4 3
0.303168 0.0746157 0.0071077 51 3 2
0.303231 0.0764983 0.00661219 64 9 6
0.3033 0.0761117 0.00668224 64 8 5
0.303363 0.0757195 0.00678003 61 6 4
0.303405 0.0754618 0.00683603 60 6 4
0.30348 0.0750232 0.00692453 55 6 3
0.303547 0.0745889 0.00702712 50 3 2
0.303592 0.07653 0.00657449 65 9 6
0.303653 0.0761414 0.00664528 65 9 6
0.303723 0.0757457 0.00671601 63 9 6
0.303776 0.0754447 0.0067723 62 7 5
0.303843 0.0750163 0.00686688 58 6 4
0.303918 0.0745858 0.00698491 56 5 4
0.303937 0.0765885 0.00656718 67 11 6
0.304006 0.0761837 0.00660642 66 10 7
0.304076 0.0757746 0.0066734 66 9 6
0.304129 0.0754731 0.00673198 64 9 6
0.304206 0.0750307 0.00683746 63 8 4
0.304281 0.0746091 0.006957 59 7 5
0.304285 0.076627 0.00657862 67 10 7
0.30436 0.0762327 0.00661226 68 11 8
0.304431 0.0758122 0.00666953 66 10 7
0.3045 0.0754271 0.0067444 66 10 6
0.30456 0.0750497 0.00680498 64 10 6
0.30463 0.0746192 0.00693619 62 8 6
0.303368 0.0776764 0.00655142 61 7 4
0.303713 0.0777442 0.00654487 62 8 5
0.30409 0.077634 0.00657539 64 10 6
0.304458 0.0775509 0.00661587 66 10 6
0.304879 0.0772249 0.00666438 65 10 6
0.305312 0.0768258 0.0066962 66 10 6
0.305721 0.0764984 0.00678137 63 10 7
0.306129 0.076175 0.00687965 64 10 6
0.306538 0.0758583 0.00700254 64 10 6
0.306952 0.0755356 0.00711185 66 9 6
0.307362 0.0752127 0.00723636 65 10 6
0.307288 0.0756192 0.00717783 65 9 6
0.307213 0.0760117 0.00713801 65 9 5
0.307138 0.0764152 0.00710363 63 9 6
0.307064 0.0768146 0.0071035 65 9 4
0.306988 0.0772261 0.00711384 63 8 4
0.306905 0.0776298 0.00714435 61 8 4
0.306869 0.0759557 0.00705456 64 9 6
0.306465 0.0762928 0.00692961 63 9 6
0.3068 0.0763577 0.00701075 65 10 6
0.306727 0.0767483 0.00698544 64 9 6
0.306048 0.07663 0.00681905 64 10 7
0.306389 0.0766934 0.00689573 65 9 5
0.306318 0.0770864 0.00689932 64 9 6
0.306643 0.0771894 0.00699736 64 8 4
0.305633 0.0769628 0.00675485 63 9 5
0.305975 0.0770188 0.00681974 64 9 5
0.305896 0.077407 0.00683954 62 8 5
0.306225 0.0775447 0.00692628 61 8 5
0.306564 0.0775865 0.00702364 62 7 4
0.305795 0.0779073 0.00689349 62 7 5
0.305451 0.077855 0.00682519 63 8 5
0.305109 0.0778032 0.00675463 62 8 6
0.304723 0.0780006 0.00671185 62 9 5
0.304373 0.0779386 0.00664614 63 9 6
0.30553 0.0774551 0.00677571 62 8 5
0.305134 0.0776757 0.00674491 63 8 5
0.304793 0.0776123 0.00668326 63 9 5
0.305213 0.0772874 0.00672014 64 9 5
0.305554 0.0773504 0.00677042 63 8 6
0.307573 0.0739868 0.00749089 67 8 6
0.30717 0.0743037 0.00734611 66 9 6
0.306759 0.0746288 0.0072034 66 10 7
0.306356 0.0749475 0.00706476 68 10 7
0.305945 0.0752767 0.00694001 66 11 7
0.305533 0.075622 0.00682214 67 11 7
0.305114 0.0759735 0.00670731 69 12 8
0.3047 0.0762906 0.0066426 68 11 7
0.304777 0.0758754 0.00667938 68 11 8
0.304836 0.0755102 0.00674026 68 12 8
0.305193 0.0755377 0.00676361 67 11 8
0.305604 0.0751951 0.00687107 67 11 8
0.306007 0.0748713 0.00700831 67 11 6
0.306418 0.0745532 0.00714997 67 10 6
0.30683 0.0742354 0.00729305 68 10 7
0.307233 0.0739068 0.00743672 66 9 6
0.30649 0.0741642 0.00725039 65 9 6
0.306078 0.0744845 0.00710912 65 10 7
0.305674 0.0748043 0.00695035 67 10 7
0.305265 0.0751235 0.00683421 67 10 7
0.304917 0.0750765 0.00680905 66 11 6
0.304983 0.0746606 0.00692033 65 9 6
0.305337 0.0747114 0.00691879 65 10 8
0.305399 0.0742906 0.00707187 63 9 6
0.305747 0.0743356 0.00709304 65 10 7
0.312391 0.0703334 0.00947219 127 120 101
0.311984 0.0706426 0.00934102 128 113 93
0.311589 0.0709153 0.00916892 130 95 67
0.311231 0.0709486 0.00906172 114 75 51
0.311195 0.0712146 0.00896615 113 68 48
0.310854 0.0711405 0.00891899 116 70 49
0.310509 0.0710736 0.00889388 93 46 29
0.310156 0.0710631 0.00885622 84 37 24
0.310105 0.0714239 0.00868385 84 31 18
0.3098 0.0710397 0.00887951 72 22 12
0.309755 0.0713786 0.00867644 74 19 10
0.309434 0.071041 0.0089346 64 16 10
0.309396 0.0713657 0.00871406 67 15 8
0.309032 0.0713629 0.00875964 60 9 5
0.309347 0.0717244 0.00851601 68 12 6
0.308988 0.0716967 0.00853652 64 8 5
0.309295 0.0720775 0.00832192 67 9 6
0.308944 0.0720475 0.00832586 65 8 5
0.309238 0.072454 0.00816176 67 8 5
0.308894 0.0724035 0.00813982 65 8 5
0.308825 0.0728177 0.00799025 66 8 5
0.308536 0.0724006 0.00814212 65 8 5
0.308485 0.0727534 0.00797375 66 8 5
0.308176 0.072386 0.00814485 62 7 4
0.308137 0.0726944 0.00795977 63 8 5
0.30782 0.0723718 0.00815239 62 7 4
0.307772 0.0727309 0.0079184 62 8 4
0.307462 0.0723444 0.00815914 61 7 5
0.307422 0.0727004 0.00789944 61 7 5
0.307106 0.0723212 0.00815015 62 7 5
0.307066 0.0726741 0.00789304 62 8 5
0.306758 0.0722908 0.00814964 59 7 5
0.306717 0.0726482 0.0078898 61 7 4
0.306398 0.07229 0.00813384 57 7 5
0.306353 0.0726284 0.00789432 59 8 4
0.306029 0.0723036 0.00811482 56 7 4
0.305987 0.0726352 0.00790487 56 7 4
0.305659 0.0723655 0.00813147 53 6 4
0.305611 0.0727942 0.00784382 52 6 3
0.305278 0.0724506 0.0081415 51 6 4
0.305235 0.0728258 0.00786256 51 5 3
0.304901 0.0725184 0.00817842 48 5 3
0.304866 0.0728886 0.00788977 49 5 3
0.304531 0.0725869 0.00820979 50 5 3
0.304497 0.0729327 0.00790191 50 5 3
0.30416 0.0726672 0.00823511 48 4 2
0.304126 0.0729932 0.00791377 48 4 2
0.303778 0.072774 0.00825263 48 4 2
0.303754 0.073082 0.00793426 46 3 1
0.303397 0.0728907 0.00831083 48 3 2
0.303364 0.0731877 0.00796311 46 3 2
0.303007 0.0730396 0.00836032 46 4 2
0.302966 0.0733156 0.00799689 44 2 1
0.302616 0.0731841 0.0084191 49 3 2
0.302584 0.0734537 0.00804618 46 2 2
0.302224 0.0733412 0.00845739 47 3 2
0.302191 0.0736076 0.00808715 43 3 2
0.301824 0.0734989 0.00850962 48 3 2
0.3018 0.0737626 0.00814506 44 3 2
0.301423 0.0736717 0.00855317 49 4 2
0.3014 0.0739294 0.0081952 46 3 2
0.30104 0.0738283 0.00861611 51 5 2
0.301011 0.0740574 0.00825281 49 4 2
0.300648 0.0739627 0.00863634 53 5 2
0.300635 0.0741886 0.00827125 51 5 2
0.300277 0.0740721 0.00869804 56 6 3
0.300246 0.0743105 0.00832198 53 5 3
0.299896 0.0741832 0.00873349 56 6 3
0.299864 0.0744311 0.00835458 55 6 3
0.29949 0.0744588 0.00849135 58 6 3
0.299846 0.0745897 0.00818137 56 5 3
0.29946 0.0747276 0.00817859 59 6 3
0.299818 0.0748854 0.00790956 57 4 1
0.29944 0.074923 0.00800416 59 5 2
0.299774 0.0752106 0.00767132 59 4 2
0.29941 0.0752481 0.00775653 62 4 2
0.29973 0.0755751 0.00748073 63 4 3
0.29936 0.0755832 0.00755003 64 5 3
0.29967 0.0759819 0.00733824 65 6 3
0.299308 0.0759827 0.00739751 66 5 3
0.299603 0.0764025 0.00722056 69 7 4
0.29924 0.0763893 0.00725837 67 6 4
0.299558 0.0766792 0.00714031 68 7 5
0.299197 0.0766507 0.00718037 67 7 5
0.299486 0.0770885 0.00705617 70 8 5
0.299134 0.0770491 0.00709454 71 8 6
0.299424 0.0774815 0.0069861 67 8 6
0.299064 0.077443 0.00702127 67 8 6
0.299347 0.077902 0.00694714 66 9 7
0.299003 0.0778476 0.00698096 69 9 6
0.299284 0.0782718 0.00694879 66 9 5
0.298908 0.0783084 0.0069675 68 9 5
0.29922 0.0785811 0.00695486 64 7 4
0.298878 0.078488 0.00697732 66 8 5
0.298797 0.0788998 0.0069936 66 7 4
0.298456 0.0788179 0.00701933 65 8 4
0.298375 0.0792236 0.00703725 67 7 4
0.298032 0.0791485 0.00704696 66 7 4
0.29795 0.0795596 0.00705407 67 7 4
0.297608 0.0794725 0.00705487 67 7 4
0.297529 0.0798673 0.00708584 69 7 3
0.297193 0.079787 0.00708951 69 7 3
0.297104 0.0801558 0.00716371 69 7 4
0.296761 0.0800808 0.00716984 70 7 4
0.296672 0.0804662 0.00726372 70 7 4
0.296335 0.0803859 0.00725883 70 7 4
0.296251 0.0807518 0.00739271 70 7 4
0.295906 0.0806826 0.00739088 71 7 4
0.296154 0.0811092 0.00756941 70 7 4
0.295819 0.0810305 0.00756925 70 7 4
0.296089 0.0813676 0.00773169 70 8 4
0.29575 0.081296 0.00770839 69 7 3
0.296007 0.0816873 0.00795347 71 8 3
0.295668 0.0816238 0.00794257 69 7 3
0.29592 0.0819901 0.00821112 67 8 3
0.295582 0.0819281 0.00819494 68 8 3
0.295819 0.0823489 0.00854908 67 7 4
0.295481 0.0822753 0.00851822 66 7 4
0.295401 0.0825379 0.00880892 65 7 3
0.295053 0.0824828 0.00878787 65 6 2
0.294978 0.0827135 0.00911188 62 7 3
0.294905 0.0829331 0.00946255 60 6 1
0.294835 0.0831282 0.00981468 60 6 1
0.294762 0.0832896 0.0102123 61 6 2
0.296267 0.0820609 0.00823268 68 8 3
0.296344 0.081765 0.00797523 68 7 3
0.296434 0.0814495 0.0077516 69 8 4
0.296603 0.082151 0.0082411 67 7 4
0.296689 0.0818471 0.00799154 68 7 3
0.296777 0.0815367 0.00775078 68 8 3
0.296861 0.0812061 0.00753556 68 7 3
0.297185 0.0813555 0.00756416 67 7 3
0.297272 0.0810033 0.00736139 69 7 3
0.29754 0.0813856 0.00754348 67 7 3
0.297617 0.0810795 0.00737215 68 6 4
0.297877 0.0814586 0.00756165 67 6 3
0.297953 0.0811517 0.00738115 66 7 3
0.298216 0.081529 0.00758656 67 6 3
0.298308 0.0812012 0.00737974 67 6 3
0.298637 0.0812986 0.00741323 66 6 3
0.298733 0.0809367 0.00723579 67 6 3
0.299071 0.0810172 0.00726063 65 5 2
0.299154 0.0806599 0.00710834 65 5 2
0.2995 0.0807326 0.00713748 65 5 2
0.299579 0.0803586 0.00702094 64 6 3
0.299923 0.0804309 0.00701517 63 6 3
0.300006 0.0800518 0.00695292 63 6 3
0.300346 0.0801332 0.00691944 61 5 2
0.300436 0.0797247 0.00690579 63 6 3
0.300777 0.079802 0.00687789 61 6 3
0.300857 0.0794113 0.00686987 62 6 3
0.301199 0.0794904 0.00684456 62 6 3
0.301287 0.0790925 0.00684008 59 5 3
0.301628 0.0791729 0.00679955 60 5 3
0.301714 0.0787731 0.00676038 61 6 3
0.302056 0.0788586 0.00672979 59 6 3
0.30214 0.0784685 0.00667418 60 6 3
0.302473 0.0785511 0.00663019 61 6 4
0.302176 0.0783019 0.00666059 61 6 4
0.302558 0.0781643 0.00660051 63 7 4
0.302255 0.0779039 0.00663224 64 7 5
0.302607 0.0779605 0.00660411 62 7 5
0.30233 0.0775089 0.00665174 63 7 5
0.302894 0.0782357 0.00658531 61 7 4
0.3097 0.071756 0.00850669 73 15 7
0.309639 0.0721438 0.00833933 72 13 8
0.309597 0.0724251 0.00824812 70 11 7
0.312047 0.0702743 0.00946022 113 105 90
0.311652 0.0705298 0.00929794 118 94 68
0.311309 0.0704745 0.0092623 102 80 58
0.31125 0.0708381 0.00911786 117 81 55
0.31096 0.0704265 0.00926889 106 85 61
0.310911 0.0707759 0.00908666 118 80 55
0.310609 0.0703843 0.00929261 87 53 35
0.310556 0.0707499 0.00905295 97 53 35
0.310245 0.0703961 0.00931158 81 43 28
0.310199 0.0707275 0.00908329 86 43 29
0.309881 0.07039 0.00935486 61 22 14
0.309844 0.0707053 0.00910842 63 21 13
0.309508 0.0703951 0.00941622 52 17 11
0.309473 0.0707147 0.00916401 58 16 10
0.30912 0.0706065 0.00931406 52 10 5
0.30908 0.0709487 0.00905791 54 9 5
0.308752 0.0706441 0.00935007 49 8 5
0.308716 0.0709746 0.00909484 53 8 5
0.308375 0.0706824 0.00940008 49 7 5
0.308346 0.0709901 0.00912716 51 7 5
0.307997 0.0708024 0.00937313 48 5 4
0.307965 0.0711468 0.00905888 54 5 4
0.307622 0.0708829 0.00938786 47 4 3
0.307588 0.0712235 0.00905852 50 4 3
0.307238 0.0709626 0.00941186 51 4 4
0.307218 0.0712757 0.00905805 55 5 4
0.306874 0.0710433 0.00943526 52 5 4
0.306852 0.071292 0.00907935 54 5 4
0.306494 0.0711368 0.00946762 53 5 4
0.306482 0.0713462 0.0091014 55 5 4
0.306118 0.071282 0.00939147 53 5 4
0.306113 0.0714096 0.00912781 54 5 3
0.305739 0.071435 0.00938885 55 6 5
0.30574 0.0715182 0.00917033 55 6 4
0.30535 0.0715906 0.009362 54 6 3
0.305358 0.0716363 0.00920977 54 5 3
0.304976 0.0717713 0.00935912 56 6 4
0.304974 0.0717946 0.00925176 55 6 4
0.304592 0.0719545 0.00934062 56 6 4
0.304584 0.0720716 0.00892105 53 5 3
0.304194 0.0721416 0.00933802 56 6 3
0.304202 0.0722212 0.00897 52 5 3
0.303803 0.0723371 0.00932953 58 7 4
0.303816 0.0723911 0.00901312 54 6 3
0.303414 0.0725683 0.00906746 56 6 4
0.303804 0.0725126 0.00864615 51 4 2
0.303418 0.0726829 0.00868709 52 5 3
0.304192 0.072391 0.00859329 50 4 3
0.304564 0.0722809 0.008541 50 4 3
0.304945 0.0721745 0.00851269 48 4 2
0.304975 0.0719339 0.00887839 52 5 3
0.305355 0.071823 0.00882077 51 6 4
0.30573 0.0717082 0.00879846 52 5 3
0.3061 0.0716391 0.00876789 52 5 3
0.306469 0.0715971 0.00876472 56 6 4
0.306836 0.0715906 0.00876053 58 6 5
0.307194 0.0715914 0.00876284 59 6 4
0.307553 0.0715802 0.00875618 58 6 4
0.307941 0.0713506 0.00890842 56 6 4
0.308311 0.0713281 0.00887712 57 7 4
0.308678 0.0713013 0.00884811 56 7 4
0.305317 0.0720826 0.0084712 48 5 3
0.305697 0.0719995 0.00844656 51 6 3
0.306073 0.0719478 0.00843159 55 6 4
0.306442 0.0719267 0.00844386 57 6 4
0.306802 0.0719279 0.00845748 57 6 4
0.307152 0.0719335 0.0084681 61 7 5
0.307508 0.072017 0.00841056 60 6 4
0.307904 0.0716832 0.00865862 60 7 4
0.307867 0.0720171 0.00841221 61 7 5
0.30823 0.0720045 0.00838911 61 7 4
0.308269 0.0716715 0.00862595 59 7 4
0.308635 0.0716523 0.00859004 58 7 4
0.308587 0.0720292 0.00835911 62 7 5
0.312969 0.0691625 0.00981269 100 105 94
0.313027 0.0689152 0.00997152 103 108 97
0.313088 0.0685301 0.0101099 109 114 100
0.312381 0.0674592 0.0111415 110 113 98
0.311953 0.0678806 0.0111252 103 106 98
0.312048 0.0681153 0.010851 93 96 91
0.311704 0.0681182 0.0110916 96 99 93
0.31166 0.0684794 0.0107626 88 92 89
0.311282 0.0683385 0.0112315 92 95 91
0.311244 0.0686139 0.0108437 76 82 83
0.31085 0.0685797 0.0113005 88 89 84
0.310842 0.0687394 0.0109883 75 77 78
0.310371 0.0689073 0.0112658 75 70 73
0.310399 0.0690457 0.0109334 66 55 60
0.310017 0.0692001 0.0109708 70 53 52
0.310393 0.0691104 0.0107783 62 53 57
0.310031 0.0693569 0.0106062 60 38 36
0.310407 0.0692881 0.0104342 54 39 41
0.310003 0.0695767 0.010225 53 30 27
0.310375 0.0695301 0.0101357 51 35 32
0.309957 0.0698074 0.00990256 52 26 20
0.31033 0.0697932 0.00984332 56 36 30
0.310287 0.0700821 0.00956832 62 38 27
0.310658 0.0700663 0.00952809 72 50 35
0.311016 0.070096 0.009493 76 62 53
0.31136 0.0701198 0.00943664 82 70 58
0.309919 0.0700878 0.00962071 58 23 17
0.309542 0.0701001 0.00967902 50 18 13
0.309151 0.0702737 0.00958218 45 11 5
0.308783 0.0703318 0.0096394 47 9 6
0.308407 0.0704293 0.00966306 48 8 5
0.30802 0.0705302 0.0097104 47 6 4
0.30764 0.0705979 0.00982985 49 5 4
0.307271 0.0707421 0.0098445 48 4 3
0.306882 0.0708925 0.00981631 51 5 4
0.306496 0.0710258 0.00980635 53 5 4
0.306109 0.0711677 0.00980653 54 6 4
0.305736 0.071343 0.00980085 55 6 4
0.305344 0.0715265 0.00977487 58 7 5
0.304952 0.0717313 0.00976713 58 7 4
0.304553 0.0719321 0.00975608 58 7 3
0.311995 0.0684653 0.0106022 88 93 89
0.31194 0.0688096 0.0103022 78 84 83
0.311882 0.0691874 0.00999711 69 75 74
0.311846 0.0693996 0.00983957 67 69 71
0.311765 0.0698381 0.00959096 79 76 72
0.312117 0.0698869 0.00957187 95 94 86
0.311703 0.0701811 0.00945055 97 83 69
0.311417 0.0697733 0.00963875 63 54 52
0.311478 0.0694219 0.00987798 57 52 54
0.311116 0.069442 0.00994647 56 50 53
0.311527 0.0691289 0.0101218 56 57 63
0.311163 0.0691471 0.0102365 55 54 62
0.311589 0.0687845 0.0104458 61 64 71
0.311206 0.0688704 0.0105254 59 64 73
0.310834 0.0689352 0.0107028 60 61 69
0.310799 0.0691901 0.0103682 54 47 53
0.310761 0.0694722 0.0100589 51 40 41
0.310701 0.0697717 0.00977382 52 39 33
0.311063 0.0697607 0.00970468 65 54 52
0.312871 0.066227 0.0111939 65 60 44
0.312818 0.0659375 0.0115258 66 59 41
0.312795 0.0659758 0.0120636 71 64 44
0.312803 0.0656588 0.0118583 69 62 41
0.312827 0.0656981 0.0123969 72 64 45
0.312811 0.0653917 0.0121863 69 59 31
0.312844 0.0654336 0.0127219 79 69 43
0.312805 0.0651349 0.01252 77 64 30
0.312847 0.0651781 0.0130491 86 71 36
0.312834 0.0648834 0.012843 77 62 28
0.312847 0.0649231 0.0133772 86 68 30
0.31279 0.0660033 0.0126085 82 78 59
0.31269 0.0662674 0.0128219 88 88 71
0.312822 0.0657283 0.0129314 84 77 50
0.312738 0.0660018 0.0131633 91 85 62
0.312803 0.0654765 0.0132542 92 74 35
0.31274 0.065745 0.0134772 103 89 52
0.312742 0.0654775 0.013802 103 84 44
0.312818 0.0652011 0.0135989 95 76 35
0.312746 0.0651928 0.0141587 98 80 37
0.312826 0.0649274 0.0139308 92 74 31
0.312819 0.0646672 0.0142622 97 77 28
0.312702 0.06491 0.014492 99 77 31
0.312798 0.0643952 0.0145754 98 77 27
0.312619 0.0646152 0.0148179 100 80 28
0.312798 0.0641025 0.014882 99 80 27
0.312581 0.064317 0.0151067 97 78 27
0.312832 0.0638207 0.0151858 99 80 25
0.312589 0.0640385 0.0154013 100 80 27
0.312952 0.0635399 0.015519 103 85 26
0.312645 0.0637515 0.0157534 104 84 27
0.313044 0.0634254 0.0156698 102 85 25
0.312855 0.0634722 0.0160822 102 84 24
0.31299 0.0633758 0.0162157 101 84 23
0.312855 0.0658962 0.0109978 59 53 32
0.312794 0.0656178 0.0113328 63 55 33
0.312771 0.0653579 0.0116614 67 56 28
0.312778 0.0651009 0.0119857 69 57 27
0.312777 0.0648559 0.0123087 76 61 25
0.312707 0.06481 0.0117887 69 58 21
0.312688 0.0644948 0.0115947 70 57 19
0.312696 0.0647782 0.011264 63 51 19
0.312644 0.0644844 0.0111036 62 50 13
0.312692 0.0647573 0.0107301 53 42 11
0.312654 0.0642982 0.0107821 63 51 12
0.31268 0.0645173 0.0104618 57 46 11
0.312684 0.0642427 0.0103505 52 43 10
0.312683 0.0644697 0.0100046 50 42 11
0.312726 0.0639782 0.0101245 50 42 11
0.312707 0.0642253 0.00975075 45 38 8
0.312774 0.0637274 0.00982661 48 40 8
0.312743 0.0639717 0.00951484 47 40 9
0.312849 0.0634901 0.00952513 43 38 7
0.312785 0.0637695 0.00927711 45 40 7
0.31271 0.0647686 0.0101821 53 43 10
0.312731 0.0650676 0.0114633 61 51 21
0.312713 0.0650452 0.0109289 61 51 20
0.312723 0.0650367 0.0103873 56 46 13
0.312783 0.0650383 0.00984772 48 38 9
0.312765 0.0653234 0.0111339 57 48 23
0.31276 0.0653079 0.0105942 61 50 19
0.312801 0.0653033 0.0100438 57 45 17
0.31286 0.0655908 0.0102449 55 44 17
0.312825 0.0655914 0.0108028 58 48 24
0.311801 0.0640225 0.0169627 101 82 27
0.311635 0.0642579 0.0166533 101 81 27
0.311569 0.0645555 0.0163216 96 78 26
0.311677 0.064879 0.015975 100 80 26
0.311875 0.0652197 0.0156329 96 75 24
0.312009 0.065538 0.0153349 109 83 30
0.31217 0.0658598 0.0149526 122 100 47
0.312241 0.0661513 0.0145935 122 105 60
0.312234 0.0664132 0.014239 115 102 67
0.312145 0.0666332 0.013917 118 107 79
0.311962 0.0668265 0.0136201 122 117 93
0.311186 0.0647031 0.0166525 95 77 25
0.311262 0.0650226 0.0163032 90 72 23
0.311495 0.0653746 0.0159187 100 79 26
0.311693 0.0657218 0.0156099 103 83 30
0.311898 0.0660611 0.0152497 110 88 36
0.311987 0.0663564 0.0148848 120 102 56
0.311979 0.0666192 0.0145273 117 102 66
0.311883 0.0668286 0.0141823 120 108 79
0.310824 0.065168 0.0166446 83 66 19
0.311041 0.065509 0.0162541 89 71 24
0.311284 0.0658748 0.0159271 96 78 28
0.311569 0.0662322 0.0155446 109 85 33
0.311673 0.0665441 0.0151899 119 103 56
0.311716 0.0668209 0.0148074 117 103 66
0.311617 0.067035 0.0144711 117 106 75
0.311666 0.0670132 0.0139021 121 116 92
0.311764 0.0669876 0.0133288 124 119 98
0.311866 0.0670096 0.0127502 115 115 98
0.311684 0.0672149 0.012432 118 115 102
0.312067 0.0670542 0.0121003 116 115 100
0.311574 0.0674516 0.0121387 121 117 104
0.311996 0.0672967 0.0117874 113 113 101
0.311439 0.0677376 0.0118498 119 115 103
0.311941 0.0675653 0.0114704 109 110 102
0.311432 0.0679995 0.0114868 109 108 98
0.312323 0.0671671 0.0115121 108 106 93
0.312362 0.0669126 0.0118329 99 99 86
0.310585 0.0656506 0.0165863 81 64 18
0.310826 0.0660066 0.0162323 89 71 23
0.31117 0.0663894 0.0158534 100 81 30
0.311337 0.0667188 0.0155032 110 92 46
0.311432 0.0670164 0.0150968 112 100 64
0.311357 0.0672494 0.0147276 115 106 77
0.311415 0.0672078 0.014174 124 114 89
0.311416 0.0671718 0.0136371 126 121 101
0.311483 0.0671921 0.0130642 121 119 102
0.310352 0.0661366 0.0165423 80 65 23
0.31064 0.0665051 0.0161887 88 71 26
0.310948 0.0668776 0.015812 107 85 39
0.31112 0.0671979 0.015397 104 94 59
0.311071 0.0674398 0.0150372 109 97 67
0.310912 0.0676291 0.014713 112 101 80
0.311165 0.0674166 0.0144587 121 111 86
0.310836 0.0676132 0.0141908 123 115 95
0.311117 0.0673926 0.0139234 121 115 96
0.310837 0.0675948 0.013657 124 117 99
0.311126 0.0673901 0.0133788 127 120 103
0.310919 0.0676014 0.0130883 123 116 100
0.311271 0.0673983 0.0127669 119 116 102
0.310804 0.0678175 0.0127518 122 113 101
0.311167 0.0676291 0.0124498 120 113 100
0.310714 0.0680611 0.0124433 122 111 97
0.311041 0.0679027 0.0121681 118 110 98
0.31065 0.0683158 0.0121311 114 105 94
0.311034 0.0681461 0.0117914 110 105 96
0.310567 0.0685356 0.011803 101 96 90
0.310998 0.0683874 0.0114718 100 98 92
0.311329 0.0681278 0.0114598 105 105 96
0.31016 0.0666318 0.0164895 85 70 32
0.310538 0.0670182 0.0161024 95 76 36
0.310771 0.0673697 0.0156951 101 90 51
0.310823 0.0676504 0.0152943 103 92 63
0.310664 0.0678347 0.0149938 111 99 77
0.310623 0.0678404 0.0144556 122 112 92
0.310601 0.0678087 0.0139287 125 116 98
0.31064 0.0678034 0.0133756 123 113 99
0.31052 0.0680271 0.013049 122 110 97
0.310435 0.0682612 0.0127367 119 108 93
0.310322 0.0684976 0.0124386 110 101 90
0.310213 0.0686823 0.0120894 95 92 86
0.31035 0.0687596 0.0116866 89 86 83
0.310048 0.0671408 0.0164015 93 76 40
0.310354 0.0675131 0.0159998 101 83 49
0.310459 0.0678117 0.0156127 108 96 66
0.310357 0.0680352 0.0152937 115 100 77
0.310399 0.0680459 0.0147208 118 106 85
0.310406 0.0680342 0.0141884 125 112 94
0.310429 0.0680297 0.0136469 125 114 98
0.310296 0.0682539 0.0133324 121 109 95
0.310185 0.0684862 0.0130247 121 107 92
0.310055 0.0686914 0.0127158 112 98 84
0.309936 0.0689103 0.0124006 106 95 81
0.309947 0.0689373 0.0120248 91 77 70
0.309969 0.0689963 0.0116397 83 61 58
0.30999 0.0690929 0.0113535 78 55 54
0.309628 0.0693821 0.0111219 76 49 41
0.309623 0.0694471 0.0108908 73 45 36
0.309211 0.0695883 0.0110909 77 39 28
0.309222 0.0696578 0.0106963 66 31 22
0.308806 0.0697505 0.0110797 68 28 19
0.308815 0.0698093 0.0106825 61 22 14
0.308413 0.0699442 0.010853 64 20 12
0.308418 0.0699754 0.0106731 63 20 12
0.30802 0.0701499 0.0107836 57 12 6
0.308019 0.0701629 0.0106548 57 12 6
0.307639 0.0703561 0.0106432 55 9 5
0.308024 0.0702778 0.0102506 53 9 4
0.307646 0.0704382 0.0102346 51 7 4
0.308027 0.070443 0.00985887 48 6 4
0.308419 0.0702055 0.0100185 50 11 6
0.308421 0.0700456 0.0104049 55 15 9
0.308803 0.0700823 0.00997119 46 11 6
0.308822 0.0699032 0.0103538 52 16 10
0.309189 0.0699951 0.00989525 48 14 8
0.309218 0.0698025 0.0102429 52 18 11
0.309572 0.0698398 0.00997181 51 21 14
0.309588 0.0697225 0.0101531 51 23 17
0.309223 0.0696813 0.0106073 60 26 18
0.309608 0.0695602 0.0105166 64 35 26
0.30992 0.0676569 0.0163133 100 82 51
0.310078 0.0679836 0.0159562 107 90 61
0.310117 0.0682528 0.0155686 117 97 73
0.310025 0.0684996 0.0152591 123 104 82
0.310185 0.0682634 0.0150072 120 104 81
0.309917 0.0687367 0.0149434 126 108 88
0.310056 0.0685001 0.0146927 124 110 90
0.309833 0.0689737 0.0146356 125 108 89
0.309947 0.0687287 0.014402 122 105 88
0.309729 0.0692175 0.014328 123 106 88
0.309836 0.0689646 0.0140895 121 103 85
0.309602 0.0694456 0.0140319 119 99 80
0.309695 0.0691897 0.0137868 118 99 82
0.309533 0.0693887 0.0134999 111 91 74
0.309839 0.0689559 0.0135511 120 102 87
0.309697 0.0691602 0.0132395 113 93 76
0.309993 0.0687209 0.0132972 119 105 92
0.309856 0.0689294 0.0129853 115 99 83
0.310116 0.0684905 0.0136047 122 107 92
0.309963 0.0687262 0.0138491 119 103 89
0.310076 0.0684913 0.014162 120 103 87
0.310216 0.068268 0.0144437 121 106 89
0.310232 0.0682645 0.0139075 125 110 93
0.309711 0.0681453 0.0162654 98 78 49
0.309874 0.0684606 0.0158667 114 92 66
0.309859 0.068723 0.0155111 119 98 73
0.309786 0.0689762 0.0151939 122 104 83
0.309727 0.0692195 0.0148738 122 101 83
0.30963 0.0694619 0.0145716 122 101 83
0.309635 0.0686629 0.016144 107 85 58
0.309693 0.0689555 0.0157711 117 95 71
0.30967 0.0692104 0.0154386 121 102 80
0.309621 0.0694642 0.0151099 122 102 83
0.309539 0.0696739 0.0148493 119 98 79
0.309381 0.0698918 0.0145084 113 91 74
0.309478 0.0696893 0.0142434 116 92 73
0.309268 0.0698707 0.0140049 110 86 66
0.309362 0.0696482 0.013723 110 89 73
0.309016 0.0700556 0.0137295 104 71 53
0.309102 0.0698267 0.0134441 95 63 49
0.308746 0.070223 0.013455 91 48 34
0.308844 0.0699885 0.0131912 89 50 38
0.308577 0.0701344 0.0129628 78 32 20
0.308958 0.0697806 0.0128737 93 57 47
0.308714 0.0699474 0.0126415 80 36 27
0.309084 0.0696117 0.0125073 87 52 45
0.308845 0.0697903 0.0122494 82 36 27
0.309272 0.069463 0.0121737 89 53 43
0.309173 0.0695419 0.0118891 84 46 38
0.309579 0.0692686 0.0119632 83 48 41
0.309612 0.0693045 0.0115797 82 53 49
0.309195 0.0695482 0.0114878 82 43 30
0.308777 0.0697522 0.0113655 72 29 19
0.308377 0.0699252 0.0112692 67 22 14
0.307993 0.0701294 0.0112038 62 15 7
0.307617 0.0703455 0.0111125 60 12 5
0.307234 0.0705636 0.0110283 59 9 4
0.307257 0.0705443 0.0106431 57 7 4
0.306836 0.0707799 0.0109425 60 7 3
0.306872 0.0707469 0.0106203 57 7 4
0.30647 0.0709634 0.0106098 58 7 3
0.306881 0.0707805 0.010237 55 6 4
0.306491 0.070965 0.0102215 55 6 4
0.307262 0.0706109 0.0102471 52 5 4
0.308756 0.0697932 0.0117652 79 34 24
0.308349 0.0699758 0.0116857 70 23 14
0.307956 0.0701907 0.0115919 65 16 7
0.307576 0.070417 0.0115035 65 12 5
0.3072 0.0706364 0.0114095 61 8 3
0.306801 0.0708563 0.0113288 61 7 3
0.306454 0.0709911 0.0108644 59 7 4
0.306079 0.0711604 0.0106025 59 7 4
0.306092 0.0711421 0.0102005 55 7 4
0.305701 0.0713265 0.0101901 56 6 4
0.309743 0.0690988 0.0121214 90 66 61
0.309454 0.0693193 0.0124137 98 69 59
0.309336 0.0694253 0.0128302 103 78 62
0.309206 0.0696131 0.0131473 99 71 57
0.3097 0.0691155 0.0126908 104 88 78
0.309585 0.069263 0.0130851 109 87 69
0.309481 0.0694352 0.0134311 108 83 67
0.309559 0.0691885 0.0160235 108 87 64
0.309559 0.0694568 0.0156791 115 95 73
0.309502 0.0696992 0.0153855 115 95 74
0.309436 0.0698676 0.0151311 115 93 73
0.309295 0.0700928 0.0148047 109 86 67
0.309177 0.0700956 0.0143006 106 82 61
0.30893 0.0702852 0.0140056 96 60 44
0.308683 0.0704489 0.0137339 83 42 29
0.308367 0.0706171 0.0135234 78 33 22
0.308428 0.0703806 0.0132168 82 38 27
0.308044 0.0707344 0.0132738 73 23 12
0.308137 0.0705008 0.0129951 74 25 14
0.307825 0.0706511 0.0128208 73 21 10
0.307951 0.0704396 0.0125054 72 20 8
0.307532 0.0707601 0.0125636 70 14 5
0.307661 0.0705656 0.0122641 68 13 5
0.307357 0.0706965 0.0120744 67 12 4
0.307529 0.0705293 0.0118778 65 12 4
0.307145 0.0707568 0.0117859 65 9 2
0.307904 0.0703106 0.0119675 70 19 8
0.308104 0.0702373 0.012177 75 25 14
0.308268 0.0702885 0.0127061 79 30 18
0.308312 0.0700827 0.012061 77 29 18
0.308407 0.070098 0.0123831 78 31 21
0.308726 0.0698541 0.0121508 83 38 27
0.309461 0.069699 0.0159123 110 91 69
0.309391 0.0699648 0.0156151 112 92 72
0.309357 0.0700828 0.0154405 112 89 68
0.309255 0.070317 0.0151456 110 86 64
0.30904 0.070552 0.0148261 102 76 55
0.309098 0.0703238 0.0145822 102 72 50
0.308801 0.0707581 0.0145209 80 46 32
0.308862 0.0705237 0.0142671 96 62 42
0.308527 0.0709282 0.0142663 67 28 18
0.308578 0.0706982 0.0139807 78 41 29
0.30823 0.0710731 0.0140361 63 19 10
0.308253 0.0708751 0.0137816 69 26 16
0.307968 0.071174 0.0138014 64 15 6
0.307994 0.0709788 0.0135535 72 24 13
0.307634 0.0713197 0.0135953 64 11 4
0.307707 0.0710749 0.0133359 67 15 6
0.307368 0.0712268 0.0131314 67 12 3
0.307713 0.0708939 0.0130862 71 20 8
0.307438 0.0709885 0.0128411 72 16 5
0.313223 0.0634814 0.0178575 96 78 16
0.313647 0.0634272 0.0180029 96 79 16
0.313399 0.0633326 0.017483 92 77 16
0.313842 0.0632715 0.0176321 95 79 16
0.313625 0.0631898 0.0170877 95 79 17
0.314062 0.0631376 0.0172379 94 77 15
0.313854 0.0630754 0.016703 96 80 18
0.314287 0.0630245 0.0168259 96 80 17
0.317383 0.0626386 0.0140254 105 85 17
0.316238 0.0626475 0.0146948 99 82 15
0.315833 0.062692 0.0150413 96 79 15
0.318931 0.0628593 0.0124113 105 88 21
0.319302 0.0629675 0.0120553 105 89 22
0.319648 0.0630551 0.0119682 101 87 22
0.319991 0.0631366 0.012002 97 83 20
0.320359 0.0632575 0.011627 102 84 22
0.320014 0.0632054 0.0115853 101 86 22
0.321404 0.0635763 0.0114536 98 79 18
0.321713 0.0636348 0.011904 92 76 16
0.321378 0.0635013 0.0118685 96 79 17
0.321345 0.0634812 0.0122711 94 76 16
0.321003 0.0633724 0.0122322 97 76 18
0.321295 0.0635048 0.0126743 91 74 15
0.320955 0.0633976 0.0127175 96 77 16
0.321245 0.0635348 0.0131446 88 73 14
0.32091 0.0634148 0.0131229 93 75 15
0.3212 0.0635719 0.0135383 86 71 14
0.320864 0.0634506 0.0135133 91 75 15
0.321152 0.0636105 0.0139449 83 71 13
0.32082 0.0634767 0.0139201 89 75 14
0.321106 0.0636477 0.0143351 80 69 13
0.320774 0.0635117 0.0143099 88 74 13
0.321055 0.0636872 0.0147302 82 71 13
0.320724 0.0635582 0.0147124 90 75 14
0.321005 0.0637331 0.0151285 84 71 13
0.320677 0.0636 0.0151113 90 76 13
0.320956 0.0637871 0.0155227 83 70 12
0.320622 0.0636569 0.0154996 88 74 11
0.320902 0.0638518 0.0159156 85 71 12
0.320572 0.0637234 0.015897 91 76 12
0.320878 0.0638908 0.0161209 85 71 12
0.320523 0.0637905 0.016287 89 75 12
0.320818 0.0639668 0.0165638 85 73 12
0.320495 0.0638265 0.0164943 90 75 11
0.32047 0.063852 0.0166674 89 75 11
0.320139 0.0637222 0.0166541 92 77 12
0.32042 0.0639186 0.0170697 93 77 12
0.320087 0.0637865 0.0170375 92 77 12
0.320036 0.0638564 0.0174437 91 77 12
0.319754 0.063667 0.017022 97 80 13
0.319704 0.0637309 0.0174161 95 79 13
0.319425 0.0635461 0.0170051 95 79 13
0.319372 0.06361 0.0173958 95 78 12
0.319039 0.063506 0.0173643 94 78 13
0.318986 0.0635764 0.0177612 96 79 13
0.318651 0.0634793 0.0177337 96 79 13
0.318597 0.0635499 0.018122 96 78 13
0.31826 0.0634707 0.0180905 97 79 13
0.318547 0.0636361 0.0185114 97 80 13
0.3182 0.0635612 0.0184818 97 80 13
0.318506 0.0636905 0.0187589 97 80 13
0.318166 0.0636164 0.0187253 98 80 13
0.318451 0.0637754 0.0191666 99 80 13
0.318111 0.0636989 0.0191362 101 82 14
0.318396 0.0638595 0.019555 103 83 14
0.318053 0.0637939 0.0195654 104 84 14
0.318329 0.0639651 0.0200283 105 85 15
0.317991 0.0638953 0.0199924 107 86 15
0.317924 0.0639919 0.0204291 108 87 16
0.31758 0.0639366 0.02038 109 87 16
0.317557 0.0639781 0.0205432 110 88 16
0.317214 0.0639361 0.0204812 110 87 16
0.31714 0.0640902 0.020966 112 89 16
0.316795 0.0640729 0.0208587 113 90 16
0.316715 0.0642466 0.0213099 116 91 16
0.316373 0.0642545 0.0211721 113 89 15
0.316293 0.0644647 0.0215555 113 91 15
0.315925 0.0645761 0.0214784 111 88 15
0.316263 0.0645651 0.0217093 111 88 14
0.31584 0.0648605 0.0218333 108 86 14
0.316173 0.0648443 0.0220897 106 84 13
0.315744 0.0651686 0.0221408 100 79 12
0.316076 0.0651347 0.0224194 96 77 12
0.315656 0.0655052 0.0224571 94 75 12
0.315995 0.0654423 0.0227719 91 73 11
0.315973 0.0655404 0.022862 91 72 10
0.31632 0.0653992 0.0230372 92 75 11
0.316239 0.0657019 0.0233476 86 70 10
0.316657 0.0653579 0.0232908 93 74 11
0.316577 0.0656591 0.0236487 87 71 11
0.317001 0.0653623 0.0235771 96 77 12
0.316915 0.065646 0.0239515 90 72 11
0.317337 0.0653612 0.0237744 103 83 14
0.317246 0.0656243 0.0241631 99 80 15
0.317631 0.0655016 0.0240998 105 84 15
0.317584 0.0656683 0.0243045 102 81 14
0.317935 0.0656951 0.0243269 104 84 14
0.317494 0.065956 0.0246263 98 78 15
0.317832 0.066005 0.0247241 104 83 15
0.317404 0.0662666 0.0249474 98 79 14
0.317744 0.0662933 0.0250535 97 77 15
0.317349 0.0664346 0.025098 91 74 14
0.317647 0.0666066 0.0253438 93 72 13
0.317294 0.0666464 0.0252346 85 68 13
0.317255 0.0668249 0.0253347 85 68 14
0.316947 0.066684 0.0250295 86 70 14
0.316839 0.0671778 0.025213 85 68 13
0.316537 0.0671355 0.0248909 79 63 11
0.317161 0.0672134 0.0254778 82 65 12
0.317467 0.0672983 0.0257409 88 68 13
0.317802 0.0674139 0.025878 86 65 10
0.318148 0.0674896 0.0258995 79 61 10
0.318441 0.0678273 0.0259446 75 60 11
0.31842 0.0679287 0.0259731 72 58 11
0.318777 0.06798 0.025848 76 63 11
0.318689 0.0683958 0.0259142 60 49 8
0.319042 0.0684218 0.0257123 64 54 9
0.319324 0.068835 0.0254224 55 50 6
0.319628 0.0692345 0.0251235 35 36 2
0.319589 0.0696049 0.0249926 25 31 1
0.319559 0.069976 0.0246978 14 25 0
0.319547 0.0701589 0.0245542 10 24 1
0.319517 0.0704813 0.0242834 6 22 1
0.31947 0.0708134 0.0240793 3 22 1
0.319822 0.0708624 0.0240817 1 19 1
0.319416 0.0712267 0.0238037 2 20 2
0.319761 0.0713029 0.0238381 0 17 0
0.319378 0.0715516 0.0235881 1 19 2
0.319717 0.0716298 0.0236311 0 16 0
0.319676 0.0719486 0.0234016 0 16 0
0.320066 0.0716783 0.0236409 0 15 0
0.320021 0.0720097 0.0234261 0 14 0
0.320375 0.0720399 0.0234019 0 10 0
0.320338 0.0723403 0.0231621 0 9 0
0.320719 0.0722601 0.0230933 0 9 0
0.320687 0.0725589 0.022829 0 9 0
0.321093 0.0723936 0.0227217 0 12 0
0.32107 0.0726881 0.0224047 0 10 0
0.321518 0.0724071 0.0222942 0 13 0
0.321514 0.0726854 0.0219177 0 13 0
0.321959 0.0723754 0.0218463 0 16 1
0.321968 0.072443 0.0217251 0 15 1
0.322321 0.0723457 0.021535 3 21 2
0.321958 0.0725515 0.0216165 0 16 1
0.322249 0.0727133 0.021132 13 23 2
0.321857 0.0729779 0.0212504 0 14 1
0.322241 0.0730063 0.0208565 9 22 3
0.321859 0.0733228 0.0209994 0 15 1
0.322197 0.0734735 0.0205842 2 20 3
0.321774 0.0738404 0.0207445 0 15 2
0.32214 0.0738634 0.0203167 0 19 3
0.321704 0.0741019 0.0204043 0 15 1
0.322096 0.0741321 0.0199883 0 17 3
0.32207 0.0743081 0.0196344 0 17 3
0.321301 0.0740729 0.0208251 0 12 1
0.321357 0.0737442 0.0211428 0 12 0
0.321444 0.0732993 0.0214221 0 11 0
0.321479 0.0729413 0.0216861 0 12 0
0.320916 0.0739832 0.0212414 0 8 0
0.320948 0.0736633 0.0215325 0 8 0
0.321002 0.07329 0.02186 0 9 0
0.321047 0.0729663 0.022108 0 10 0
0.320109 0.0713474 0.0238465 0 16 0
0.320424 0.0716867 0.0236077 0 11 0
0.320467 0.071353 0.0238136 0 12 0
0.320795 0.0716517 0.0235159 0 11 0
0.320839 0.0713169 0.023737 0 12 0
0.321172 0.0715929 0.0233946 0 14 0
0.321216 0.0712604 0.0236225 0 14 0
0.32156 0.0715427 0.023272 0 17 0
0.321594 0.0712226 0.0235215 0 18 0
0.321967 0.0712992 0.023363 3 21 0
0.322009 0.0708556 0.0236554 5 23 0
0.322343 0.0712541 0.0233155 8 24 0
0.322377 0.0708719 0.0236254 8 24 0
0.322726 0.0709717 0.0236044 14 28 1
0.3224 0.0706634 0.0237974 9 25 1
0.322763 0.0706114 0.023905 15 28 1
0.322442 0.0703379 0.0240344 11 28 2
0.322804 0.070283 0.0241325 16 30 2
0.322506 0.06993 0.0241718 9 29 1
0.322845 0.0699962 0.0242059 15 31 2
0.322563 0.0695844 0.0242397 13 32 2
0.322905 0.0696337 0.0242985 17 32 2
0.322636 0.0691901 0.0242986 13 32 2
0.322972 0.0692638 0.0243461 18 35 2
0.322706 0.0687994 0.0243306 12 32 2
0.323046 0.0688615 0.0243753 19 35 3
0.322773 0.0684471 0.0243475 11 30 2
0.323109 0.0685124 0.0243962 15 32 4
0.323158 0.0682771 0.0243718 14 32 3
0.323449 0.0685872 0.0244154 19 35 4
0.323534 0.0681728 0.0243706 14 35 5
0.323842 0.0684096 0.0244082 21 37 4
0.323931 0.0680035 0.0243189 16 39 7
0.324223 0.068314 0.0243939 23 44 6
0.324309 0.0679316 0.0242841 23 47 8
0.324612 0.0681859 0.0243364 40 49 7
0.324562 0.0679454 0.0242572 29 49 8
0.324848 0.0683399 0.0243411 45 50 10
0.324948 0.0680211 0.0242486 44 51 11
0.325226 0.0684816 0.0242548 50 52 10
0.325292 0.0681648 0.0240957 58 58 14
0.325675 0.0683169 0.0239451 67 66 16
0.325578 0.0680118 0.0237137 70 63 14
0.325785 0.068243 0.0234309 71 64 14
0.325462 0.0678076 0.0233954 68 63 16
0.325612 0.0680661 0.0231016 71 65 16
0.325341 0.0676093 0.0230673 69 63 14
0.325473 0.0678793 0.0227605 73 66 15
0.325203 0.0674356 0.0227119 68 62 12
0.325328 0.0676816 0.022422 75 67 13
0.325112 0.0673454 0.0222607 69 62 10
0.325198 0.0674872 0.0221016 71 64 11
0.325069 0.0672908 0.0217958 62 56 9
0.325324 0.067752 0.0218117 77 69 11
0.325227 0.0675374 0.021527 71 62 9
0.325447 0.0680164 0.0215119 78 70 11
0.325378 0.067792 0.0212301 86 73 12
0.325537 0.0682836 0.0211935 88 75 14
0.325499 0.0680528 0.0209217 96 77 13
0.325614 0.0685544 0.0208696 104 84 14
0.32562 0.0683088 0.0206198 103 80 10
0.325633 0.0688615 0.0204938 108 82 11
0.325663 0.0685864 0.0202716 94 65 7
0.325818 0.0688376 0.0199878 78 53 8
0.325771 0.068309 0.0200798 88 63 7
0.325973 0.0685403 0.0198166 63 48 7
0.325866 0.0680388 0.0198775 50 43 5
0.326062 0.0682558 0.0196269 33 37 6
0.325945 0.0677579 0.0196907 39 39 3
0.326134 0.0679835 0.0194163 26 35 4
0.326177 0.0677025 0.0192229 21 32 3
0.326365 0.0679184 0.01897 9 27 6
0.326237 0.0674316 0.0189947 15 29 5
0.326395 0.0676598 0.0187474 8 27 6
0.326394 0.0673909 0.0185288 3 23 4
0.32648 0.067931 0.0184215 2 25 6
0.326497 0.0677079 0.0181317 0 20 5
0.326534 0.0682348 0.0180536 0 22 6
0.326537 0.0679675 0.0178144 0 21 6
0.326567 0.0684901 0.0177401 1 22 6
0.326591 0.0682187 0.0175176 1 21 6
0.326596 0.0687463 0.0174218 2 22 7
0.326608 0.0684732 0.0171995 1 20 5
0.326601 0.0689884 0.0171249 1 22 6
0.326616 0.0687171 0.0169036 1 22 7
0.326518 0.0689189 0.0166429 2 22 7
0.326535 0.0684459 0.0166675 1 21 7
0.326425 0.0686995 0.0163479 1 21 8
0.326369 0.0682964 0.0162712 0 20 6
0.326242 0.0685233 0.0159617 0 20 5
0.326155 0.0681685 0.0158284 0 20 5
0.325998 0.0684331 0.0154833 0 19 5
0.325981 0.0678822 0.0156034 0 19 5
0.325878 0.0681214 0.0153085 0 19 5
0.325693 0.067795 0.0151641 0 21 5
0.325634 0.0681671 0.0149711 0 20 5
0.325381 0.067591 0.014823 0 19 4
0.32551 0.0679803 0.0148476 0 20 5
0.325258 0.0676062 0.0146856 0 19 4
0.325079 0.0678588 0.014438 0 18 3
0.324804 0.0674827 0.0142775 0 20 4
0.324733 0.0679704 0.0141884 0 18 3
0.324479 0.0676222 0.0140146 0 19 3
0.324377 0.0681468 0.0139516 0 17 2
0.324193 0.0678097 0.013783 0 19 3
0.324059 0.0682973 0.0137146 0 16 1
0.323911 0.0679896 0.0135229 0 20 2
0.323704 0.0684699 0.0134424 0 20 2
0.323618 0.0681701 0.0132247 0 21 3
0.323596 0.0685433 0.0133297 1 19 3
0.3234 0.0683651 0.0129423 2 22 4
0.323436 0.0686541 0.0131588 1 20 3
0.323192 0.0688393 0.0128851 1 20 3
0.323313 0.0690483 0.0132037 0 18 2
0.323005 0.0691809 0.0129846 1 19 4
0.322995 0.0694645 0.013203 3 20 4
0.322631 0.0695492 0.013036 1 20 4
0.322605 0.0698317 0.0132432 4 21 4
0.322293 0.0696901 0.0128093 2 22 5
0.322189 0.0699021 0.0130898 3 20 5
0.322024 0.0698433 0.0125742 1 22 6
0.321851 0.070011 0.0128946 6 24 6
0.32156 0.0701408 0.0126801 3 24 5
0.321434 0.0703366 0.0129815 5 24 6
0.321263 0.0702739 0.0124524 8 27 7
0.321091 0.0704322 0.0128108 7 25 7
0.320757 0.0705381 0.012613 11 28 7
0.320961 0.0706129 0.0131341 9 26 5
0.320585 0.0706755 0.0129711 13 29 7
0.320894 0.0708532 0.0133931 13 27 6
0.320463 0.0708843 0.0132753 12 27 7
0.320406 0.0711197 0.0135431 13 28 9
0.320044 0.070926 0.0131487 16 30 9
0.31993 0.071138 0.0134354 15 30 9
0.319639 0.070986 0.0130013 11 29 11
0.319514 0.0711866 0.0133198 13 30 12
0.319254 0.0711003 0.0128101 11 34 14
0.319077 0.0712498 0.0131851 3 28 10
0.318848 0.071247 0.0126716 6 36 18
0.318675 0.0713387 0.0130998 4 33 15
0.318403 0.0715215 0.0127606 11 42 25
0.318445 0.0716747 0.013232 13 39 20
0.318168 0.0720201 0.012676 37 61 42
0.318225 0.0721094 0.0131435 31 53 34
0.318131 0.0724078 0.012796 53 72 51
0.318131 0.0726167 0.0130469 59 76 55
0.31807 0.0728298 0.0125925 84 99 73
0.318111 0.0731563 0.0128545 98 110 87
0.318047 0.0732374 0.0122623 112 123 104
0.318104 0.0736322 0.012409 122 132 112
0.318007 0.0735962 0.0118574 123 138 120
0.31806 0.0739413 0.0120091 130 141 124
0.317993 0.0740499 0.0117783 140 145 126
0.318017 0.0743526 0.0119639 129 141 125
0.317801 0.0742831 0.0115244 140 147 127
0.31782 0.0745905 0.0117053 130 138 122
0.317551 0.0747481 0.0114458 138 141 123
0.317568 0.0750218 0.0116721 134 136 119
0.317255 0.0751796 0.0114136 135 135 119
0.31724 0.0754631 0.0116201 137 138 122
